-3.0,-1.5,91
-3.0,-1.35,100
-3.0,-1.2,104
-3.0,-1.05,104
-3.0,-0.9,107
-3.0,-0.75,109
-3.0,-0.6,110
-3.0,-0.45,111
-3.0,-0.3,110
-3.0,-0.15,109
-3.0,0.0,108
-3.0,0.15,106
-3.0,0.3,105
-3.0,0.45,105
-3.0,0.6,104
-3.0,0.75,101
-3.0,0.9,98
-3.0,1.05,82
-3.0,1.2,77
-3.0,1.35,84
-3.0,1.5,91
-2.85,-1.5,101
-2.85,-1.35,109
-2.85,-1.2,111
-2.85,-1.05,105
-2.85,-0.9,108
-2.85,-0.75,110
-2.85,-0.6,111
-2.85,-0.45,111
-2.85,-0.3,110
-2.85,-0.15,109
-2.85,0.0,107
-2.85,0.15,105
-2.85,0.3,103
-2.85,0.45,102
-2.85,0.6,100
-2.85,0.75,97
-2.85,0.9,94
-2.85,1.05,82
-2.85,1.2,79
-2.85,1.35,87
-2.85,1.5,97
-2.7,-1.5,107
-2.7,-1.35,115
-2.7,-1.2,115
-2.7,-1.05,106
-2.7,-0.9,108
-2.7,-0.75,111
-2.7,-0.6,112
-2.7,-0.45,111
-2.7,-0.3,110
-2.7,-0.15,108
-2.7,0.0,106
-2.7,0.15,103
-2.7,0.3,100
-2.7,0.45,99
-2.7,0.6,96
-2.7,0.75,93
-2.7,0.9,90
-2.7,1.05,80
-2.7,1.2,81
-2.7,1.35,91
-2.7,1.5,101
-2.55,-1.5,104
-2.55,-1.35,109
-2.55,-1.2,112
-2.55,-1.05,115
-2.55,-0.9,120
-2.55,-0.75,123
-2.55,-0.6,122
-2.55,-0.45,113
-2.55,-0.3,110
-2.55,-0.15,107
-2.55,0.0,104
-2.55,0.15,101
-2.55,0.3,97
-2.55,0.45,94
-2.55,0.6,92
-2.55,0.75,92
-2.55,0.9,96
-2.55,1.05,95
-2.55,1.2,100
-2.55,1.35,109
-2.55,1.5,119
-2.4,-1.5,86
-2.4,-1.35,80
-2.4,-1.2,97
-2.4,-1.05,138
-2.4,-0.9,149
-2.4,-0.75,156
-2.4,-0.6,150
-2.4,-0.45,117
-2.4,-0.3,110
-2.4,-0.15,106
-2.4,0.0,105
-2.4,0.15,109
-2.4,0.3,104
-2.4,0.45,98
-2.4,0.6,93
-2.4,0.75,115
-2.4,0.9,140
-2.4,1.05,152
-2.4,1.2,158
-2.4,1.35,162
-2.4,1.5,167
-2.25,-1.5,85
-2.25,-1.35,77
-2.25,-1.2,92
-2.25,-1.05,134
-2.25,-0.9,147
-2.25,-0.75,156
-2.25,-0.6,156
-2.25,-0.45,124
-2.25,-0.3,116
-2.25,-0.15,111
-2.25,0.0,111
-2.25,0.15,121
-2.25,0.3,115
-2.25,0.45,104
-2.25,0.6,96
-2.25,0.75,135
-2.25,0.9,169
-2.25,1.05,184
-2.25,1.2,188
-2.25,1.35,190
-2.25,1.5,192
-2.1,-1.5,104
-2.1,-1.35,94
-2.1,-1.2,86
-2.1,-1.05,86
-2.1,-0.9,101
-2.1,-0.75,139
-2.1,-0.6,154
-2.1,-0.45,156
-2.1,-0.3,156
-2.1,-0.15,151
-2.1,0.0,143
-2.1,0.15,137
-2.1,0.3,123
-2.1,0.45,103
-2.1,0.6,96
-2.1,0.75,148
-2.1,0.9,195
-2.1,1.05,202
-2.1,1.2,204
-2.1,1.35,204
-2.1,1.5,204
-1.95,-1.5,112
-1.95,-1.35,101
-1.95,-1.2,86
-1.95,-1.05,71
-1.95,-0.9,87
-1.95,-0.75,136
-1.95,-0.6,160
-1.95,-0.45,178
-1.95,-0.3,182
-1.95,-0.15,175
-1.95,0.0,161
-1.95,0.15,148
-1.95,0.3,129
-1.95,0.45,108
-1.95,0.6,97
-1.95,0.75,165
-1.95,0.9,214
-1.95,1.05,216
-1.95,1.2,216
-1.95,1.35,215
-1.95,1.5,216
-1.8,-1.5,89
-1.8,-1.35,92
-1.8,-1.2,99
-1.8,-1.05,98
-1.8,-0.9,102
-1.8,-0.75,117
-1.8,-0.6,140
-1.8,-0.45,179
-1.8,-0.3,186
-1.8,-0.15,173
-1.8,0.0,164
-1.8,0.15,190
-1.8,0.3,190
-1.8,0.45,161
-1.8,0.6,166
-1.8,0.75,212
-1.8,0.9,247
-1.8,1.05,254
-1.8,1.2,255
-1.8,1.35,255
-1.8,1.5,255
-1.65,-1.5,68
-1.65,-1.35,81
-1.65,-1.2,101
-1.65,-1.05,103
-1.65,-0.9,103
-1.65,-0.75,99
-1.65,-0.6,123
-1.65,-0.45,176
-1.65,-0.3,186
-1.65,-0.15,170
-1.65,0.0,154
-1.65,0.15,172
-1.65,0.3,185
-1.65,0.45,190
-1.65,0.6,213
-1.65,0.75,237
-1.65,0.9,255
-1.65,1.05,255
-1.65,1.2,255
-1.65,1.35,255
-1.65,1.5,255
-1.5,-1.5,68
-1.5,-1.35,78
-1.5,-1.2,92
-1.5,-1.05,97
-1.5,-0.9,99
-1.5,-0.75,104
-1.5,-0.6,125
-1.5,-0.45,151
-1.5,-0.3,158
-1.5,-0.15,161
-1.5,0.0,137
-1.5,0.15,121
-1.5,0.3,138
-1.5,0.45,177
-1.5,0.6,208
-1.5,0.75,248
-1.5,0.9,255
-1.5,1.05,254
-1.5,1.2,216
-1.5,1.35,235
-1.5,1.5,255
-1.35,-1.5,68
-1.35,-1.35,78
-1.35,-1.2,87
-1.35,-1.05,93
-1.35,-0.9,95
-1.35,-0.75,101
-1.35,-0.6,121
-1.35,-0.45,129
-1.35,-0.3,121
-1.35,-0.15,120
-1.35,0.0,98
-1.35,0.15,83
-1.35,0.3,109
-1.35,0.45,156
-1.35,0.6,190
-1.35,0.75,249
-1.35,0.9,255
-1.35,1.05,220
-1.35,1.2,104
-1.35,1.35,108
-1.35,1.5,113
-1.2,-1.5,68
-1.2,-1.35,78
-1.2,-1.2,86
-1.2,-1.05,91
-1.2,-0.9,93
-1.2,-0.75,94
-1.2,-0.6,110
-1.2,-0.45,116
-1.2,-0.3,88
-1.2,-0.15,73
-1.2,0.0,75
-1.2,0.15,76
-1.2,0.3,100
-1.2,0.45,131
-1.2,0.6,160
-1.2,0.75,198
-1.2,0.9,246
-1.2,1.05,176
-1.2,1.2,91
-1.2,1.35,93
-1.2,1.5,95
-1.05,-1.5,66
-1.05,-1.35,71
-1.05,-1.2,77
-1.05,-1.05,83
-1.05,-0.9,91
-1.05,-0.75,92
-1.05,-0.6,92
-1.05,-0.45,77
-1.05,-0.3,37
-1.05,-0.15,52
-1.05,0.0,104
-1.05,0.15,97
-1.05,0.3,96
-1.05,0.45,109
-1.05,0.6,138
-1.05,0.75,134
-1.05,0.9,111
-1.05,1.05,97
-1.05,1.2,82
-1.05,1.35,81
-1.05,1.5,81
-0.9,-1.5,64
-0.9,-1.35,68
-0.9,-1.2,73
-0.9,-1.05,79
-0.9,-0.9,90
-0.9,-0.75,91
-0.9,-0.6,76
-0.9,-0.45,40
-0.9,-0.3,27
-0.9,-0.15,100
-0.9,0.0,156
-0.9,0.15,120
-0.9,0.3,101
-0.9,0.45,99
-0.9,0.6,123
-0.9,0.75,119
-0.9,0.9,87
-0.9,1.05,83
-0.9,1.2,80
-0.9,1.35,79
-0.9,1.5,79
-0.75,-1.5,65
-0.75,-1.35,69
-0.75,-1.2,74
-0.75,-1.05,80
-0.75,-0.9,93
-0.75,-0.75,98
-0.75,-0.6,78
-0.75,-0.45,42
-0.75,-0.3,53
-0.75,-0.15,102
-0.75,0.0,112
-0.75,0.15,94
-0.75,0.3,93
-0.75,0.45,95
-0.75,0.6,111
-0.75,0.75,113
-0.75,0.9,89
-0.75,1.05,81
-0.75,1.2,74
-0.75,1.35,70
-0.75,1.5,68
-0.6,-1.5,67
-0.6,-1.35,72
-0.6,-1.2,78
-0.6,-1.05,83
-0.6,-0.9,99
-0.6,-0.75,109
-0.6,-0.6,95
-0.6,-0.45,80
-0.6,-0.3,83
-0.6,-0.15,80
-0.6,0.0,60
-0.6,0.15,59
-0.6,0.3,79
-0.6,0.45,94
-0.6,0.6,108
-0.6,0.75,108
-0.6,0.9,89
-0.6,1.05,80
-0.6,1.2,72
-0.6,1.35,68
-0.6,1.5,66
-0.45,-1.5,70
-0.45,-1.35,75
-0.45,-1.2,81
-0.45,-1.05,86
-0.45,-0.9,108
-0.45,-0.75,121
-0.45,-0.6,105
-0.45,-0.45,104
-0.45,-0.3,104
-0.45,-0.15,102
-0.45,0.0,81
-0.45,0.15,69
-0.45,0.3,100
-0.45,0.45,103
-0.45,0.6,90
-0.45,0.75,90
-0.45,0.9,84
-0.45,1.05,93
-0.45,1.2,100
-0.45,1.35,100
-0.45,1.5,99
-0.3,-1.5,73
-0.3,-1.35,78
-0.3,-1.2,84
-0.3,-1.05,88
-0.3,-0.9,108
-0.3,-0.75,117
-0.3,-0.6,100
-0.3,-0.45,99
-0.3,-0.3,104
-0.3,-0.15,104
-0.3,0.0,98
-0.3,0.15,78
-0.3,0.3,102
-0.3,0.45,103
-0.3,0.6,87
-0.3,0.75,80
-0.3,0.9,79
-0.3,1.05,100
-0.3,1.2,120
-0.3,1.35,121
-0.3,1.5,122
-0.15,-1.5,69
-0.15,-1.35,76
-0.15,-1.2,88
-0.15,-1.05,96
-0.15,-0.9,101
-0.15,-0.75,101
-0.15,-0.6,94
-0.15,-0.45,94
-0.15,-0.3,104
-0.15,-0.15,104
-0.15,0.0,97
-0.15,0.15,89
-0.15,0.3,98
-0.15,0.45,103
-0.15,0.6,93
-0.15,0.75,79
-0.15,0.9,68
-0.15,1.05,96
-0.15,1.2,128
-0.15,1.35,132
-0.15,1.5,136
0.0,-1.5,62
0.0,-1.35,72
0.0,-1.2,93
0.0,-1.05,101
0.0,-0.9,98
0.0,-0.75,94
0.0,-0.6,94
0.0,-0.45,95
0.0,-0.3,104
0.0,-0.15,104
0.0,0.0,98
0.0,0.15,94
0.0,0.3,94
0.0,0.45,93
0.0,0.6,89
0.0,0.75,78
0.0,0.9,59
0.0,1.05,94
0.0,1.2,141
0.0,1.35,149
0.0,1.5,156
0.15,-1.5,66
0.15,-1.35,74
0.15,-1.2,93
0.15,-1.05,101
0.15,-0.9,98
0.15,-0.75,94
0.15,-0.6,94
0.15,-0.45,96
0.15,-0.3,100
0.15,-0.15,104
0.15,0.0,97
0.15,0.15,95
0.15,0.3,94
0.15,0.45,92
0.15,0.6,92
0.15,0.75,89
0.15,0.9,77
0.15,1.05,102
0.15,1.2,136
0.15,1.35,142
0.15,1.5,147
0.3,-1.5,72
0.3,-1.35,78
0.3,-1.2,87
0.3,-1.05,94
0.3,-0.9,98
0.3,-0.75,97
0.3,-0.6,94
0.3,-0.45,94
0.3,-0.3,94
0.3,-0.15,87
0.3,0.0,87
0.3,0.15,93
0.3,0.3,95
0.3,0.45,97
0.3,0.6,105
0.3,0.75,113
0.3,0.9,119
0.3,1.05,122
0.3,1.2,122
0.3,1.35,123
0.3,1.5,123
0.45,-1.5,69
0.45,-1.35,76
0.45,-1.2,84
0.45,-1.05,91
0.45,-0.9,100
0.45,-0.75,102
0.45,-0.6,97
0.45,-0.45,95
0.45,-0.3,96
0.45,-0.15,88
0.45,0.0,87
0.45,0.15,97
0.45,0.3,97
0.45,0.45,99
0.45,0.6,108
0.45,0.75,120
0.45,0.9,131
0.45,1.05,130
0.45,1.2,125
0.45,1.35,125
0.45,1.5,125
0.6,-1.5,62
0.6,-1.35,71
0.6,-1.2,82
0.6,-1.05,91
0.6,-0.9,99
0.6,-0.75,105
0.6,-0.6,106
0.6,-0.45,102
0.6,-0.3,98
0.6,-0.15,100
0.6,0.0,91
0.6,0.15,87
0.6,0.3,92
0.6,0.45,96
0.6,0.6,108
0.6,0.75,122
0.6,0.9,131
0.6,1.05,139
0.6,1.2,146
0.6,1.35,151
0.6,1.5,156
0.75,-1.5,58
0.75,-1.35,67
0.75,-1.2,78
0.75,-1.05,89
0.75,-0.9,98
0.75,-0.75,106
0.75,-0.6,111
0.75,-0.45,105
0.75,-0.3,96
0.75,-0.15,100
0.75,0.0,44
0.75,0.15,52
0.75,0.3,80
0.75,0.45,91
0.75,0.6,110
0.75,0.75,125
0.75,0.9,130
0.75,1.05,140
0.75,1.2,152
0.75,1.35,159
0.75,1.5,166
0.9,-1.5,73
0.9,-1.35,76
0.9,-1.2,76
0.9,-1.05,82
0.9,-0.9,95
0.9,-0.75,107
0.9,-0.6,109
0.9,-0.45,95
0.9,-0.3,93
0.9,-0.15,100
0.9,0.0,99
0.9,0.15,84
0.9,0.3,100
0.9,0.45,98
0.9,0.6,113
0.9,0.75,130
0.9,0.9,139
0.9,1.05,142
0.9,1.2,147
0.9,1.35,153
0.9,1.5,159
1.05,-1.5,87
1.05,-1.35,84
1.05,-1.2,76
1.05,-1.05,76
1.05,-0.9,88
1.05,-0.75,101
1.05,-0.6,103
1.05,-0.45,93
1.05,-0.3,93
1.05,-0.15,93
1.05,0.0,100
1.05,0.15,100
1.05,0.3,100
1.05,0.45,100
1.05,0.6,108
1.05,0.75,126
1.05,0.9,142
1.05,1.05,142
1.05,1.2,140
1.05,1.35,146
1.05,1.5,151
1.2,-1.5,95
1.2,-1.35,91
1.2,-1.2,81
1.2,-1.05,76
1.2,-0.9,82
1.2,-0.75,92
1.2,-0.6,100
1.2,-0.45,99
1.2,-0.3,93
1.2,-0.15,97
1.2,0.0,98
1.2,0.15,94
1.2,0.3,95
1.2,0.45,92
1.2,0.6,94
1.2,0.75,112
1.2,0.9,131
1.2,1.05,136
1.2,1.2,140
1.2,1.35,146
1.2,1.5,151
1.35,-1.5,110
1.35,-1.35,107
1.35,-1.2,96
1.35,-1.05,83
1.35,-0.9,82
1.35,-0.75,90
1.35,-0.6,99
1.35,-0.45,100
1.35,-0.3,98
1.35,-0.15,93
1.35,0.0,93
1.35,0.15,93
1.35,0.3,95
1.35,0.45,91
1.35,0.6,91
1.35,0.75,100
1.35,0.9,119
1.35,1.05,129
1.35,1.2,139
1.35,1.35,148
1.35,1.5,151
1.5,-1.5,116
1.5,-1.35,113
1.5,-1.2,103
1.5,-1.05,91
1.5,-0.9,88
1.5,-0.75,94
1.5,-0.6,94
1.5,-0.45,93
1.5,-0.3,93
1.5,-0.15,93
1.5,0.0,93
1.5,0.15,94
1.5,0.3,93
1.5,0.45,91
1.5,0.6,91
1.5,0.75,95
1.5,0.9,108
1.5,1.05,120
1.5,1.2,131
1.5,1.35,140
1.5,1.5,148
1.65,-1.5,121
1.65,-1.35,116
1.65,-1.2,113
1.65,-1.05,107
1.65,-0.9,105
1.65,-0.75,107
1.65,-0.6,96
1.65,-0.45,93
1.65,-0.3,95
1.65,-0.15,93
1.65,0.0,93
1.65,0.15,95
1.65,0.3,91
1.65,0.45,91
1.65,0.6,91
1.65,0.75,92
1.65,0.9,97
1.65,1.05,109
1.65,1.2,123
1.65,1.35,131
1.65,1.5,139
1.8,-1.5,125
1.8,-1.35,121
1.8,-1.2,118
1.8,-1.05,113
1.8,-0.9,109
1.8,-0.75,106
1.8,-0.6,94
1.8,-0.45,93
1.8,-0.3,96
1.8,-0.15,93
1.8,0.0,95
1.8,0.15,95
1.8,0.3,94
1.8,0.45,91
1.8,0.6,91
1.8,0.75,92
1.8,0.9,94
1.8,1.05,103
1.8,1.2,114
1.8,1.35,120
1.8,1.5,127
1.95,-1.5,131
1.95,-1.35,128
1.95,-1.2,120
1.95,-1.05,109
1.95,-0.9,106
1.95,-0.75,101
1.95,-0.6,93
1.95,-0.45,93
1.95,-0.3,98
1.95,-0.15,93
1.95,0.0,95
1.95,0.15,95
1.95,0.3,95
1.95,0.45,91
1.95,0.6,92
1.95,0.75,91
1.95,0.9,91
1.95,1.05,92
1.95,1.2,91
1.95,1.35,91
1.95,1.5,90
2.1,-1.5,128
2.1,-1.35,124
2.1,-1.2,117
2.1,-1.05,110
2.1,-0.9,108
2.1,-0.75,105
2.1,-0.6,98
2.1,-0.45,95
2.1,-0.3,98
2.1,-0.15,93
2.1,0.0,93
2.1,0.15,95
2.1,0.3,93
2.1,0.45,91
2.1,0.6,91
2.1,0.75,92
2.1,0.9,93
2.1,1.05,91
2.1,1.2,84
2.1,1.35,81
2.1,1.5,78
2.25,-1.5,124
2.25,-1.35,119
2.25,-1.2,113
2.25,-1.05,108
2.25,-0.9,105
2.25,-0.75,107
2.25,-0.6,107
2.25,-0.45,107
2.25,-0.3,95
2.25,-0.15,94
2.25,0.0,96
2.25,0.15,94
2.25,0.3,92
2.25,0.45,96
2.25,0.6,97
2.25,0.75,95
2.25,0.9,93
2.25,1.05,89
2.25,1.2,88
2.25,1.35,86
2.25,1.5,84
2.4,-1.5,123
2.4,-1.35,117
2.4,-1.2,109
2.4,-1.05,102
2.4,-0.9,95
2.4,-0.75,97
2.4,-0.6,107
2.4,-0.45,107
2.4,-0.3,96
2.4,-0.15,99
2.4,0.0,92
2.4,0.15,94
2.4,0.3,92
2.4,0.45,107
2.4,0.6,115
2.4,0.75,104
2.4,0.9,91
2.4,1.05,88
2.4,1.2,89
2.4,1.35,88
2.4,1.5,87
2.55,-1.5,129
2.55,-1.35,120
2.55,-1.2,110
2.55,-1.05,100
2.55,-0.9,92
2.55,-0.75,92
2.55,-0.6,93
2.55,-0.45,97
2.55,-0.3,98
2.55,-0.15,99
2.55,0.0,85
2.55,0.15,98
2.55,0.3,100
2.55,0.45,121
2.55,0.6,133
2.55,0.75,115
2.55,0.9,95
2.55,1.05,88
2.55,1.2,90
2.55,1.35,89
2.55,1.5,88
2.7,-1.5,136
2.7,-1.35,127
2.7,-1.2,114
2.7,-1.05,103
2.7,-0.9,93
2.7,-0.75,92
2.7,-0.6,92
2.7,-0.45,99
2.7,-0.3,99
2.7,-0.15,99
2.7,0.0,96
2.7,0.15,105
2.7,0.3,111
2.7,0.45,130
2.7,0.6,134
2.7,0.75,115
2.7,0.9,95
2.7,1.05,89
2.7,1.2,92
2.7,1.35,91
2.7,1.5,90
2.85,-1.5,155
2.85,-1.35,141
2.85,-1.2,120
2.85,-1.05,106
2.85,-0.9,98
2.85,-0.75,92
2.85,-0.6,94
2.85,-0.45,96
2.85,-0.3,75
2.85,-0.15,80
2.85,0.0,105
2.85,0.15,102
2.85,0.3,112
2.85,0.45,119
2.85,0.6,116
2.85,0.75,104
2.85,0.9,93
2.85,1.05,90
2.85,1.2,93
2.85,1.35,92
2.85,1.5,91
3.0,-1.5,200
3.0,-1.35,175
3.0,-1.2,133
3.0,-1.05,110
3.0,-0.9,110
3.0,-0.75,103
3.0,-0.6,91
3.0,-0.45,96
3.0,-0.3,87
3.0,-0.15,81
3.0,0.0,87
3.0,0.15,96
3.0,0.3,101
3.0,0.45,100
3.0,0.6,96
3.0,0.75,94
3.0,0.9,93
3.0,1.05,93
3.0,1.2,93
3.0,1.35,92
3.0,1.5,91
3.15,-1.5,212
3.15,-1.35,187
3.15,-1.2,150
3.15,-1.05,131
3.15,-0.9,133
3.15,-0.75,123
3.15,-0.6,99
3.15,-0.45,87
3.15,-0.3,96
3.15,-0.15,91
3.15,0.0,97
3.15,0.15,93
3.15,0.3,103
3.15,0.45,94
3.15,0.6,91
3.15,0.75,92
3.15,0.9,92
3.15,1.05,92
3.15,1.2,91
3.15,1.35,90
3.15,1.5,90
3.3,-1.5,168
3.3,-1.35,163
3.3,-1.2,183
3.3,-1.05,194
3.3,-0.9,171
3.3,-0.75,139
3.3,-0.6,102
3.3,-0.45,98
3.3,-0.3,103
3.3,-0.15,81
3.3,0.0,103
3.3,0.15,110
3.3,0.3,110
3.3,0.45,96
3.3,0.6,91
3.3,0.75,91
3.3,0.9,91
3.3,1.05,91
3.3,1.2,91
3.3,1.35,90
3.3,1.5,90
3.45,-1.5,150
3.45,-1.35,152
3.45,-1.2,192
3.45,-1.05,203
3.45,-0.9,167
3.45,-0.75,136
3.45,-0.6,100
3.45,-0.45,87
3.45,-0.3,79
3.45,-0.15,104
3.45,0.0,122
3.45,0.15,76
3.45,0.3,95
3.45,0.45,93
3.45,0.6,91
3.45,0.75,91
3.45,0.9,90
3.45,1.05,90
3.45,1.2,90
3.45,1.35,90
3.45,1.5,89
3.6,-1.5,181
3.6,-1.35,171
3.6,-1.2,184
3.6,-1.05,177
3.6,-0.9,137
3.6,-0.75,105
3.6,-0.6,93
3.6,-0.45,84
3.6,-0.3,126
3.6,-0.15,112
3.6,0.0,129
3.6,0.15,87
3.6,0.3,89
3.6,0.45,91
3.6,0.6,91
3.6,0.75,91
3.6,0.9,90
3.6,1.05,87
3.6,1.2,84
3.6,1.35,81
3.6,1.5,79
3.75,-1.5,191
3.75,-1.35,173
3.75,-1.2,168
3.75,-1.05,159
3.75,-0.9,126
3.75,-0.75,93
3.75,-0.6,99
3.75,-0.45,108
3.75,-0.3,101
3.75,-0.15,101
3.75,0.0,97
3.75,0.15,76
3.75,0.3,104
3.75,0.45,91
3.75,0.6,91
3.75,0.75,91
3.75,0.9,90
3.75,1.05,84
3.75,1.2,75
3.75,1.35,70
3.75,1.5,65
3.9,-1.5,181
3.9,-1.35,163
3.9,-1.2,157
3.9,-1.05,153
3.9,-0.9,140
3.9,-0.75,125
3.9,-0.6,93
3.9,-0.45,93
3.9,-0.3,95
3.9,-0.15,98
3.9,0.0,97
3.9,0.15,97
3.9,0.3,104
3.9,0.45,88
3.9,0.6,88
3.9,0.75,88
3.9,0.9,87
3.9,1.05,80
3.9,1.2,72
3.9,1.35,67
3.9,1.5,64
4.05,-1.5,165
4.05,-1.35,149
4.05,-1.2,140
4.05,-1.05,135
4.05,-0.9,131
4.05,-0.75,120
4.05,-0.6,93
4.05,-0.45,93
4.05,-0.3,97
4.05,-0.15,95
4.05,0.0,111
4.05,0.15,115
4.05,0.3,60
4.05,0.45,84
4.05,0.6,95
4.05,0.75,86
4.05,0.9,81
4.05,1.05,75
4.05,1.2,72
4.05,1.35,70
4.05,1.5,69
4.2,-1.5,136
4.2,-1.35,124
4.2,-1.2,120
4.2,-1.05,116
4.2,-0.9,108
4.2,-0.75,109
4.2,-0.6,98
4.2,-0.45,94
4.2,-0.3,97
4.2,-0.15,92
4.2,0.0,90
4.2,0.15,94
4.2,0.3,51
4.2,0.45,95
4.2,0.6,105
4.2,0.75,86
4.2,0.9,76
4.2,1.05,73
4.2,1.2,74
4.2,1.35,73
4.2,1.5,74
4.35,-1.5,89
4.35,-1.35,84
4.35,-1.2,94
4.35,-1.05,101
4.35,-0.9,101
4.35,-0.75,115
4.35,-0.6,103
4.35,-0.45,92
4.35,-0.3,92
4.35,-0.15,96
4.35,0.0,106
4.35,0.15,82
4.35,0.3,58
4.35,0.45,93
4.35,0.6,94
4.35,0.75,83
4.35,0.9,74
4.35,1.05,79
4.35,1.2,87
4.35,1.35,86
4.35,1.5,87
4.5,-1.5,65
4.5,-1.35,64
4.5,-1.2,82
4.5,-1.05,103
4.5,-0.9,109
4.5,-0.75,120
4.5,-0.6,103
4.5,-0.45,94
4.5,-0.3,98
4.5,-0.15,106
4.5,0.0,105
4.5,0.15,96
4.5,0.3,76
4.5,0.45,102
4.5,0.6,100
4.5,0.75,85
4.5,0.9,74
4.5,1.05,82
4.5,1.2,89
4.5,1.35,89
4.5,1.5,89
4.65,-1.5,37
4.65,-1.35,47
4.65,-1.2,76
4.65,-1.05,106
4.65,-0.9,111
4.65,-0.75,105
4.65,-0.6,96
4.65,-0.45,99
4.65,-0.3,125
4.65,-0.15,90
4.65,0.0,125
4.65,0.15,96
4.65,0.3,102
4.65,0.45,125
4.65,0.6,111
4.65,0.75,88
4.65,0.9,77
4.65,1.05,83
4.65,1.2,89
4.65,1.35,89
4.65,1.5,89
4.8,-1.5,27
4.8,-1.35,40
4.8,-1.2,67
4.8,-1.05,90
4.8,-0.9,97
4.8,-0.75,100
4.8,-0.6,97
4.8,-0.45,91
4.8,-0.3,98
4.8,-0.15,103
4.8,0.0,72
4.8,0.15,112
4.8,0.3,110
4.8,0.45,128
4.8,0.6,110
4.8,0.75,91
4.8,0.9,82
4.8,1.05,86
4.8,1.2,89
4.8,1.35,89
4.8,1.5,89
4.95,-1.5,45
4.95,-1.35,53
4.95,-1.2,62
4.95,-1.05,72
4.95,-0.9,86
4.95,-0.75,100
4.95,-0.6,91
4.95,-0.45,81
4.95,-0.3,98
4.95,-0.15,98
4.95,0.0,112
4.95,0.15,91
4.95,0.3,97
4.95,0.45,106
4.95,0.6,99
4.95,0.75,92
4.95,0.9,88
4.95,1.05,89
4.95,1.2,91
4.95,1.35,91
4.95,1.5,91
5.1,-1.5,54
5.1,-1.35,59
5.1,-1.2,62
5.1,-1.05,75
5.1,-0.9,87
5.1,-0.75,95
5.1,-0.6,90
5.1,-0.45,112
5.1,-0.3,92
5.1,-0.15,99
5.1,0.0,61
5.1,0.15,85
5.1,0.3,95
5.1,0.45,87
5.1,0.6,89
5.1,0.75,91
5.1,0.9,92
5.1,1.05,91
5.1,1.2,91
5.1,1.35,91
5.1,1.5,91
5.25,-1.5,64
5.25,-1.35,66
5.25,-1.2,66
5.25,-1.05,77
5.25,-0.9,89
5.25,-0.75,104
5.25,-0.6,116
5.25,-0.45,93
5.25,-0.3,102
5.25,-0.15,113
5.25,0.0,114
5.25,0.15,84
5.25,0.3,91
5.25,0.45,82
5.25,0.6,87
5.25,0.75,89
5.25,0.9,91
5.25,1.05,91
5.25,1.2,89
5.25,1.35,86
5.25,1.5,83
5.4,-1.5,94
5.4,-1.35,89
5.4,-1.2,74
5.4,-1.05,67
5.4,-0.9,73
5.4,-0.75,103
5.4,-0.6,126
5.4,-0.45,104
5.4,-0.3,110
5.4,-0.15,93
5.4,0.0,104
5.4,0.15,88
5.4,0.3,111
5.4,0.45,89
5.4,0.6,89
5.4,0.75,88
5.4,0.9,90
5.4,1.05,90
5.4,1.2,84
5.4,1.35,78
5.4,1.5,76
5.55,-1.5,125
5.55,-1.35,113
5.55,-1.2,84
5.55,-1.05,67
5.55,-0.9,68
5.55,-0.75,86
5.55,-0.6,103
5.55,-0.45,100
5.55,-0.3,77
5.55,-0.15,91
5.55,0.0,104
5.55,0.15,89
5.55,0.3,106
5.55,0.45,92
5.55,0.6,92
5.55,0.75,91
5.55,0.9,91
5.55,1.05,90
5.55,1.2,83
5.55,1.35,77
5.55,1.5,76
5.7,-1.5,176
5.7,-1.35,156
5.7,-1.2,115
5.7,-1.05,85
5.7,-0.9,85
5.7,-0.75,94
5.7,-0.6,103
5.7,-0.45,103
5.7,-0.3,103
5.7,-0.15,95
5.7,0.0,90
5.7,0.15,91
5.7,0.3,89
5.7,0.45,89
5.7,0.6,95
5.7,0.75,97
5.7,0.9,92
5.7,1.05,87
5.7,1.2,84
5.7,1.35,80
5.7,1.5,76
5.85,-1.5,169
5.85,-1.35,159
5.85,-1.2,131
5.85,-1.05,107
5.85,-0.9,103
5.85,-0.75,103
5.85,-0.6,102
5.85,-0.45,85
5.85,-0.3,65
5.85,-0.15,97
5.85,0.0,92
5.85,0.15,94
5.85,0.3,89
5.85,0.45,89
5.85,0.6,100
5.85,0.75,103
5.85,0.9,94
5.85,1.05,87
5.85,1.2,83
5.85,1.35,78
5.85,1.5,75
6.0,-1.5,41
6.0,-1.35,62
6.0,-1.2,93
6.0,-1.05,108
6.0,-0.9,94
6.0,-0.75,101
6.0,-0.6,96
6.0,-0.45,98
6.0,-0.3,97
6.0,-0.15,97
6.0,0.0,91
6.0,0.15,89
6.0,0.3,94
6.0,0.45,113
6.0,0.6,111
6.0,0.75,104
6.0,0.9,96
6.0,1.05,88
6.0,1.2,80
6.0,1.35,73
6.0,1.5,66
6.15,-1.5,0
6.15,-1.35,19
6.15,-1.2,70
6.15,-1.05,86
6.15,-0.9,36
6.15,-0.75,51
6.15,-0.6,86
6.15,-0.45,94
6.15,-0.3,111
6.15,-0.15,106
6.15,0.0,101
6.15,0.15,101
6.15,0.3,106
6.15,0.45,122
6.15,0.6,113
6.15,0.75,101
6.15,0.9,93
6.15,1.05,85
6.15,1.2,77
6.15,1.35,69
6.15,1.5,62
6.3,-1.5,17
6.3,-1.35,31
6.3,-1.2,71
6.3,-1.05,77
6.3,-0.9,5
6.3,-0.75,5
6.3,-0.6,32
6.3,-0.45,101
6.3,-0.3,94
6.3,-0.15,100
6.3,0.0,93
6.3,0.15,95
6.3,0.3,101
6.3,0.45,107
6.3,0.6,101
6.3,0.75,92
6.3,0.9,87
6.3,1.05,80
6.3,1.2,72
6.3,1.35,66
6.3,1.5,60
6.45,-1.5,32
6.45,-1.35,40
6.45,-1.2,69
6.45,-1.05,76
6.45,-0.9,5
6.45,-0.75,38
6.45,-0.6,122
6.45,-0.45,150
6.45,-0.3,105
6.45,-0.15,97
6.45,0.0,77
6.45,0.15,95
6.45,0.3,103
6.45,0.45,96
6.45,0.6,90
6.45,0.75,81
6.45,0.9,79
6.45,1.05,75
6.45,1.2,67
6.45,1.35,62
6.45,1.5,57
6.6,-1.5,84
6.6,-1.35,84
6.6,-1.2,31
6.6,-1.05,5
6.6,-0.9,18
6.6,-0.75,102
6.6,-0.6,115
6.6,-0.45,46
6.6,-0.3,89
6.6,-0.15,89
6.6,0.0,96
6.6,0.15,95
6.6,0.3,121
6.6,0.45,106
6.6,0.6,92
6.6,0.75,78
6.6,0.9,76
6.6,1.05,76
6.6,1.2,78
6.6,1.35,80
6.6,1.5,83
6.75,-1.5,143
6.75,-1.35,134
6.75,-1.2,15
6.75,-1.05,0
6.75,-0.9,45
6.75,-0.75,86
6.75,-0.6,96
6.75,-0.45,102
6.75,-0.3,117
6.75,-0.15,116
6.75,0.0,89
6.75,0.15,89
6.75,0.3,96
6.75,0.45,101
6.75,0.6,89
6.75,0.75,79
6.75,0.9,78
6.75,1.05,85
6.75,1.2,99
6.75,1.35,110
6.75,1.5,123
6.9,-1.5,29
6.9,-1.35,70
6.9,-1.2,49
6.9,-1.05,43
6.9,-0.9,63
6.9,-0.75,75
6.9,-0.6,94
6.9,-0.45,99
6.9,-0.3,99
6.9,-0.15,91
6.9,0.0,93
6.9,0.15,94
6.9,0.3,82
6.9,0.45,82
6.9,0.6,82
6.9,0.75,82
6.9,0.9,83
6.9,1.05,91
6.9,1.2,105
6.9,1.35,115
6.9,1.5,126
7.05,-1.5,0
7.05,-1.35,0
7.05,-1.2,89
7.05,-1.05,92
7.05,-0.9,74
7.05,-0.75,80
7.05,-0.6,98
7.05,-0.45,93
7.05,-0.3,91
7.05,-0.15,92
7.05,0.0,90
7.05,0.15,94
7.05,0.3,93
7.05,0.45,84
7.05,0.6,94
7.05,0.75,95
7.05,0.9,90
7.05,1.05,95
7.05,1.2,103
7.05,1.35,106
7.05,1.5,110
7.2,-1.5,0
7.2,-1.35,13
7.2,-1.2,99
7.2,-1.05,98
7.2,-0.9,79
7.2,-0.75,84
7.2,-0.6,108
7.2,-0.45,91
7.2,-0.3,96
7.2,-0.15,91
7.2,0.0,94
7.2,0.15,90
7.2,0.3,86
7.2,0.45,90
7.2,0.6,103
7.2,0.75,103
7.2,0.9,97
7.2,1.05,99
7.2,1.2,103
7.2,1.35,106
7.2,1.5,109
7.35,-1.5,96
7.35,-1.35,106
7.35,-1.2,112
7.35,-1.05,100
7.35,-0.9,89
7.35,-0.75,107
7.35,-0.6,108
7.35,-0.45,99
7.35,-0.3,91
7.35,-0.15,88
7.35,0.0,100
7.35,0.15,99
7.35,0.3,94
7.35,0.45,90
7.35,0.6,90
7.35,0.75,99
7.35,0.9,114
7.35,1.05,114
7.35,1.2,112
7.35,1.35,118
7.35,1.5,124
7.5,-1.5,160
7.5,-1.35,135
7.5,-1.2,109
7.5,-1.05,89
7.5,-0.9,90
7.5,-0.75,126
7.5,-0.6,124
7.5,-0.45,95
7.5,-0.3,81
7.5,-0.15,90
7.5,0.0,93
7.5,0.15,107
7.5,0.3,74
7.5,0.45,75
7.5,0.6,73
7.5,0.75,87
7.5,0.9,110
7.5,1.05,115
7.5,1.2,117
7.5,1.35,125
7.5,1.5,133
7.65,-1.5,187
7.65,-1.35,150
7.65,-1.2,107
7.65,-1.05,77
7.65,-0.9,98
7.65,-0.75,119
7.65,-0.6,77
7.65,-0.45,120
7.65,-0.3,114
7.65,-0.15,82
7.65,0.0,90
7.65,0.15,104
7.65,0.3,82
7.65,0.45,60
7.65,0.6,71
7.65,0.75,84
7.65,0.9,99
7.65,1.05,104
7.65,1.2,99
7.65,1.35,98
7.65,1.5,97
7.8,-1.5,217
7.8,-1.35,174
7.8,-1.2,115
7.8,-1.05,75
7.8,-0.9,97
7.8,-0.75,107
7.8,-0.6,90
7.8,-0.45,93
7.8,-0.3,91
7.8,-0.15,97
7.8,0.0,93
7.8,0.15,97
7.8,0.3,98
7.8,0.45,91
7.8,0.6,88
7.8,0.75,91
7.8,0.9,101
7.8,1.05,96
7.8,1.2,76
7.8,1.35,69
7.8,1.5,60
7.95,-1.5,214
7.95,-1.35,176
7.95,-1.2,123
7.95,-1.05,84
7.95,-0.9,91
7.95,-0.75,98
7.95,-0.6,82
7.95,-0.45,103
7.95,-0.3,91
7.95,-0.15,117
7.95,0.0,95
7.95,0.15,85
7.95,0.3,96
7.95,0.45,98
7.95,0.6,96
7.95,0.75,94
7.95,0.9,91
7.95,1.05,82
7.95,1.2,72
7.95,1.35,66
7.95,1.5,59
8.1,-1.5,207
8.1,-1.35,175
8.1,-1.2,137
8.1,-1.05,105
8.1,-0.9,88
8.1,-0.75,76
8.1,-0.6,104
8.1,-0.45,100
8.1,-0.3,100
8.1,-0.15,91
8.1,0.0,110
8.1,0.15,90
8.1,0.3,87
8.1,0.45,91
8.1,0.6,94
8.1,0.75,93
8.1,0.9,76
8.1,1.05,72
8.1,1.2,74
8.1,1.35,71
8.1,1.5,68
8.25,-1.5,178
8.25,-1.35,156
8.25,-1.2,139
8.25,-1.05,119
8.25,-0.9,87
8.25,-0.75,65
8.25,-0.6,103
8.25,-0.45,110
8.25,-0.3,94
8.25,-0.15,105
8.25,0.0,94
8.25,0.15,87
8.25,0.3,102
8.25,0.45,96
8.25,0.6,91
8.25,0.75,97
8.25,0.9,84
8.25,1.05,76
8.25,1.2,76
8.25,1.35,71
8.25,1.5,65
8.4,-1.5,101
8.4,-1.35,99
8.4,-1.2,115
8.4,-1.05,117
8.4,-0.9,96
8.4,-0.75,92
8.4,-0.6,112
8.4,-0.45,112
8.4,-0.3,93
8.4,-0.15,92
8.4,0.0,100
8.4,0.15,87
8.4,0.3,114
8.4,0.45,114
8.4,0.6,115
8.4,0.75,116
8.4,0.9,101
8.4,1.05,90
8.4,1.2,79
8.4,1.35,68
8.4,1.5,57
8.55,-1.5,83
8.55,-1.35,85
8.55,-1.2,98
8.55,-1.05,103
8.55,-0.9,95
8.55,-0.75,92
8.55,-0.6,93
8.55,-0.45,104
8.55,-0.3,90
8.55,-0.15,100
8.55,0.0,100
8.55,0.15,93
8.55,0.3,102
8.55,0.45,102
8.55,0.6,135
8.55,0.75,142
8.55,0.9,123
8.55,1.05,108
8.55,1.2,95
8.55,1.35,83
8.55,1.5,71
8.7,-1.5,75
8.7,-1.35,80
8.7,-1.2,77
8.7,-1.05,83
8.7,-0.9,92
8.7,-0.75,92
8.7,-0.6,104
8.7,-0.45,90
8.7,-0.3,96
8.7,-0.15,96
8.7,0.0,100
8.7,0.15,95
8.7,0.3,82
8.7,0.45,75
8.7,0.6,120
8.7,0.75,146
8.7,0.9,135
8.7,1.05,121
8.7,1.2,107
8.7,1.35,93
8.7,1.5,81
8.85,-1.5,70
8.85,-1.35,76
8.85,-1.2,73
8.85,-1.05,78
8.85,-0.9,93
8.85,-0.75,93
8.85,-0.6,90
8.85,-0.45,95
8.85,-0.3,96
8.85,-0.15,97
8.85,0.0,94
8.85,0.15,92
8.85,0.3,90
8.85,0.45,66
8.85,0.6,94
8.85,0.75,127
8.85,0.9,135
8.85,1.05,128
8.85,1.2,114
8.85,1.35,101
8.85,1.5,87
9.0,-1.5,66
9.0,-1.35,73
9.0,-1.2,73
9.0,-1.05,78
9.0,-0.9,92
9.0,-0.75,95
9.0,-0.6,90
9.0,-0.45,83
9.0,-0.3,89
9.0,-0.15,93
9.0,0.0,109
9.0,0.15,97
9.0,0.3,87
9.0,0.45,71
9.0,0.6,84
9.0,0.75,115
9.0,0.9,141
9.0,1.05,139
9.0,1.2,115
9.0,1.35,100
9.0,1.5,82
9.15,-1.5,63
9.15,-1.35,71
9.15,-1.2,77
9.15,-1.05,83
9.15,-0.9,93
9.15,-0.75,100
9.15,-0.6,93
9.15,-0.45,99
9.15,-0.3,81
9.15,-0.15,117
9.15,0.0,91
9.15,0.15,107
9.15,0.3,83
9.15,0.45,77
9.15,0.6,91
9.15,0.75,115
9.15,0.9,142
9.15,1.05,142
9.15,1.2,113
9.15,1.35,98
9.15,1.5,79
9.3,-1.5,63
9.3,-1.35,70
9.3,-1.2,80
9.3,-1.05,91
9.3,-0.9,96
9.3,-0.75,111
9.3,-0.6,115
9.3,-0.45,97
9.3,-0.3,95
9.3,-0.15,90
9.3,0.0,97
9.3,0.15,95
9.3,0.3,88
9.3,0.45,92
9.3,0.6,103
9.3,0.75,122
9.3,0.9,138
9.3,1.05,142
9.3,1.2,138
9.3,1.35,138
9.3,1.5,135
9.45,-1.5,63
9.45,-1.35,70
9.45,-1.2,85
9.45,-1.05,97
9.45,-0.9,97
9.45,-0.75,126
9.45,-0.6,139
9.45,-0.45,102
9.45,-0.3,91
9.45,-0.15,96
9.45,0.0,91
9.45,0.15,88
9.45,0.3,96
9.45,0.45,105
9.45,0.6,112
9.45,0.75,121
9.45,0.9,130
9.45,1.05,143
9.45,1.2,161
9.45,1.35,175
9.45,1.5,189
9.6,-1.5,54
9.6,-1.35,63
9.6,-1.2,81
9.6,-1.05,91
9.6,-0.9,89
9.6,-0.75,104
9.6,-0.6,103
9.6,-0.45,91
9.6,-0.3,94
9.6,-0.15,95
9.6,0.0,96
9.6,0.15,97
9.6,0.3,111
9.6,0.45,128
9.6,0.6,128
9.6,0.75,120
9.6,0.9,121
9.6,1.05,130
9.6,1.2,142
9.6,1.35,151
9.6,1.5,160
9.75,-1.5,35
9.75,-1.35,53
9.75,-1.2,68
9.75,-1.05,73
9.75,-0.9,81
9.75,-0.75,95
9.75,-0.6,92
9.75,-0.45,96
9.75,-0.3,101
9.75,-0.15,97
9.75,0.0,101
9.75,0.15,93
9.75,0.3,120
9.75,0.45,134
9.75,0.6,129
9.75,0.75,114
9.75,0.9,106
9.75,1.05,109
9.75,1.2,111
9.75,1.35,111
9.75,1.5,111
9.9,-1.5,31
9.9,-1.35,50
9.9,-1.2,66
9.9,-1.05,74
9.9,-0.9,87
9.9,-0.75,100
9.9,-0.6,111
9.9,-0.45,110
9.9,-0.3,98
9.9,-0.15,89
9.9,0.0,106
9.9,0.15,93
9.9,0.3,109
9.9,0.45,110
9.9,0.6,108
9.9,0.75,105
9.9,0.9,103
9.9,1.05,104
9.9,1.2,104
9.9,1.35,104
9.9,1.5,104
10.05,-1.5,26
10.05,-1.35,43
10.05,-1.2,68
10.05,-1.05,88
10.05,-0.9,103
10.05,-0.75,103
10.05,-0.6,103
10.05,-0.45,111
10.05,-0.3,80
10.05,-0.15,84
10.05,0.0,93
10.05,0.15,93
10.05,0.3,93
10.05,0.45,93
10.05,0.6,95
10.05,0.75,100
10.05,0.9,102
10.05,1.05,103
10.05,1.2,104
10.05,1.35,104
10.05,1.5,104
10.2,-1.5,25
10.2,-1.35,41
10.2,-1.2,69
10.2,-1.05,89
10.2,-0.9,99
10.2,-0.75,91
10.2,-0.6,91
10.2,-0.45,89
10.2,-0.3,119
10.2,-0.15,98
10.2,0.0,95
10.2,0.15,96
10.2,0.3,93
10.2,0.45,93
10.2,0.6,94
10.2,0.75,98
10.2,0.9,98
10.2,1.05,101
10.2,1.2,104
10.2,1.35,104
10.2,1.5,104
10.35,-1.5,43
10.35,-1.35,52
10.35,-1.2,80
10.35,-1.05,95
10.35,-0.9,94
10.35,-0.75,91
10.35,-0.6,121
10.35,-0.45,88
10.35,-0.3,82
10.35,-0.15,99
10.35,0.0,94
10.35,0.15,96
10.35,0.3,95
10.35,0.45,94
10.35,0.6,94
10.35,0.75,95
10.35,0.9,96
10.35,1.05,98
10.35,1.2,101
10.35,1.35,101
10.35,1.5,101
10.5,-1.5,52
10.5,-1.35,54
10.5,-1.2,80
10.5,-1.05,94
10.5,-0.9,99
10.5,-0.75,105
10.5,-0.6,141
10.5,-0.45,100
10.5,-0.3,77
10.5,-0.15,84
10.5,0.0,87
10.5,0.15,95
10.5,0.3,96
10.5,0.45,92
10.5,0.6,90
10.5,0.75,90
10.5,0.9,95
10.5,1.05,95
10.5,1.2,95
10.5,1.35,93
10.5,1.5,91
10.65,-1.5,48
10.65,-1.35,48
10.65,-1.2,63
10.65,-1.05,77
10.65,-0.9,106
10.65,-0.75,126
10.65,-0.6,110
10.65,-0.45,114
10.65,-0.3,105
10.65,-0.15,81
10.65,0.0,84
10.65,0.15,86
10.65,0.3,96
10.65,0.45,94
10.65,0.6,90
10.65,0.75,90
10.65,0.9,91
10.65,1.05,90
10.65,1.2,86
10.65,1.35,83
10.65,1.5,78
10.8,-1.5,45
10.8,-1.35,44
10.8,-1.2,46
10.8,-1.05,55
10.8,-0.9,89
10.8,-0.75,96
10.8,-0.6,93
10.8,-0.45,103
10.8,-0.3,92
10.8,-0.15,97
10.8,0.0,106
10.8,0.15,90
10.8,0.3,92
10.8,0.45,96
10.8,0.6,96
10.8,0.75,96
10.8,0.9,88
10.8,1.05,85
10.8,1.2,77
10.8,1.35,70
10.8,1.5,61
10.95,-1.5,53
10.95,-1.35,51
10.95,-1.2,46
10.95,-1.05,46
10.95,-0.9,66
10.95,-0.75,68
10.95,-0.6,87
10.95,-0.45,103
10.95,-0.3,90
10.95,-0.15,112
10.95,0.0,138
10.95,0.15,117
10.95,0.3,97
10.95,0.45,92
10.95,0.6,96
10.95,0.75,95
10.95,0.9,85
10.95,1.05,78
10.95,1.2,66
10.95,1.35,56
10.95,1.5,45
11.1,-1.5,79
11.1,-1.35,77
11.1,-1.2,57
11.1,-1.05,46
11.1,-0.9,58
11.1,-0.75,75
11.1,-0.6,96
11.1,-0.45,76
11.1,-0.3,77
11.1,-0.15,140
11.1,0.0,148
11.1,0.15,120
11.1,0.3,94
11.1,0.45,93
11.1,0.6,94
11.1,0.75,90
11.1,0.9,84
11.1,1.05,69
11.1,1.2,51
11.1,1.35,36
11.1,1.5,21
11.25,-1.5,92
11.25,-1.35,93
11.25,-1.2,75
11.25,-1.05,65
11.25,-0.9,80
11.25,-0.75,100
11.25,-0.6,103
11.25,-0.45,59
11.25,-0.3,79
11.25,-0.15,108
11.25,0.0,77
11.25,0.15,67
11.25,0.3,85
11.25,0.45,99
11.25,0.6,97
11.25,0.75,93
11.25,0.9,86
11.25,1.05,68
11.25,1.2,48
11.25,1.35,30
11.25,1.5,13
11.4,-1.5,92
11.4,-1.35,96
11.4,-1.2,104
11.4,-1.05,111
11.4,-0.9,112
11.4,-0.75,109
11.4,-0.6,95
11.4,-0.45,77
11.4,-0.3,100
11.4,-0.15,74
11.4,0.0,25
11.4,0.15,30
11.4,0.3,77
11.4,0.45,102
11.4,0.6,99
11.4,0.75,95
11.4,0.9,88
11.4,1.05,69
11.4,1.2,50
11.4,1.35,30
11.4,1.5,10
11.55,-1.5,100
11.55,-1.35,114
11.55,-1.2,132
11.55,-1.05,142
11.55,-0.9,129
11.55,-0.75,108
11.55,-0.6,97
11.55,-0.45,84
11.55,-0.3,98
11.55,-0.15,79
11.55,0.0,32
11.55,0.15,33
11.55,0.3,74
11.55,0.45,99
11.55,0.6,106
11.55,0.75,100
11.55,0.9,87
11.55,1.05,65
11.55,1.2,44
11.55,1.35,22
11.55,1.5,2
11.7,-1.5,148
11.7,-1.35,155
11.7,-1.2,163
11.7,-1.05,161
11.7,-0.9,142
11.7,-0.75,115
11.7,-0.6,97
11.7,-0.45,90
11.7,-0.3,92
11.7,-0.15,95
11.7,0.0,91
11.7,0.15,74
11.7,0.3,76
11.7,0.45,97
11.7,0.6,113
11.7,0.75,101
11.7,0.9,78
11.7,1.05,52
11.7,1.2,26
11.7,1.35,0
11.7,1.5,0
11.85,-1.5,181
11.85,-1.35,182
11.85,-1.2,179
11.85,-1.05,163
11.85,-0.9,142
11.85,-0.75,110
11.85,-0.6,88
11.85,-0.45,88
11.85,-0.3,92
11.85,-0.15,91
11.85,0.0,95
11.85,0.15,91
11.85,0.3,88
11.85,0.45,103
11.85,0.6,106
11.85,0.75,88
11.85,0.9,61
11.85,1.05,33
11.85,1.2,6
11.85,1.35,0
11.85,1.5,0
12.0,-1.5,191
12.0,-1.35,188
12.0,-1.2,182
12.0,-1.05,159
12.0,-0.9,127
12.0,-0.75,84
12.0,-0.6,69
12.0,-0.45,81
12.0,-0.3,92
12.0,-0.15,89
12.0,0.0,90
12.0,0.15,92
12.0,0.3,91
12.0,0.45,93
12.0,0.6,87
12.0,0.75,68
12.0,0.9,42
12.0,1.05,26
12.0,1.2,17
12.0,1.35,5
12.0,1.5,0
12.15,-1.5,188
12.15,-1.35,183
12.15,-1.2,180
12.15,-1.05,155
12.15,-0.9,114
12.15,-0.75,76
12.15,-0.6,92
12.15,-0.45,105
12.15,-0.3,89
12.15,-0.15,90
12.15,0.0,95
12.15,0.15,98
12.15,0.3,89
12.15,0.45,78
12.15,0.6,66
12.15,0.75,46
12.15,0.9,22
12.15,1.05,24
12.15,1.2,43
12.15,1.35,50
12.15,1.5,60
12.3,-1.5,174
12.3,-1.35,167
12.3,-1.2,166
12.3,-1.05,151
12.3,-0.9,122
12.3,-0.75,97
12.3,-0.6,94
12.3,-0.45,80
12.3,-0.3,69
12.3,-0.15,79
12.3,0.0,95
12.3,0.15,103
12.3,0.3,89
12.3,0.45,70
12.3,0.6,52
12.3,0.75,33
12.3,0.9,14
12.3,1.05,19
12.3,1.2,40
12.3,1.35,51
12.3,1.5,63
12.45,-1.5,159
12.45,-1.35,150
12.45,-1.2,149
12.45,-1.05,149
12.45,-0.9,131
12.45,-0.75,111
12.45,-0.6,96
12.45,-0.45,80
12.45,-0.3,68
12.45,-0.15,79
12.45,0.0,98
12.45,0.15,110
12.45,0.3,100
12.45,0.45,75
12.45,0.6,51
12.45,0.75,35
12.45,0.9,29
12.45,1.05,31
12.45,1.2,40
12.45,1.35,52
12.45,1.5,65
12.6,-1.5,143
12.6,-1.35,134
12.6,-1.2,133
12.6,-1.05,142
12.6,-0.9,133
12.6,-0.75,119
12.6,-0.6,112
12.6,-0.45,101
12.6,-0.3,89
12.6,-0.15,87
12.6,0.0,99
12.6,0.15,113
12.6,0.3,109
12.6,0.45,84
12.6,0.6,57
12.6,0.75,41
12.6,0.9,39
12.6,1.05,39
12.6,1.2,45
12.6,1.35,57
12.6,1.5,70
12.75,-1.5,136
12.75,-1.35,126
12.75,-1.2,120
12.75,-1.05,123
12.75,-0.9,120
12.75,-0.75,115
12.75,-0.6,113
12.75,-0.45,110
12.75,-0.3,100
12.75,-0.15,91
12.75,0.0,96
12.75,0.15,105
12.75,0.3,102
12.75,0.45,85
12.75,0.6,67
12.75,0.75,57
12.75,0.9,57
12.75,1.05,51
12.75,1.2,53
12.75,1.35,65
12.75,1.5,77
12.9,-1.5,111
12.9,-1.35,103
12.9,-1.2,100
12.9,-1.05,101
12.9,-0.9,98
12.9,-0.75,98
12.9,-0.6,102
12.9,-0.45,105
12.9,-0.3,101
12.9,-0.15,95
12.9,0.0,93
12.9,0.15,94
12.9,0.3,91
12.9,0.45,82
12.9,0.6,73
12.9,0.75,64
12.9,0.9,62
12.9,1.05,58
12.9,1.2,61
12.9,1.35,73
12.9,1.5,86
13.05,-1.5,82
13.05,-1.35,74
13.05,-1.2,77
13.05,-1.05,82
13.05,-0.9,82
13.05,-0.75,82
13.05,-0.6,89
13.05,-0.45,98
13.05,-0.3,100
13.05,-0.15,99
13.05,0.0,94
13.05,0.15,89
13.05,0.3,83
13.05,0.45,79
13.05,0.6,76
13.05,0.75,63
13.05,0.9,59
13.05,1.05,63
13.05,1.2,71
13.05,1.35,82
13.05,1.5,94
