-3.0,-1.5,164
-3.0,-1.35,164
-3.0,-1.2,164
-3.0,-1.05,164
-3.0,-0.9,164
-3.0,-0.75,164
-3.0,-0.6,164
-3.0,-0.45,164
-3.0,-0.3,164
-3.0,-0.15,164
-3.0,0.0,164
-3.0,0.15,164
-3.0,0.3,164
-3.0,0.45,164
-3.0,0.6,164
-3.0,0.75,164
-3.0,0.9,164
-3.0,1.05,164
-3.0,1.2,164
-3.0,1.35,164
-3.0,1.5,164
-2.85,-1.5,164
-2.85,-1.35,164
-2.85,-1.2,164
-2.85,-1.05,164
-2.85,-0.9,164
-2.85,-0.75,164
-2.85,-0.6,164
-2.85,-0.45,164
-2.85,-0.3,164
-2.85,-0.15,164
-2.85,0.0,164
-2.85,0.15,164
-2.85,0.3,164
-2.85,0.45,165
-2.85,0.6,165
-2.85,0.75,165
-2.85,0.9,166
-2.85,1.05,166
-2.85,1.2,166
-2.85,1.35,166
-2.85,1.5,166
-2.7,-1.5,164
-2.7,-1.35,164
-2.7,-1.2,164
-2.7,-1.05,164
-2.7,-0.9,164
-2.7,-0.75,164
-2.7,-0.6,164
-2.7,-0.45,165
-2.7,-0.3,166
-2.7,-0.15,166
-2.7,0.0,167
-2.7,0.15,167
-2.7,0.3,167
-2.7,0.45,168
-2.7,0.6,168
-2.7,0.75,168
-2.7,0.9,168
-2.7,1.05,168
-2.7,1.2,168
-2.7,1.35,168
-2.7,1.5,168
-2.55,-1.5,163
-2.55,-1.35,163
-2.55,-1.2,164
-2.55,-1.05,164
-2.55,-0.9,164
-2.55,-0.75,164
-2.55,-0.6,165
-2.55,-0.45,166
-2.55,-0.3,167
-2.55,-0.15,168
-2.55,0.0,169
-2.55,0.15,170
-2.55,0.3,170
-2.55,0.45,171
-2.55,0.6,171
-2.55,0.75,170
-2.55,0.9,170
-2.55,1.05,170
-2.55,1.2,170
-2.55,1.35,170
-2.55,1.5,170
-2.4,-1.5,163
-2.4,-1.35,163
-2.4,-1.2,163
-2.4,-1.05,164
-2.4,-0.9,164
-2.4,-0.75,165
-2.4,-0.6,166
-2.4,-0.45,167
-2.4,-0.3,169
-2.4,-0.15,171
-2.4,0.0,172
-2.4,0.15,173
-2.4,0.3,174
-2.4,0.45,174
-2.4,0.6,173
-2.4,0.75,173
-2.4,0.9,172
-2.4,1.05,172
-2.4,1.2,172
-2.4,1.35,172
-2.4,1.5,171
-2.25,-1.5,163
-2.25,-1.35,163
-2.25,-1.2,163
-2.25,-1.05,164
-2.25,-0.9,164
-2.25,-0.75,165
-2.25,-0.6,166
-2.25,-0.45,168
-2.25,-0.3,170
-2.25,-0.15,173
-2.25,0.0,175
-2.25,0.15,176
-2.25,0.3,176
-2.25,0.45,176
-2.25,0.6,175
-2.25,0.75,175
-2.25,0.9,174
-2.25,1.05,174
-2.25,1.2,173
-2.25,1.35,173
-2.25,1.5,173
-2.1,-1.5,163
-2.1,-1.35,163
-2.1,-1.2,163
-2.1,-1.05,163
-2.1,-0.9,163
-2.1,-0.75,165
-2.1,-0.6,166
-2.1,-0.45,169
-2.1,-0.3,172
-2.1,-0.15,174
-2.1,0.0,177
-2.1,0.15,178
-2.1,0.3,178
-2.1,0.45,178
-2.1,0.6,177
-2.1,0.75,176
-2.1,0.9,176
-2.1,1.05,175
-2.1,1.2,175
-2.1,1.35,174
-2.1,1.5,174
-1.95,-1.5,168
-1.95,-1.35,165
-1.95,-1.2,163
-1.95,-1.05,163
-1.95,-0.9,163
-1.95,-0.75,164
-1.95,-0.6,166
-1.95,-0.45,168
-1.95,-0.3,171
-1.95,-0.15,174
-1.95,0.0,177
-1.95,0.15,178
-1.95,0.3,179
-1.95,0.45,178
-1.95,0.6,177
-1.95,0.75,176
-1.95,0.9,175
-1.95,1.05,174
-1.95,1.2,174
-1.95,1.35,174
-1.95,1.5,173
-1.8,-1.5,187
-1.8,-1.35,176
-1.8,-1.2,163
-1.8,-1.05,163
-1.8,-0.9,163
-1.8,-0.75,164
-1.8,-0.6,165
-1.8,-0.45,168
-1.8,-0.3,170
-1.8,-0.15,173
-1.8,0.0,176
-1.8,0.15,177
-1.8,0.3,178
-1.8,0.45,178
-1.8,0.6,176
-1.8,0.75,174
-1.8,0.9,173
-1.8,1.05,172
-1.8,1.2,172
-1.8,1.35,172
-1.8,1.5,172
-1.65,-1.5,175
-1.65,-1.35,171
-1.65,-1.2,165
-1.65,-1.05,163
-1.65,-0.9,163
-1.65,-0.75,163
-1.65,-0.6,164
-1.65,-0.45,166
-1.65,-0.3,168
-1.65,-0.15,171
-1.65,0.0,173
-1.65,0.15,174
-1.65,0.3,175
-1.65,0.45,174
-1.65,0.6,174
-1.65,0.75,173
-1.65,0.9,173
-1.65,1.05,172
-1.65,1.2,172
-1.65,1.35,172
-1.65,1.5,172
-1.5,-1.5,177
-1.5,-1.35,175
-1.5,-1.2,173
-1.5,-1.05,165
-1.5,-0.9,163
-1.5,-0.75,163
-1.5,-0.6,164
-1.5,-0.45,165
-1.5,-0.3,167
-1.5,-0.15,169
-1.5,0.0,170
-1.5,0.15,171
-1.5,0.3,171
-1.5,0.45,171
-1.5,0.6,172
-1.5,0.75,172
-1.5,0.9,172
-1.5,1.05,172
-1.5,1.2,172
-1.5,1.35,172
-1.5,1.5,172
-1.35,-1.5,184
-1.35,-1.35,185
-1.35,-1.2,192
-1.35,-1.05,170
-1.35,-0.9,162
-1.35,-0.75,163
-1.35,-0.6,164
-1.35,-0.45,165
-1.35,-0.3,166
-1.35,-0.15,167
-1.35,0.0,168
-1.35,0.15,168
-1.35,0.3,168
-1.35,0.45,168
-1.35,0.6,169
-1.35,0.75,170
-1.35,0.9,170
-1.35,1.05,170
-1.35,1.2,171
-1.35,1.35,171
-1.35,1.5,172
-1.2,-1.5,183
-1.2,-1.35,183
-1.2,-1.2,187
-1.2,-1.05,177
-1.2,-0.9,167
-1.2,-0.75,161
-1.2,-0.6,161
-1.2,-0.45,162
-1.2,-0.3,165
-1.2,-0.15,166
-1.2,0.0,166
-1.2,0.15,166
-1.2,0.3,166
-1.2,0.45,166
-1.2,0.6,167
-1.2,0.75,168
-1.2,0.9,168
-1.2,1.05,169
-1.2,1.2,170
-1.2,1.35,170
-1.2,1.5,171
-1.05,-1.5,183
-1.05,-1.35,183
-1.05,-1.2,182
-1.05,-1.05,182
-1.05,-0.9,171
-1.05,-0.75,155
-1.05,-0.6,151
-1.05,-0.45,153
-1.05,-0.3,161
-1.05,-0.15,167
-1.05,0.0,166
-1.05,0.15,166
-1.05,0.3,166
-1.05,0.45,166
-1.05,0.6,166
-1.05,0.75,167
-1.05,0.9,168
-1.05,1.05,168
-1.05,1.2,169
-1.05,1.35,170
-1.05,1.5,171
-0.9,-1.5,187
-0.9,-1.35,186
-0.9,-1.2,181
-0.9,-1.05,175
-0.9,-0.9,166
-0.9,-0.75,170
-0.9,-0.6,147
-0.9,-0.45,145
-0.9,-0.3,154
-0.9,-0.15,166
-0.9,0.0,171
-0.9,0.15,170
-0.9,0.3,169
-0.9,0.45,168
-0.9,0.6,168
-0.9,0.75,169
-0.9,0.9,170
-0.9,1.05,168
-0.9,1.2,171
-0.9,1.35,171
-0.9,1.5,171
-0.75,-1.5,187
-0.75,-1.35,188
-0.75,-1.2,185
-0.75,-1.05,172
-0.75,-0.9,162
-0.75,-0.75,162
-0.75,-0.6,143
-0.75,-0.45,138
-0.75,-0.3,147
-0.75,-0.15,163
-0.75,0.0,175
-0.75,0.15,175
-0.75,0.3,174
-0.75,0.45,171
-0.75,0.6,171
-0.75,0.75,170
-0.75,0.9,169
-0.75,1.05,167
-0.75,1.2,167
-0.75,1.35,168
-0.75,1.5,168
-0.6,-1.5,187
-0.6,-1.35,188
-0.6,-1.2,190
-0.6,-1.05,174
-0.6,-0.9,163
-0.6,-0.75,148
-0.6,-0.6,138
-0.6,-0.45,131
-0.6,-0.3,133
-0.6,-0.15,152
-0.6,0.0,171
-0.6,0.15,175
-0.6,0.3,174
-0.6,0.45,171
-0.6,0.6,170
-0.6,0.75,170
-0.6,0.9,170
-0.6,1.05,164
-0.6,1.2,159
-0.6,1.35,156
-0.6,1.5,153
-0.45,-1.5,194
-0.45,-1.35,192
-0.45,-1.2,185
-0.45,-1.05,181
-0.45,-0.9,173
-0.45,-0.75,153
-0.45,-0.6,123
-0.45,-0.45,105
-0.45,-0.3,111
-0.45,-0.15,144
-0.45,0.0,170
-0.45,0.15,176
-0.45,0.3,172
-0.45,0.45,166
-0.45,0.6,166
-0.45,0.75,167
-0.45,0.9,165
-0.45,1.05,160
-0.45,1.2,154
-0.45,1.35,151
-0.45,1.5,150
-0.3,-1.5,194
-0.3,-1.35,192
-0.3,-1.2,187
-0.3,-1.05,184
-0.3,-0.9,178
-0.3,-0.75,159
-0.3,-0.6,129
-0.3,-0.45,112
-0.3,-0.3,127
-0.3,-0.15,169
-0.3,0.0,186
-0.3,0.15,181
-0.3,0.3,168
-0.3,0.45,163
-0.3,0.6,163
-0.3,0.75,163
-0.3,0.9,160
-0.3,1.05,155
-0.3,1.2,151
-0.3,1.35,150
-0.3,1.5,150
-0.15,-1.5,186
-0.15,-1.35,186
-0.15,-1.2,185
-0.15,-1.05,180
-0.15,-0.9,175
-0.15,-0.75,162
-0.15,-0.6,146
-0.15,-0.45,141
-0.15,-0.3,169
-0.15,-0.15,212
-0.15,0.0,213
-0.15,0.15,186
-0.15,0.3,167
-0.15,0.45,164
-0.15,0.6,164
-0.15,0.75,157
-0.15,0.9,150
-0.15,1.05,146
-0.15,1.2,150
-0.15,1.35,151
-0.15,1.5,151
0.0,-1.5,170
0.0,-1.35,172
0.0,-1.2,178
0.0,-1.05,173
0.0,-0.9,168
0.0,-0.75,164
0.0,-0.6,153
0.0,-0.45,160
0.0,-0.3,186
0.0,-0.15,215
0.0,0.0,215
0.0,0.15,192
0.0,0.3,170
0.0,0.45,156
0.0,0.6,157
0.0,0.75,149
0.0,0.9,146
0.0,1.05,150
0.0,1.2,143
0.0,1.35,136
0.0,1.5,134
0.15,-1.5,165
0.15,-1.35,167
0.15,-1.2,171
0.15,-1.05,168
0.15,-0.9,164
0.15,-0.75,167
0.15,-0.6,166
0.15,-0.45,163
0.15,-0.3,171
0.15,-0.15,191
0.15,0.0,200
0.15,0.15,192
0.15,0.3,174
0.15,0.45,154
0.15,0.6,149
0.15,0.75,142
0.15,0.9,142
0.15,1.05,150
0.15,1.2,136
0.15,1.35,125
0.15,1.5,121
0.3,-1.5,165
0.3,-1.35,166
0.3,-1.2,167
0.3,-1.05,167
0.3,-0.9,171
0.3,-0.75,186
0.3,-0.6,174
0.3,-0.45,171
0.3,-0.3,174
0.3,-0.15,174
0.3,0.0,180
0.3,0.15,181
0.3,0.3,168
0.3,0.45,147
0.3,0.6,138
0.3,0.75,133
0.3,0.9,130
0.3,1.05,127
0.3,1.2,126
0.3,1.35,125
0.3,1.5,122
0.45,-1.5,163
0.45,-1.35,166
0.45,-1.2,169
0.45,-1.05,171
0.45,-0.9,175
0.45,-0.75,183
0.45,-0.6,174
0.45,-0.45,174
0.45,-0.3,174
0.45,-0.15,171
0.45,0.0,178
0.45,0.15,177
0.45,0.3,162
0.45,0.45,143
0.45,0.6,132
0.45,0.75,130
0.45,0.9,128
0.45,1.05,126
0.45,1.2,132
0.45,1.35,133
0.45,1.5,131
0.6,-1.5,159
0.6,-1.35,166
0.6,-1.2,171
0.6,-1.05,174
0.6,-0.9,176
0.6,-0.75,176
0.6,-0.6,173
0.6,-0.45,173
0.6,-0.3,168
0.6,-0.15,168
0.6,0.0,181
0.6,0.15,177
0.6,0.3,163
0.6,0.45,145
0.6,0.6,132
0.6,0.75,131
0.6,0.9,129
0.6,1.05,126
0.6,1.2,141
0.6,1.35,145
0.6,1.5,142
0.75,-1.5,158
0.75,-1.35,169
0.75,-1.2,175
0.75,-1.05,175
0.75,-0.9,176
0.75,-0.75,175
0.75,-0.6,175
0.75,-0.45,174
0.75,-0.3,168
0.75,-0.15,168
0.75,0.0,188
0.75,0.15,187
0.75,0.3,172
0.75,0.45,154
0.75,0.6,138
0.75,0.75,128
0.75,0.9,126
0.75,1.05,144
0.75,1.2,164
0.75,1.35,172
0.75,1.5,174
0.9,-1.5,155
0.9,-1.35,166
0.9,-1.2,175
0.9,-1.05,173
0.9,-0.9,174
0.9,-0.75,173
0.9,-0.6,173
0.9,-0.45,173
0.9,-0.3,171
0.9,-0.15,166
0.9,0.0,170
0.9,0.15,180
0.9,0.3,180
0.9,0.45,170
0.9,0.6,139
0.9,0.75,137
0.9,0.9,141
0.9,1.05,157
0.9,1.2,174
0.9,1.35,183
0.9,1.5,186
1.05,-1.5,151
1.05,-1.35,158
1.05,-1.2,165
1.05,-1.05,169
1.05,-0.9,169
1.05,-0.75,166
1.05,-0.6,170
1.05,-0.45,170
1.05,-0.3,169
1.05,-0.15,166
1.05,0.0,166
1.05,0.15,168
1.05,0.3,178
1.05,0.45,177
1.05,0.6,137
1.05,0.75,156
1.05,0.9,171
1.05,1.05,173
1.05,1.2,185
1.05,1.35,193
1.05,1.5,198
1.2,-1.5,158
1.2,-1.35,159
1.2,-1.2,160
1.2,-1.05,164
1.2,-0.9,166
1.2,-0.75,166
1.2,-0.6,166
1.2,-0.45,166
1.2,-0.3,166
1.2,-0.15,166
1.2,0.0,168
1.2,0.15,167
1.2,0.3,165
1.2,0.45,166
1.2,0.6,153
1.2,0.75,164
1.2,0.9,173
1.2,1.05,177
1.2,1.2,182
1.2,1.35,185
1.2,1.5,186
1.35,-1.5,159
1.35,-1.35,158
1.35,-1.2,158
1.35,-1.05,161
1.35,-0.9,167
1.35,-0.75,167
1.35,-0.6,166
1.35,-0.45,166
1.35,-0.3,166
1.35,-0.15,168
1.35,0.0,168
1.35,0.15,166
1.35,0.3,164
1.35,0.45,168
1.35,0.6,166
1.35,0.75,172
1.35,0.9,177
1.35,1.05,180
1.35,1.2,180
1.35,1.35,180
1.35,1.5,179
1.5,-1.5,158
1.5,-1.35,158
1.5,-1.2,158
1.5,-1.05,159
1.5,-0.9,168
1.5,-0.75,175
1.5,-0.6,172
1.5,-0.45,166
1.5,-0.3,168
1.5,-0.15,168
1.5,0.0,165
1.5,0.15,164
1.5,0.3,168
1.5,0.45,168
1.5,0.6,171
1.5,0.75,177
1.5,0.9,179
1.5,1.05,177
1.5,1.2,180
1.5,1.35,180
1.5,1.5,178
1.65,-1.5,158
1.65,-1.35,158
1.65,-1.2,158
1.65,-1.05,159
1.65,-0.9,168
1.65,-0.75,180
1.65,-0.6,187
1.65,-0.45,166
1.65,-0.3,166
1.65,-0.15,165
1.65,0.0,162
1.65,0.15,162
1.65,0.3,164
1.65,0.45,166
1.65,0.6,176
1.65,0.75,179
1.65,0.9,179
1.65,1.05,179
1.65,1.2,179
1.65,1.35,178
1.65,1.5,176
1.8,-1.5,158
1.8,-1.35,161
1.8,-1.2,162
1.8,-1.05,158
1.8,-0.9,162
1.8,-0.75,177
1.8,-0.6,188
1.8,-0.45,174
1.8,-0.3,170
1.8,-0.15,170
1.8,0.0,170
1.8,0.15,163
1.8,0.3,160
1.8,0.45,159
1.8,0.6,176
1.8,0.75,179
1.8,0.9,179
1.8,1.05,178
1.8,1.2,177
1.8,1.35,176
1.8,1.5,174
1.95,-1.5,161
1.95,-1.35,162
1.95,-1.2,162
1.95,-1.05,158
1.95,-0.9,158
1.95,-0.75,166
1.95,-0.6,170
1.95,-0.45,166
1.95,-0.3,166
1.95,-0.15,166
1.95,0.0,169
1.95,0.15,164
1.95,0.3,154
1.95,0.45,153
1.95,0.6,171
1.95,0.75,175
1.95,0.9,175
1.95,1.05,177
1.95,1.2,171
1.95,1.35,167
1.95,1.5,163
2.1,-1.5,162
2.1,-1.35,162
2.1,-1.2,160
2.1,-1.05,158
2.1,-0.9,158
2.1,-0.75,160
2.1,-0.6,166
2.1,-0.45,166
2.1,-0.3,166
2.1,-0.15,166
2.1,0.0,164
2.1,0.15,165
2.1,0.3,165
2.1,0.45,161
2.1,0.6,163
2.1,0.75,168
2.1,0.9,171
2.1,1.05,175
2.1,1.2,163
2.1,1.35,154
2.1,1.5,148
2.25,-1.5,162
2.25,-1.35,160
2.25,-1.2,158
2.25,-1.05,160
2.25,-0.9,163
2.25,-0.75,165
2.25,-0.6,168
2.25,-0.45,168
2.25,-0.3,171
2.25,-0.15,169
2.25,0.0,168
2.25,0.15,169
2.25,0.3,171
2.25,0.45,167
2.25,0.6,159
2.25,0.75,160
2.25,0.9,166
2.25,1.05,173
2.25,1.2,151
2.25,1.35,133
2.25,1.5,123
2.4,-1.5,189
2.4,-1.35,177
2.4,-1.2,164
2.4,-1.05,165
2.4,-0.9,167
2.4,-0.75,168
2.4,-0.6,164
2.4,-0.45,166
2.4,-0.3,171
2.4,-0.15,166
2.4,0.0,166
2.4,0.15,177
2.4,0.3,175
2.4,0.45,164
2.4,0.6,160
2.4,0.75,150
2.4,0.9,143
2.4,1.05,162
2.4,1.2,130
2.4,1.35,112
2.4,1.5,105
2.55,-1.5,210
2.55,-1.35,188
2.55,-1.2,164
2.55,-1.05,164
2.55,-0.9,165
2.55,-0.75,160
2.55,-0.6,159
2.55,-0.45,183
2.55,-0.3,166
2.55,-0.15,166
2.55,0.0,166
2.55,0.15,171
2.55,0.3,136
2.55,0.45,113
2.55,0.6,159
2.55,0.75,148
2.55,0.9,136
2.55,1.05,146
2.55,1.2,120
2.55,1.35,105
2.55,1.5,99
2.7,-1.5,244
2.7,-1.35,204
2.7,-1.2,165
2.7,-1.05,163
2.7,-0.9,163
2.7,-0.75,148
2.7,-0.6,157
2.7,-0.45,184
2.7,-0.3,166
2.7,-0.15,168
2.7,0.0,166
2.7,0.15,167
2.7,0.3,125
2.7,0.45,103
2.7,0.6,159
2.7,0.75,154
2.7,0.9,140
2.7,1.05,118
2.7,1.2,111
2.7,1.35,105
2.7,1.5,98
2.85,-1.5,246
2.85,-1.35,216
2.85,-1.2,187
2.85,-1.05,173
2.85,-0.9,163
2.85,-0.75,157
2.85,-0.6,161
2.85,-0.45,174
2.85,-0.3,172
2.85,-0.15,167
2.85,0.0,200
2.85,0.15,191
2.85,0.3,131
2.85,0.45,91
2.85,0.6,156
2.85,0.75,150
2.85,0.9,141
2.85,1.05,122
2.85,1.2,119
2.85,1.35,115
2.85,1.5,110
3.0,-1.5,249
3.0,-1.35,229
3.0,-1.2,209
3.0,-1.05,188
3.0,-0.9,169
3.0,-0.75,165
3.0,-0.6,177
3.0,-0.45,182
3.0,-0.3,164
3.0,-0.15,166
3.0,0.0,165
3.0,0.15,165
3.0,0.3,161
3.0,0.45,121
3.0,0.6,149
3.0,0.75,146
3.0,0.9,142
3.0,1.05,128
3.0,1.2,127
3.0,1.35,125
3.0,1.5,122
3.15,-1.5,255
3.15,-1.35,235
3.15,-1.2,213
3.15,-1.05,204
3.15,-0.9,181
3.15,-0.75,171
3.15,-0.6,171
3.15,-0.45,164
3.15,-0.3,164
3.15,-0.15,182
3.15,0.0,165
3.15,0.15,165
3.15,0.3,167
3.15,0.45,155
3.15,0.6,151
3.15,0.75,145
3.15,0.9,139
3.15,1.05,134
3.15,1.2,134
3.15,1.35,133
3.15,1.5,130
3.3,-1.5,255
3.3,-1.35,246
3.3,-1.2,226
3.3,-1.05,198
3.3,-0.9,166
3.3,-0.75,159
3.3,-0.6,168
3.3,-0.45,169
3.3,-0.3,172
3.3,-0.15,164
3.3,0.0,167
3.3,0.15,167
3.3,0.3,164
3.3,0.45,158
3.3,0.6,147
3.3,0.75,149
3.3,0.9,147
3.3,1.05,142
3.3,1.2,139
3.3,1.35,136
3.3,1.5,133
3.45,-1.5,255
3.45,-1.35,253
3.45,-1.2,231
3.45,-1.05,191
3.45,-0.9,148
3.45,-0.75,135
3.45,-0.6,146
3.45,-0.45,167
3.45,-0.3,171
3.45,-0.15,167
3.45,0.0,164
3.45,0.15,163
3.45,0.3,164
3.45,0.45,162
3.45,0.6,132
3.45,0.75,149
3.45,0.9,155
3.45,1.05,151
3.45,1.2,144
3.45,1.35,140
3.45,1.5,136
3.6,-1.5,255
3.6,-1.35,255
3.6,-1.2,230
3.6,-1.05,189
3.6,-0.9,147
3.6,-0.75,131
3.6,-0.6,184
3.6,-0.45,172
3.6,-0.3,165
3.6,-0.15,165
3.6,0.0,167
3.6,0.15,167
3.6,0.3,163
3.6,0.45,141
3.6,0.6,123
3.6,0.75,137
3.6,0.9,155
3.6,1.05,155
3.6,1.2,149
3.6,1.35,140
3.6,1.5,136
3.75,-1.5,238
3.75,-1.35,230
3.75,-1.2,225
3.75,-1.05,195
3.75,-0.9,168
3.75,-0.75,163
3.75,-0.6,164
3.75,-0.45,171
3.75,-0.3,171
3.75,-0.15,165
3.75,0.0,167
3.75,0.15,167
3.75,0.3,132
3.75,0.45,106
3.75,0.6,97
3.75,0.75,131
3.75,0.9,157
3.75,1.05,160
3.75,1.2,155
3.75,1.35,146
3.75,1.5,136
3.9,-1.5,148
3.9,-1.35,173
3.9,-1.2,210
3.9,-1.05,199
3.9,-0.9,171
3.9,-0.75,168
3.9,-0.6,173
3.9,-0.45,164
3.9,-0.3,166
3.9,-0.15,166
3.9,0.0,167
3.9,0.15,163
3.9,0.3,151
3.9,0.45,93
3.9,0.6,101
3.9,0.75,155
3.9,0.9,160
3.9,1.05,160
3.9,1.2,156
3.9,1.35,149
3.9,1.5,141
4.05,-1.5,149
4.05,-1.35,148
4.05,-1.2,151
4.05,-1.05,169
4.05,-0.9,165
4.05,-0.75,169
4.05,-0.6,207
4.05,-0.45,224
4.05,-0.3,166
4.05,-0.15,167
4.05,0.0,163
4.05,0.15,167
4.05,0.3,170
4.05,0.45,152
4.05,0.6,115
4.05,0.75,148
4.05,0.9,160
4.05,1.05,159
4.05,1.2,153
4.05,1.35,146
4.05,1.5,141
4.2,-1.5,152
4.2,-1.35,141
4.2,-1.2,130
4.2,-1.05,153
4.2,-0.9,158
4.2,-0.75,160
4.2,-0.6,112
4.2,-0.45,176
4.2,-0.3,160
4.2,-0.15,164
4.2,0.0,167
4.2,0.15,163
4.2,0.3,154
4.2,0.45,170
4.2,0.6,149
4.2,0.75,156
4.2,0.9,160
4.2,1.05,155
4.2,1.2,150
4.2,1.35,143
4.2,1.5,141
4.35,-1.5,165
4.35,-1.35,156
4.35,-1.2,148
4.35,-1.05,150
4.35,-0.9,158
4.35,-0.75,165
4.35,-0.6,160
4.35,-0.45,176
4.35,-0.3,166
4.35,-0.15,155
4.35,0.0,164
4.35,0.15,167
4.35,0.3,164
4.35,0.45,177
4.35,0.6,173
4.35,0.75,166
4.35,0.9,153
4.35,1.05,152
4.35,1.2,150
4.35,1.35,146
4.35,1.5,141
4.5,-1.5,170
4.5,-1.35,163
4.5,-1.2,156
4.5,-1.05,152
4.5,-0.9,162
4.5,-0.75,166
4.5,-0.6,130
4.5,-0.45,171
4.5,-0.3,166
4.5,-0.15,160
4.5,0.0,166
4.5,0.15,167
4.5,0.3,164
4.5,0.45,173
4.5,0.6,177
4.5,0.75,167
4.5,0.9,154
4.5,1.05,151
4.5,1.2,149
4.5,1.35,144
4.5,1.5,141
4.65,-1.5,177
4.65,-1.35,174
4.65,-1.2,167
4.65,-1.05,158
4.65,-0.9,166
4.65,-0.75,166
4.65,-0.6,127
4.65,-0.45,171
4.65,-0.3,170
4.65,-0.15,166
4.65,0.0,164
4.65,0.15,167
4.65,0.3,164
4.65,0.45,168
4.65,0.6,177
4.65,0.75,165
4.65,0.9,156
4.65,1.05,158
4.65,1.2,154
4.65,1.35,149
4.65,1.5,141
4.8,-1.5,188
4.8,-1.35,181
4.8,-1.2,173
4.8,-1.05,163
4.8,-0.9,164
4.8,-0.75,166
4.8,-0.6,156
4.8,-0.45,161
4.8,-0.3,163
4.8,-0.15,146
4.8,0.0,165
4.8,0.15,165
4.8,0.3,165
4.8,0.45,175
4.8,0.6,187
4.8,0.75,172
4.8,0.9,162
4.8,1.05,162
4.8,1.2,157
4.8,1.35,151
4.8,1.5,144
4.95,-1.5,189
4.95,-1.35,187
4.95,-1.2,181
4.95,-1.05,173
4.95,-0.9,164
4.95,-0.75,166
4.95,-0.6,157
4.95,-0.45,133
4.95,-0.3,117
4.95,-0.15,183
4.95,0.0,175
4.95,0.15,175
4.95,0.3,185
4.95,0.45,184
4.95,0.6,187
4.95,0.75,169
4.95,0.9,166
4.95,1.05,176
4.95,1.2,163
4.95,1.35,153
4.95,1.5,146
5.1,-1.5,189
5.1,-1.35,189
5.1,-1.2,186
5.1,-1.05,182
5.1,-0.9,169
5.1,-0.75,160
5.1,-0.6,164
5.1,-0.45,131
5.1,-0.3,130
5.1,-0.15,177
5.1,0.0,168
5.1,0.15,172
5.1,0.3,223
5.1,0.45,187
5.1,0.6,166
5.1,0.75,148
5.1,0.9,155
5.1,1.05,195
5.1,1.2,170
5.1,1.35,153
5.1,1.5,145
5.25,-1.5,189
5.25,-1.35,189
5.25,-1.2,189
5.25,-1.05,180
5.25,-0.9,169
5.25,-0.75,171
5.25,-0.6,195
5.25,-0.45,154
5.25,-0.3,161
5.25,-0.15,168
5.25,0.0,168
5.25,0.15,175
5.25,0.3,223
5.25,0.45,173
5.25,0.6,146
5.25,0.75,129
5.25,0.9,124
5.25,1.05,123
5.25,1.2,126
5.25,1.35,121
5.25,1.5,112
5.4,-1.5,189
5.4,-1.35,189
5.4,-1.2,185
5.4,-1.05,174
5.4,-0.9,166
5.4,-0.75,171
5.4,-0.6,186
5.4,-0.45,160
5.4,-0.3,172
5.4,-0.15,189
5.4,0.0,167
5.4,0.15,163
5.4,0.3,163
5.4,0.45,135
5.4,0.6,121
5.4,0.75,119
5.4,0.9,116
5.4,1.05,94
5.4,1.2,90
5.4,1.35,80
5.4,1.5,65
5.55,-1.5,210
5.55,-1.35,195
5.55,-1.2,180
5.55,-1.05,169
5.55,-0.9,164
5.55,-0.75,164
5.55,-0.6,149
5.55,-0.45,157
5.55,-0.3,180
5.55,-0.15,147
5.55,0.0,168
5.55,0.15,177
5.55,0.3,169
5.55,0.45,142
5.55,0.6,125
5.55,0.75,121
5.55,0.9,119
5.55,1.05,80
5.55,1.2,45
5.55,1.35,11
5.55,1.5,0
5.7,-1.5,211
5.7,-1.35,194
5.7,-1.2,176
5.7,-1.05,168
5.7,-0.9,164
5.7,-0.75,164
5.7,-0.6,118
5.7,-0.45,164
5.7,-0.3,155
5.7,-0.15,161
5.7,0.0,173
5.7,0.15,157
5.7,0.3,206
5.7,0.45,231
5.7,0.6,158
5.7,0.75,139
5.7,0.9,120
5.7,1.05,94
5.7,1.2,77
5.7,1.35,61
5.7,1.5,44
5.85,-1.5,211
5.85,-1.35,195
5.85,-1.2,178
5.85,-1.05,170
5.85,-0.9,169
5.85,-0.75,176
5.85,-0.6,137
5.85,-0.45,158
5.85,-0.3,155
5.85,-0.15,167
5.85,0.0,167
5.85,0.15,188
5.85,0.3,255
5.85,0.45,255
5.85,0.6,171
5.85,0.75,150
5.85,0.9,121
5.85,1.05,114
5.85,1.2,113
5.85,1.35,112
5.85,1.5,110
6.0,-1.5,197
6.0,-1.35,188
6.0,-1.2,173
6.0,-1.05,170
6.0,-0.9,194
6.0,-0.75,237
6.0,-0.6,146
6.0,-0.45,168
6.0,-0.3,165
6.0,-0.15,164
6.0,0.0,171
6.0,0.15,171
6.0,0.3,234
6.0,0.45,255
6.0,0.6,173
6.0,0.75,155
6.0,0.9,145
6.0,1.05,133
6.0,1.2,112
6.0,1.35,93
6.0,1.5,81
6.15,-1.5,185
6.15,-1.35,184
6.15,-1.2,175
6.15,-1.05,174
6.15,-0.9,173
6.15,-0.75,188
6.15,-0.6,170
6.15,-0.45,170
6.15,-0.3,170
6.15,-0.15,164
6.15,0.0,167
6.15,0.15,173
6.15,0.3,177
6.15,0.45,209
6.15,0.6,172
6.15,0.75,163
6.15,0.9,156
6.15,1.05,144
6.15,1.2,127
6.15,1.35,112
6.15,1.5,101
6.3,-1.5,158
6.3,-1.35,177
6.3,-1.2,184
6.3,-1.05,179
6.3,-0.9,167
6.3,-0.75,151
6.3,-0.6,167
6.3,-0.45,157
6.3,-0.3,167
6.3,-0.15,166
6.3,0.0,164
6.3,0.15,172
6.3,0.3,172
6.3,0.45,164
6.3,0.6,185
6.3,0.75,176
6.3,0.9,161
6.3,1.05,153
6.3,1.2,150
6.3,1.35,146
6.3,1.5,144
6.45,-1.5,175
6.45,-1.35,178
6.45,-1.2,183
6.45,-1.05,184
6.45,-0.9,177
6.45,-0.75,172
6.45,-0.6,167
6.45,-0.45,167
6.45,-0.3,166
6.45,-0.15,171
6.45,0.0,166
6.45,0.15,164
6.45,0.3,108
6.45,0.45,100
6.45,0.6,168
6.45,0.75,175
6.45,0.9,173
6.45,1.05,142
6.45,1.2,163
6.45,1.35,175
6.45,1.5,178
6.6,-1.5,168
6.6,-1.35,162
6.6,-1.2,162
6.6,-1.05,173
6.6,-0.9,172
6.6,-0.75,173
6.6,-0.6,143
6.6,-0.45,153
6.6,-0.3,167
6.6,-0.15,169
6.6,0.0,171
6.6,0.15,158
6.6,0.3,125
6.6,0.45,117
6.6,0.6,162
6.6,0.75,171
6.6,0.9,177
6.6,1.05,160
6.6,1.2,173
6.6,1.35,184
6.6,1.5,189
6.75,-1.5,154
6.75,-1.35,144
6.75,-1.2,139
6.75,-1.05,144
6.75,-0.9,151
6.75,-0.75,165
6.75,-0.6,165
6.75,-0.45,152
6.75,-0.3,165
6.75,-0.15,171
6.75,0.0,158
6.75,0.15,168
6.75,0.3,188
6.75,0.45,194
6.75,0.6,169
6.75,0.75,173
6.75,0.9,184
6.75,1.05,189
6.75,1.2,188
6.75,1.35,188
6.75,1.5,193
6.9,-1.5,133
6.9,-1.35,113
6.9,-1.2,85
6.9,-1.05,108
6.9,-0.9,134
6.9,-0.75,153
6.9,-0.6,178
6.9,-0.45,178
6.9,-0.3,171
6.9,-0.15,164
6.9,0.0,170
6.9,0.15,162
6.9,0.3,184
6.9,0.45,186
6.9,0.6,166
6.9,0.75,174
6.9,0.9,182
6.9,1.05,186
6.9,1.2,189
6.9,1.35,192
6.9,1.5,196
7.05,-1.5,121
7.05,-1.35,99
7.05,-1.2,73
7.05,-1.05,108
7.05,-0.9,151
7.05,-0.75,178
7.05,-0.6,176
7.05,-0.45,184
7.05,-0.3,186
7.05,-0.15,167
7.05,0.0,171
7.05,0.15,168
7.05,0.3,167
7.05,0.45,162
7.05,0.6,159
7.05,0.75,180
7.05,0.9,189
7.05,1.05,189
7.05,1.2,191
7.05,1.35,194
7.05,1.5,196
7.2,-1.5,121
7.2,-1.35,107
7.2,-1.2,92
7.2,-1.05,124
7.2,-0.9,151
7.2,-0.75,168
7.2,-0.6,108
7.2,-0.45,170
7.2,-0.3,153
7.2,-0.15,169
7.2,0.0,165
7.2,0.15,171
7.2,0.3,162
7.2,0.45,164
7.2,0.6,161
7.2,0.75,183
7.2,0.9,190
7.2,1.05,192
7.2,1.2,201
7.2,1.35,210
7.2,1.5,215
7.35,-1.5,88
7.35,-1.35,106
7.35,-1.2,125
7.35,-1.05,156
7.35,-0.9,169
7.35,-0.75,167
7.35,-0.6,105
7.35,-0.45,178
7.35,-0.3,187
7.35,-0.15,151
7.35,0.0,142
7.35,0.15,171
7.35,0.3,171
7.35,0.45,171
7.35,0.6,177
7.35,0.75,191
7.35,0.9,198
7.35,1.05,203
7.35,1.2,208
7.35,1.35,214
7.35,1.5,220
7.5,-1.5,44
7.5,-1.35,104
7.5,-1.2,158
7.5,-1.05,183
7.5,-0.9,175
7.5,-0.75,160
7.5,-0.6,84
7.5,-0.45,152
7.5,-0.3,166
7.5,-0.15,166
7.5,0.0,171
7.5,0.15,163
7.5,0.3,163
7.5,0.45,172
7.5,0.6,185
7.5,0.75,195
7.5,0.9,205
7.5,1.05,216
7.5,1.2,214
7.5,1.35,216
7.5,1.5,222
7.65,-1.5,71
7.65,-1.35,129
7.65,-1.2,189
7.65,-1.05,157
7.65,-0.9,168
7.65,-0.75,183
7.65,-0.6,23
7.65,-0.45,165
7.65,-0.3,168
7.65,-0.15,163
7.65,0.0,164
7.65,0.15,165
7.65,0.3,177
7.65,0.45,200
7.65,0.6,193
7.65,0.75,191
7.65,0.9,198
7.65,1.05,214
7.65,1.2,224
7.65,1.35,234
7.65,1.5,246
7.8,-1.5,84
7.8,-1.35,134
7.8,-1.2,186
7.8,-1.05,157
7.8,-0.9,161
7.8,-0.75,168
7.8,-0.6,0
7.8,-0.45,130
7.8,-0.3,169
7.8,-0.15,169
7.8,0.0,163
7.8,0.15,162
7.8,0.3,169
7.8,0.45,200
7.8,0.6,200
7.8,0.75,195
7.8,0.9,199
7.8,1.05,210
7.8,1.2,222
7.8,1.35,233
7.8,1.5,245
7.95,-1.5,81
7.95,-1.35,113
7.95,-1.2,157
7.95,-1.05,163
7.95,-0.9,164
7.95,-0.75,154
7.95,-0.6,247
7.95,-0.45,159
7.95,-0.3,169
7.95,-0.15,163
7.95,0.0,168
7.95,0.15,164
7.95,0.3,152
7.95,0.45,173
7.95,0.6,200
7.95,0.75,206
7.95,0.9,206
7.95,1.05,205
7.95,1.2,212
7.95,1.35,220
7.95,1.5,228
8.1,-1.5,59
8.1,-1.35,79
8.1,-1.2,109
8.1,-1.05,104
8.1,-0.9,141
8.1,-0.75,178
8.1,-0.6,214
8.1,-0.45,194
8.1,-0.3,164
8.1,-0.15,163
8.1,0.0,163
8.1,0.15,163
8.1,0.3,183
8.1,0.45,159
8.1,0.6,185
8.1,0.75,214
8.1,0.9,235
8.1,1.05,212
8.1,1.2,215
8.1,1.35,224
8.1,1.5,228
8.25,-1.5,34
8.25,-1.35,40
8.25,-1.2,52
8.25,-1.05,66
8.25,-0.9,124
8.25,-0.75,164
8.25,-0.6,168
8.25,-0.45,222
8.25,-0.3,173
8.25,-0.15,171
8.25,0.0,163
8.25,0.15,167
8.25,0.3,183
8.25,0.45,162
8.25,0.6,181
8.25,0.75,224
8.25,0.9,254
8.25,1.05,220
8.25,1.2,212
8.25,1.35,218
8.25,1.5,226
8.4,-1.5,11
8.4,-1.35,0
8.4,-1.2,0
8.4,-1.05,49
8.4,-0.9,116
8.4,-0.75,168
8.4,-0.6,21
8.4,-0.45,149
8.4,-0.3,164
8.4,-0.15,163
8.4,0.0,167
8.4,0.15,171
8.4,0.3,199
8.4,0.45,205
8.4,0.6,162
8.4,0.75,201
8.4,0.9,231
8.4,1.05,223
8.4,1.2,185
8.4,1.35,175
8.4,1.5,178
8.55,-1.5,0
8.55,-1.35,0
8.55,-1.2,0
8.55,-1.05,58
8.55,-0.9,121
8.55,-0.75,165
8.55,-0.6,45
8.55,-0.45,94
8.55,-0.3,174
8.55,-0.15,162
8.55,0.0,170
8.55,0.15,168
8.55,0.3,201
8.55,0.45,238
8.55,0.6,226
8.55,0.75,219
8.55,0.9,216
8.55,1.05,224
8.55,1.2,200
8.55,1.35,194
8.55,1.5,196
8.7,-1.5,0
8.7,-1.35,0
8.7,-1.2,12
8.7,-1.05,72
8.7,-0.9,130
8.7,-0.75,173
8.7,-0.6,140
8.7,-0.45,133
8.7,-0.3,182
8.7,-0.15,167
8.7,0.0,162
8.7,0.15,169
8.7,0.3,158
8.7,0.45,210
8.7,0.6,251
8.7,0.75,226
8.7,0.9,200
8.7,1.05,218
8.7,1.2,213
8.7,1.35,212
8.7,1.5,212
8.85,-1.5,0
8.85,-1.35,0
8.85,-1.2,56
8.85,-1.05,96
8.85,-0.9,143
8.85,-0.75,161
8.85,-0.6,153
8.85,-0.45,153
8.85,-0.3,167
8.85,-0.15,167
8.85,0.0,164
8.85,0.15,134
8.85,0.3,62
8.85,0.45,146
8.85,0.6,200
8.85,0.75,205
8.85,0.9,190
8.85,1.05,180
8.85,1.2,169
8.85,1.35,174
8.85,1.5,179
9.0,-1.5,0
9.0,-1.35,29
9.0,-1.2,84
9.0,-1.05,120
9.0,-0.9,149
9.0,-0.75,165
9.0,-0.6,154
9.0,-0.45,164
9.0,-0.3,164
9.0,-0.15,166
9.0,0.0,167
9.0,0.15,153
9.0,0.3,61
9.0,0.45,79
9.0,0.6,191
9.0,0.75,186
9.0,0.9,181
9.0,1.05,181
9.0,1.2,165
9.0,1.35,159
9.0,1.5,159
9.15,-1.5,32
9.15,-1.35,58
9.15,-1.2,91
9.15,-1.05,116
9.15,-0.9,141
9.15,-0.75,178
9.15,-0.6,212
9.15,-0.45,169
9.15,-0.3,166
9.15,-0.15,164
9.15,0.0,169
9.15,0.15,164
9.15,0.3,112
9.15,0.45,33
9.15,0.6,191
9.15,0.75,171
9.15,0.9,173
9.15,1.05,184
9.15,1.2,161
9.15,1.35,136
9.15,1.5,122
9.3,-1.5,76
9.3,-1.35,103
9.3,-1.2,149
9.3,-1.05,145
9.3,-0.9,164
9.3,-0.75,158
9.3,-0.6,209
9.3,-0.45,175
9.3,-0.3,165
9.3,-0.15,178
9.3,0.0,174
9.3,0.15,167
9.3,0.3,154
9.3,0.45,148
9.3,0.6,177
9.3,0.75,161
9.3,0.9,158
9.3,1.05,184
9.3,1.2,176
9.3,1.35,169
9.3,1.5,169
9.45,-1.5,105
9.45,-1.35,123
9.45,-1.2,154
9.45,-1.05,158
9.45,-0.9,177
9.45,-0.75,189
9.45,-0.6,188
9.45,-0.45,165
9.45,-0.3,165
9.45,-0.15,178
9.45,0.0,157
9.45,0.15,169
9.45,0.3,181
9.45,0.45,203
9.45,0.6,202
9.45,0.75,175
9.45,0.9,158
9.45,1.05,181
9.45,1.2,184
9.45,1.35,187
9.45,1.5,194
9.6,-1.5,123
9.6,-1.35,119
9.6,-1.2,117
9.6,-1.05,156
9.6,-0.9,165
9.6,-0.75,176
9.6,-0.6,170
9.6,-0.45,172
9.6,-0.3,165
9.6,-0.15,168
9.6,0.0,164
9.6,0.15,162
9.6,0.3,179
9.6,0.45,220
9.6,0.6,226
9.6,0.75,249
9.6,0.9,228
9.6,1.05,134
9.6,1.2,184
9.6,1.35,218
9.6,1.5,235
9.75,-1.5,97
9.75,-1.35,117
9.75,-1.2,134
9.75,-1.05,154
9.75,-0.9,167
9.75,-0.75,176
9.75,-0.6,166
9.75,-0.45,166
9.75,-0.3,171
9.75,-0.15,175
9.75,0.0,165
9.75,0.15,167
9.75,0.3,170
9.75,0.45,210
9.75,0.6,238
9.75,0.75,249
9.75,0.9,231
9.75,1.05,172
9.75,1.2,212
9.75,1.35,220
9.75,1.5,208
9.9,-1.5,71
9.9,-1.35,106
9.9,-1.2,138
9.9,-1.05,152
9.9,-0.9,172
9.9,-0.75,171
9.9,-0.6,166
9.9,-0.45,166
9.9,-0.3,168
9.9,-0.15,184
9.9,0.0,174
9.9,0.15,168
9.9,0.3,167
9.9,0.45,193
9.9,0.6,233
9.9,0.75,241
9.9,0.9,232
9.9,1.05,206
9.9,1.2,230
9.9,1.35,218
9.9,1.5,187
10.05,-1.5,145
10.05,-1.35,135
10.05,-1.2,111
10.05,-1.05,145
10.05,-0.9,172
10.05,-0.75,181
10.05,-0.6,166
10.05,-0.45,170
10.05,-0.3,170
10.05,-0.15,184
10.05,0.0,172
10.05,0.15,165
10.05,0.3,163
10.05,0.45,167
10.05,0.6,212
10.05,0.75,239
10.05,0.9,253
10.05,1.05,230
10.05,1.2,211
10.05,1.35,196
10.05,1.5,186
10.2,-1.5,158
10.2,-1.35,139
10.2,-1.2,111
10.2,-1.05,137
10.2,-0.9,170
10.2,-0.75,181
10.2,-0.6,164
10.2,-0.45,170
10.2,-0.3,166
10.2,-0.15,171
10.2,0.0,166
10.2,0.15,166
10.2,0.3,164
10.2,0.45,163
10.2,0.6,181
10.2,0.75,202
10.2,0.9,223
10.2,1.05,240
10.2,1.2,232
10.2,1.35,229
10.2,1.5,231
10.35,-1.5,160
10.35,-1.35,144
10.35,-1.2,114
10.35,-1.05,141
10.35,-0.9,172
10.35,-0.75,182
10.35,-0.6,164
10.35,-0.45,164
10.35,-0.3,164
10.35,-0.15,171
10.35,0.0,166
10.35,0.15,167
10.35,0.3,163
10.35,0.45,160
10.35,0.6,151
10.35,0.75,159
10.35,0.9,181
10.35,1.05,246
10.35,1.2,255
10.35,1.35,255
10.35,1.5,255
10.5,-1.5,106
10.5,-1.35,115
10.5,-1.2,123
10.5,-1.05,145
10.5,-0.9,165
10.5,-0.75,167
10.5,-0.6,164
10.5,-0.45,164
10.5,-0.3,171
10.5,-0.15,171
10.5,0.0,166
10.5,0.15,167
10.5,0.3,162
10.5,0.45,159
10.5,0.6,156
10.5,0.75,160
10.5,0.9,166
10.5,1.05,179
10.5,1.2,185
10.5,1.35,190
10.5,1.5,193
10.65,-1.5,96
10.65,-1.35,114
10.65,-1.2,132
10.65,-1.05,146
10.65,-0.9,160
10.65,-0.75,164
10.65,-0.6,166
10.65,-0.45,167
10.65,-0.3,155
10.65,-0.15,170
10.65,0.0,171
10.65,0.15,165
10.65,0.3,162
10.65,0.45,160
10.65,0.6,160
10.65,0.75,161
10.65,0.9,162
10.65,1.05,161
10.65,1.2,161
10.65,1.35,162
10.65,1.5,161
10.8,-1.5,106
10.8,-1.35,124
10.8,-1.2,141
10.8,-1.05,156
10.8,-0.9,166
10.8,-0.75,163
10.8,-0.6,166
10.8,-0.45,144
10.8,-0.3,181
10.8,-0.15,165
10.8,0.0,168
10.8,0.15,164
10.8,0.3,160
10.8,0.45,160
10.8,0.6,162
10.8,0.75,162
10.8,0.9,162
10.8,1.05,161
10.8,1.2,160
10.8,1.35,159
10.8,1.5,158
10.95,-1.5,116
10.95,-1.35,139
10.95,-1.2,159
10.95,-1.05,165
10.95,-0.9,166
10.95,-0.75,160
10.95,-0.6,166
10.95,-0.45,163
10.95,-0.3,154
10.95,-0.15,160
10.95,0.0,164
10.95,0.15,160
10.95,0.3,160
10.95,0.45,160
10.95,0.6,163
10.95,0.75,163
10.95,0.9,163
10.95,1.05,162
10.95,1.2,152
10.95,1.35,144
10.95,1.5,139
11.1,-1.5,123
11.1,-1.35,147
11.1,-1.2,166
11.1,-1.05,166
11.1,-0.9,166
11.1,-0.75,159
11.1,-0.6,154
11.1,-0.45,154
11.1,-0.3,172
11.1,-0.15,172
11.1,0.0,164
11.1,0.15,168
11.1,0.3,166
11.1,0.45,166
11.1,0.6,165
11.1,0.75,164
11.1,0.9,162
11.1,1.05,161
11.1,1.2,145
11.1,1.35,134
11.1,1.5,126
11.25,-1.5,132
11.25,-1.35,153
11.25,-1.2,167
11.25,-1.05,167
11.25,-0.9,167
11.25,-0.75,167
11.25,-0.6,168
11.25,-0.45,174
11.25,-0.3,172
11.25,-0.15,170
11.25,0.0,170
11.25,0.15,170
11.25,0.3,170
11.25,0.45,170
11.25,0.6,166
11.25,0.75,161
11.25,0.9,153
11.25,1.05,147
11.25,1.2,145
11.25,1.35,142
11.25,1.5,138
11.4,-1.5,159
11.4,-1.35,167
11.4,-1.2,171
11.4,-1.05,172
11.4,-0.9,171
11.4,-0.75,170
11.4,-0.6,171
11.4,-0.45,174
11.4,-0.3,174
11.4,-0.15,171
11.4,0.0,169
11.4,0.15,170
11.4,0.3,170
11.4,0.45,169
11.4,0.6,164
11.4,0.75,158
11.4,0.9,151
11.4,1.05,145
11.4,1.2,142
11.4,1.35,140
11.4,1.5,137
11.55,-1.5,193
11.55,-1.35,186
11.55,-1.2,179
11.55,-1.05,180
11.55,-0.9,176
11.55,-0.75,174
11.55,-0.6,171
11.55,-0.45,174
11.55,-0.3,167
11.55,-0.15,167
11.55,0.0,165
11.55,0.15,167
11.55,0.3,168
11.55,0.45,164
11.55,0.6,159
11.55,0.75,152
11.55,0.9,146
11.55,1.05,142
11.55,1.2,138
11.55,1.35,135
11.55,1.5,133
11.7,-1.5,205
11.7,-1.35,193
11.7,-1.2,179
11.7,-1.05,185
11.7,-0.9,180
11.7,-0.75,178
11.7,-0.6,174
11.7,-0.45,174
11.7,-0.3,174
11.7,-0.15,168
11.7,0.0,164
11.7,0.15,168
11.7,0.3,165
11.7,0.45,155
11.7,0.6,148
11.7,0.75,142
11.7,0.9,138
11.7,1.05,134
11.7,1.2,132
11.7,1.35,131
11.7,1.5,131
11.85,-1.5,208
11.85,-1.35,198
11.85,-1.2,183
11.85,-1.05,185
11.85,-0.9,176
11.85,-0.75,177
11.85,-0.6,170
11.85,-0.45,164
11.85,-0.3,171
11.85,-0.15,174
11.85,0.0,168
11.85,0.15,162
11.85,0.3,155
11.85,0.45,140
11.85,0.6,134
11.85,0.75,132
11.85,0.9,131
11.85,1.05,130
11.85,1.2,131
11.85,1.35,133
11.85,1.5,134
12.0,-1.5,192
12.0,-1.35,200
12.0,-1.2,213
12.0,-1.05,174
12.0,-0.9,162
12.0,-0.75,162
12.0,-0.6,170
12.0,-0.45,171
12.0,-0.3,162
12.0,-0.15,162
12.0,0.0,162
12.0,0.15,169
12.0,0.3,150
12.0,0.45,128
12.0,0.6,126
12.0,0.75,128
12.0,0.9,130
12.0,1.05,130
12.0,1.2,144
12.0,1.35,158
12.0,1.5,166
12.15,-1.5,192
12.15,-1.35,192
12.15,-1.2,183
12.15,-1.05,160
12.15,-0.9,160
12.15,-0.75,166
12.15,-0.6,163
12.15,-0.45,167
12.15,-0.3,162
12.15,-0.15,173
12.15,0.0,173
12.15,0.15,180
12.15,0.3,163
12.15,0.45,137
12.15,0.6,121
12.15,0.75,125
12.15,0.9,131
12.15,1.05,130
12.15,1.2,136
12.15,1.35,143
12.15,1.5,147
12.3,-1.5,191
12.3,-1.35,185
12.3,-1.2,157
12.3,-1.05,155
12.3,-0.9,164
12.3,-0.75,178
12.3,-0.6,184
12.3,-0.45,169
12.3,-0.3,162
12.3,-0.15,168
12.3,0.0,163
12.3,0.15,161
12.3,0.3,162
12.3,0.45,146
12.3,0.6,128
12.3,0.75,131
12.3,0.9,136
12.3,1.05,137
12.3,1.2,137
12.3,1.35,138
12.3,1.5,140
12.45,-1.5,190
12.45,-1.35,182
12.45,-1.2,149
12.45,-1.05,158
12.45,-0.9,164
12.45,-0.75,173
12.45,-0.6,174
12.45,-0.45,174
12.45,-0.3,165
12.45,-0.15,170
12.45,0.0,159
12.45,0.15,152
12.45,0.3,149
12.45,0.45,142
12.45,0.6,128
12.45,0.75,138
12.45,0.9,143
12.45,1.05,143
12.45,1.2,143
12.45,1.35,143
12.45,1.5,145
12.6,-1.5,168
12.6,-1.35,166
12.6,-1.2,153
12.6,-1.05,155
12.6,-0.9,155
12.6,-0.75,157
12.6,-0.6,170
12.6,-0.45,174
12.6,-0.3,168
12.6,-0.15,183
12.6,0.0,170
12.6,0.15,157
12.6,0.3,143
12.6,0.45,133
12.6,0.6,129
12.6,0.75,147
12.6,0.9,151
12.6,1.05,147
12.6,1.2,147
12.6,1.35,147
12.6,1.5,147
12.75,-1.5,154
12.75,-1.35,154
12.75,-1.2,156
12.75,-1.05,155
12.75,-0.9,155
12.75,-0.75,155
12.75,-0.6,165
12.75,-0.45,167
12.75,-0.3,167
12.75,-0.15,187
12.75,0.0,172
12.75,0.15,152
12.75,0.3,132
12.75,0.45,120
12.75,0.6,135
12.75,0.75,159
12.75,0.9,164
12.75,1.05,158
12.75,1.2,155
12.75,1.35,153
12.75,1.5,151
12.9,-1.5,162
12.9,-1.35,160
12.9,-1.2,159
12.9,-1.05,156
12.9,-0.9,155
12.9,-0.75,155
12.9,-0.6,169
12.9,-0.45,170
12.9,-0.3,164
12.9,-0.15,170
12.9,0.0,161
12.9,0.15,141
12.9,0.3,122
12.9,0.45,113
12.9,0.6,125
12.9,0.75,143
12.9,0.9,159
12.9,1.05,172
12.9,1.2,166
12.9,1.35,161
12.9,1.5,156
13.05,-1.5,163
13.05,-1.35,163
13.05,-1.2,163
13.05,-1.05,163
13.05,-0.9,163
13.05,-0.75,165
13.05,-0.6,178
13.05,-0.45,179
13.05,-0.3,166
13.05,-0.15,159
13.05,0.0,150
13.05,0.15,133
13.05,0.3,113
13.05,0.45,105
13.05,0.6,120
13.05,0.75,140
13.05,0.9,161
13.05,1.05,184
13.05,1.2,179
13.05,1.35,174
13.05,1.5,168
