-3.0,-1.5,129
-3.0,-1.35,129
-3.0,-1.2,128
-3.0,-1.05,127
-3.0,-0.9,127
-3.0,-0.75,127
-3.0,-0.6,127
-3.0,-0.45,126
-3.0,-0.3,126
-3.0,-0.15,129
-3.0,0.0,132
-3.0,0.15,135
-3.0,0.3,136
-3.0,0.45,139
-3.0,0.6,140
-3.0,0.75,140
-3.0,0.9,140
-3.0,1.05,140
-3.0,1.2,139
-3.0,1.35,134
-3.0,1.5,129
-2.85,-1.5,132
-2.85,-1.35,132
-2.85,-1.2,132
-2.85,-1.05,132
-2.85,-0.9,134
-2.85,-0.75,135
-2.85,-0.6,136
-2.85,-0.45,137
-2.85,-0.3,139
-2.85,-0.15,141
-2.85,0.0,142
-2.85,0.15,141
-2.85,0.3,140
-2.85,0.45,140
-2.85,0.6,140
-2.85,0.75,140
-2.85,0.9,140
-2.85,1.05,140
-2.85,1.2,138
-2.85,1.35,133
-2.85,1.5,128
-2.7,-1.5,134
-2.7,-1.35,135
-2.7,-1.2,136
-2.7,-1.05,137
-2.7,-0.9,140
-2.7,-0.75,142
-2.7,-0.6,145
-2.7,-0.45,147
-2.7,-0.3,150
-2.7,-0.15,151
-2.7,0.0,149
-2.7,0.15,144
-2.7,0.3,140
-2.7,0.45,140
-2.7,0.6,140
-2.7,0.75,140
-2.7,0.9,140
-2.7,1.05,140
-2.7,1.2,136
-2.7,1.35,131
-2.7,1.5,126
-2.55,-1.5,136
-2.55,-1.35,137
-2.55,-1.2,138
-2.55,-1.05,140
-2.55,-0.9,144
-2.55,-0.75,147
-2.55,-0.6,150
-2.55,-0.45,154
-2.55,-0.3,157
-2.55,-0.15,156
-2.55,0.0,151
-2.55,0.15,143
-2.55,0.3,137
-2.55,0.45,137
-2.55,0.6,140
-2.55,0.75,140
-2.55,0.9,140
-2.55,1.05,135
-2.55,1.2,124
-2.55,1.35,119
-2.55,1.5,114
-2.4,-1.5,138
-2.4,-1.35,138
-2.4,-1.2,140
-2.4,-1.05,142
-2.4,-0.9,146
-2.4,-0.75,150
-2.4,-0.6,154
-2.4,-0.45,157
-2.4,-0.3,158
-2.4,-0.15,154
-2.4,0.0,145
-2.4,0.15,136
-2.4,0.3,132
-2.4,0.45,133
-2.4,0.6,136
-2.4,0.75,137
-2.4,0.9,133
-2.4,1.05,123
-2.4,1.2,107
-2.4,1.35,102
-2.4,1.5,97
-2.25,-1.5,139
-2.25,-1.35,141
-2.25,-1.2,142
-2.25,-1.05,143
-2.25,-0.9,149
-2.25,-0.75,153
-2.25,-0.6,154
-2.25,-0.45,155
-2.25,-0.3,153
-2.25,-0.15,148
-2.25,0.0,139
-2.25,0.15,131
-2.25,0.3,128
-2.25,0.45,127
-2.25,0.6,129
-2.25,0.75,128
-2.25,0.9,120
-2.25,1.05,112
-2.25,1.2,101
-2.25,1.35,96
-2.25,1.5,90
-2.1,-1.5,139
-2.1,-1.35,142
-2.1,-1.2,143
-2.1,-1.05,144
-2.1,-0.9,150
-2.1,-0.75,153
-2.1,-0.6,150
-2.1,-0.45,149
-2.1,-0.3,149
-2.1,-0.15,147
-2.1,0.0,141
-2.1,0.15,135
-2.1,0.3,130
-2.1,0.45,125
-2.1,0.6,123
-2.1,0.75,116
-2.1,0.9,106
-2.1,1.05,100
-2.1,1.2,96
-2.1,1.35,91
-2.1,1.5,86
-1.95,-1.5,139
-1.95,-1.35,142
-1.95,-1.2,144
-1.95,-1.05,145
-1.95,-0.9,149
-1.95,-0.75,151
-1.95,-0.6,149
-1.95,-0.45,149
-1.95,-0.3,150
-1.95,-0.15,150
-1.95,0.0,147
-1.95,0.15,142
-1.95,0.3,135
-1.95,0.45,126
-1.95,0.6,119
-1.95,0.75,108
-1.95,0.9,97
-1.95,1.05,91
-1.95,1.2,90
-1.95,1.35,85
-1.95,1.5,80
-1.8,-1.5,139
-1.8,-1.35,141
-1.8,-1.2,144
-1.8,-1.05,146
-1.8,-0.9,147
-1.8,-0.75,148
-1.8,-0.6,148
-1.8,-0.45,150
-1.8,-0.3,152
-1.8,-0.15,154
-1.8,0.0,154
-1.8,0.15,149
-1.8,0.3,139
-1.8,0.45,127
-1.8,0.6,113
-1.8,0.75,100
-1.8,0.9,87
-1.8,1.05,85
-1.8,1.2,86
-1.8,1.35,81
-1.8,1.5,76
-1.65,-1.5,138
-1.65,-1.35,140
-1.65,-1.2,143
-1.65,-1.05,145
-1.65,-0.9,147
-1.65,-0.75,148
-1.65,-0.6,149
-1.65,-0.45,151
-1.65,-0.3,154
-1.65,-0.15,157
-1.65,0.0,158
-1.65,0.15,153
-1.65,0.3,142
-1.65,0.45,127
-1.65,0.6,112
-1.65,0.75,100
-1.65,0.9,91
-1.65,1.05,85
-1.65,1.2,85
-1.65,1.35,80
-1.65,1.5,76
-1.5,-1.5,138
-1.5,-1.35,139
-1.5,-1.2,142
-1.5,-1.05,143
-1.5,-0.9,145
-1.5,-0.75,146
-1.5,-0.6,148
-1.5,-0.45,151
-1.5,-0.3,154
-1.5,-0.15,158
-1.5,0.0,159
-1.5,0.15,153
-1.5,0.3,139
-1.5,0.45,124
-1.5,0.6,110
-1.5,0.75,101
-1.5,0.9,99
-1.5,1.05,95
-1.5,1.2,92
-1.5,1.35,89
-1.5,1.5,86
-1.35,-1.5,121
-1.35,-1.35,127
-1.35,-1.2,137
-1.35,-1.05,141
-1.35,-0.9,142
-1.35,-0.75,143
-1.35,-0.6,146
-1.35,-0.45,149
-1.35,-0.3,151
-1.35,-0.15,155
-1.35,0.0,156
-1.35,0.15,150
-1.35,0.3,135
-1.35,0.45,120
-1.35,0.6,109
-1.35,0.75,102
-1.35,0.9,101
-1.35,1.05,98
-1.35,1.2,94
-1.35,1.35,92
-1.35,1.5,89
-1.2,-1.5,88
-1.2,-1.35,102
-1.2,-1.2,127
-1.2,-1.05,138
-1.2,-0.9,140
-1.2,-0.75,141
-1.2,-0.6,142
-1.2,-0.45,143
-1.2,-0.3,145
-1.2,-0.15,147
-1.2,0.0,148
-1.2,0.15,144
-1.2,0.3,132
-1.2,0.45,119
-1.2,0.6,114
-1.2,0.75,110
-1.2,0.9,106
-1.2,1.05,102
-1.2,1.2,98
-1.2,1.35,96
-1.2,1.5,94
-1.05,-1.5,76
-1.05,-1.35,93
-1.05,-1.2,118
-1.05,-1.05,130
-1.05,-0.9,135
-1.05,-0.75,137
-1.05,-0.6,137
-1.05,-0.45,138
-1.05,-0.3,140
-1.05,-0.15,140
-1.05,0.0,140
-1.05,0.15,137
-1.05,0.3,129
-1.05,0.45,119
-1.05,0.6,118
-1.05,0.75,115
-1.05,0.9,111
-1.05,1.05,105
-1.05,1.2,98
-1.05,1.35,93
-1.05,1.5,89
-0.9,-1.5,65
-0.9,-1.35,84
-0.9,-1.2,104
-0.9,-1.05,119
-0.9,-0.9,131
-0.9,-0.75,133
-0.9,-0.6,133
-0.9,-0.45,133
-0.9,-0.3,134
-0.9,-0.15,134
-0.9,0.0,134
-0.9,0.15,133
-0.9,0.3,129
-0.9,0.45,126
-0.9,0.6,124
-0.9,0.75,121
-0.9,0.9,117
-0.9,1.05,107
-0.9,1.2,88
-0.9,1.35,79
-0.9,1.5,70
-0.75,-1.5,57
-0.75,-1.35,78
-0.75,-1.2,99
-0.75,-1.05,118
-0.75,-0.9,131
-0.75,-0.75,134
-0.75,-0.6,132
-0.75,-0.45,132
-0.75,-0.3,132
-0.75,-0.15,132
-0.75,0.0,132
-0.75,0.15,133
-0.75,0.3,132
-0.75,0.45,132
-0.75,0.6,129
-0.75,0.75,125
-0.75,0.9,120
-0.75,1.05,109
-0.75,1.2,91
-0.75,1.35,83
-0.75,1.5,74
-0.6,-1.5,48
-0.6,-1.35,69
-0.6,-1.2,92
-0.6,-1.05,117
-0.6,-0.9,138
-0.6,-0.75,150
-0.6,-0.6,135
-0.6,-0.45,132
-0.6,-0.3,132
-0.6,-0.15,132
-0.6,0.0,132
-0.6,0.15,132
-0.6,0.3,137
-0.6,0.45,139
-0.6,0.6,131
-0.6,0.75,123
-0.6,0.9,115
-0.6,1.05,105
-0.6,1.2,98
-0.6,1.35,92
-0.6,1.5,85
-0.45,-1.5,32
-0.45,-1.35,54
-0.45,-1.2,79
-0.45,-1.05,108
-0.45,-0.9,136
-0.45,-0.75,155
-0.45,-0.6,142
-0.45,-0.45,132
-0.45,-0.3,132
-0.45,-0.15,132
-0.45,0.0,132
-0.45,0.15,134
-0.45,0.3,141
-0.45,0.45,143
-0.45,0.6,138
-0.45,0.75,130
-0.45,0.9,121
-0.45,1.05,112
-0.45,1.2,106
-0.45,1.35,100
-0.45,1.5,94
-0.3,-1.5,19
-0.3,-1.35,38
-0.3,-1.2,59
-0.3,-1.05,87
-0.3,-0.9,122
-0.3,-0.75,151
-0.3,-0.6,158
-0.3,-0.45,140
-0.3,-0.3,132
-0.3,-0.15,132
-0.3,0.0,132
-0.3,0.15,138
-0.3,0.3,143
-0.3,0.45,143
-0.3,0.6,143
-0.3,0.75,140
-0.3,0.9,134
-0.3,1.05,128
-0.3,1.2,119
-0.3,1.35,116
-0.3,1.5,113
-0.15,-1.5,5
-0.15,-1.35,22
-0.15,-1.2,41
-0.15,-1.05,65
-0.15,-0.9,96
-0.15,-0.75,132
-0.15,-0.6,160
-0.15,-0.45,155
-0.15,-0.3,141
-0.15,-0.15,142
-0.15,0.0,143
-0.15,0.15,143
-0.15,0.3,143
-0.15,0.45,142
-0.15,0.6,141
-0.15,0.75,140
-0.15,0.9,140
-0.15,1.05,137
-0.15,1.2,127
-0.15,1.35,124
-0.15,1.5,121
0.0,-1.5,0
0.0,-1.35,10
0.0,-1.2,39
0.0,-1.05,58
0.0,-0.9,73
0.0,-0.75,108
0.0,-0.6,156
0.0,-0.45,168
0.0,-0.3,147
0.0,-0.15,146
0.0,0.0,146
0.0,0.15,144
0.0,0.3,140
0.0,0.45,138
0.0,0.6,138
0.0,0.75,141
0.0,0.9,150
0.0,1.05,148
0.0,1.2,131
0.0,1.35,127
0.0,1.5,123
0.15,-1.5,14
0.15,-1.35,24
0.15,-1.2,48
0.15,-1.05,62
0.15,-0.9,72
0.15,-0.75,110
0.15,-0.6,154
0.15,-0.45,164
0.15,-0.3,144
0.15,-0.15,144
0.15,0.0,144
0.15,0.15,139
0.15,0.3,138
0.15,0.45,138
0.15,0.6,138
0.15,0.75,140
0.15,0.9,148
0.15,1.05,147
0.15,1.2,132
0.15,1.35,128
0.15,1.5,124
0.3,-1.5,99
0.3,-1.35,90
0.3,-1.2,82
0.3,-1.05,75
0.3,-0.9,87
0.3,-0.75,118
0.3,-0.6,141
0.3,-0.45,145
0.3,-0.3,137
0.3,-0.15,140
0.3,0.0,139
0.3,0.15,138
0.3,0.3,138
0.3,0.45,138
0.3,0.6,138
0.3,0.75,138
0.3,0.9,138
0.3,1.05,138
0.3,1.2,135
0.3,1.35,131
0.3,1.5,128
0.45,-1.5,117
0.45,-1.35,112
0.45,-1.2,102
0.45,-1.05,89
0.45,-0.9,95
0.45,-0.75,111
0.45,-0.6,119
0.45,-0.45,128
0.45,-0.3,132
0.45,-0.15,138
0.45,0.0,140
0.45,0.15,138
0.45,0.3,139
0.45,0.45,140
0.45,0.6,140
0.45,0.75,139
0.45,0.9,136
0.45,1.05,136
0.45,1.2,137
0.45,1.35,135
0.45,1.5,132
0.6,-1.5,117
0.6,-1.35,115
0.6,-1.2,118
0.6,-1.05,111
0.6,-0.9,90
0.6,-0.75,74
0.6,-0.6,85
0.6,-0.45,115
0.6,-0.3,132
0.6,-0.15,138
0.6,0.0,139
0.6,0.15,140
0.6,0.3,140
0.6,0.45,140
0.6,0.6,140
0.6,0.75,140
0.6,0.9,141
0.6,1.05,143
0.6,1.2,150
0.6,1.35,152
0.6,1.5,154
0.75,-1.5,124
0.75,-1.35,126
0.75,-1.2,135
0.75,-1.05,129
0.75,-0.9,100
0.75,-0.75,76
0.75,-0.6,87
0.75,-0.45,123
0.75,-0.3,151
0.75,-0.15,144
0.75,0.0,133
0.75,0.15,138
0.75,0.3,140
0.75,0.45,139
0.75,0.6,135
0.75,0.75,135
0.75,0.9,141
0.75,1.05,145
0.75,1.2,152
0.75,1.35,155
0.75,1.5,158
0.9,-1.5,124
0.9,-1.35,128
0.9,-1.2,144
0.9,-1.05,137
0.9,-0.9,120
0.9,-0.75,108
0.9,-0.6,113
0.9,-0.45,127
0.9,-0.3,141
0.9,-0.15,141
0.9,0.0,132
0.9,0.15,134
0.9,0.3,133
0.9,0.45,128
0.9,0.6,128
0.9,0.75,130
0.9,0.9,142
0.9,1.05,147
0.9,1.2,150
0.9,1.35,154
0.9,1.5,158
1.05,-1.5,132
1.05,-1.35,133
1.05,-1.2,145
1.05,-1.05,140
1.05,-0.9,132
1.05,-0.75,139
1.05,-0.6,168
1.05,-0.45,167
1.05,-0.3,130
1.05,-0.15,132
1.05,0.0,136
1.05,0.15,136
1.05,0.3,132
1.05,0.45,128
1.05,0.6,128
1.05,0.75,128
1.05,0.9,137
1.05,1.05,142
1.05,1.2,146
1.05,1.35,150
1.05,1.5,153
1.2,-1.5,163
1.2,-1.35,155
1.2,-1.2,151
1.2,-1.05,142
1.2,-0.9,124
1.2,-0.75,137
1.2,-0.6,172
1.2,-0.45,175
1.2,-0.3,145
1.2,-0.15,132
1.2,0.0,136
1.2,0.15,136
1.2,0.3,136
1.2,0.45,129
1.2,0.6,128
1.2,0.75,128
1.2,0.9,129
1.2,1.05,132
1.2,1.2,134
1.2,1.35,134
1.2,1.5,134
1.35,-1.5,163
1.35,-1.35,155
1.35,-1.2,146
1.35,-1.05,137
1.35,-0.9,121
1.35,-0.75,127
1.35,-0.6,139
1.35,-0.45,135
1.35,-0.3,130
1.35,-0.15,130
1.35,0.0,130
1.35,0.15,129
1.35,0.3,131
1.35,0.45,131
1.35,0.6,129
1.35,0.75,128
1.35,0.9,128
1.35,1.05,130
1.35,1.2,130
1.35,1.35,129
1.35,1.5,127
1.5,-1.5,145
1.5,-1.35,141
1.5,-1.2,129
1.5,-1.05,124
1.5,-0.9,130
1.5,-0.75,131
1.5,-0.6,128
1.5,-0.45,134
1.5,-0.3,149
1.5,-0.15,141
1.5,0.0,137
1.5,0.15,129
1.5,0.3,129
1.5,0.45,129
1.5,0.6,129
1.5,0.75,129
1.5,0.9,128
1.5,1.05,126
1.5,1.2,124
1.5,1.35,121
1.5,1.5,118
1.65,-1.5,139
1.65,-1.35,138
1.65,-1.2,128
1.65,-1.05,127
1.65,-0.9,133
1.65,-0.75,132
1.65,-0.6,132
1.65,-0.45,149
1.65,-0.3,165
1.65,-0.15,133
1.65,0.0,133
1.65,0.15,137
1.65,0.3,130
1.65,0.45,129
1.65,0.6,129
1.65,0.75,129
1.65,0.9,128
1.65,1.05,125
1.65,1.2,122
1.65,1.35,118
1.65,1.5,113
1.8,-1.5,133
1.8,-1.35,133
1.8,-1.2,134
1.8,-1.05,134
1.8,-0.9,134
1.8,-0.75,132
1.8,-0.6,145
1.8,-0.45,148
1.8,-0.3,146
1.8,-0.15,133
1.8,0.0,133
1.8,0.15,134
1.8,0.3,133
1.8,0.45,132
1.8,0.6,131
1.8,0.75,129
1.8,0.9,127
1.8,1.05,123
1.8,1.2,119
1.8,1.35,114
1.8,1.5,109
1.95,-1.5,133
1.95,-1.35,133
1.95,-1.2,135
1.95,-1.05,135
1.95,-0.9,131
1.95,-0.75,127
1.95,-0.6,127
1.95,-0.45,130
1.95,-0.3,133
1.95,-0.15,134
1.95,0.0,134
1.95,0.15,134
1.95,0.3,132
1.95,0.45,132
1.95,0.6,131
1.95,0.75,129
1.95,0.9,126
1.95,1.05,122
1.95,1.2,117
1.95,1.35,112
1.95,1.5,108
2.1,-1.5,147
2.1,-1.35,147
2.1,-1.2,137
2.1,-1.05,133
2.1,-0.9,125
2.1,-0.75,120
2.1,-0.6,117
2.1,-0.45,126
2.1,-0.3,129
2.1,-0.15,130
2.1,0.0,126
2.1,0.15,133
2.1,0.3,133
2.1,0.45,134
2.1,0.6,134
2.1,0.75,131
2.1,0.9,126
2.1,1.05,121
2.1,1.2,116
2.1,1.35,112
2.1,1.5,108
2.25,-1.5,151
2.25,-1.35,151
2.25,-1.2,139
2.25,-1.05,133
2.25,-0.9,125
2.25,-0.75,122
2.25,-0.6,123
2.25,-0.45,131
2.25,-0.3,133
2.25,-0.15,148
2.25,0.0,121
2.25,0.15,130
2.25,0.3,133
2.25,0.45,134
2.25,0.6,134
2.25,0.75,132
2.25,0.9,125
2.25,1.05,119
2.25,1.2,114
2.25,1.35,110
2.25,1.5,106
2.4,-1.5,125
2.4,-1.35,129
2.4,-1.2,140
2.4,-1.05,140
2.4,-0.9,130
2.4,-0.75,128
2.4,-0.6,129
2.4,-0.45,133
2.4,-0.3,132
2.4,-0.15,129
2.4,0.0,132
2.4,0.15,134
2.4,0.3,133
2.4,0.45,134
2.4,0.6,134
2.4,0.75,131
2.4,0.9,125
2.4,1.05,118
2.4,1.2,108
2.4,1.35,99
2.4,1.5,90
2.55,-1.5,112
2.55,-1.35,119
2.55,-1.2,139
2.55,-1.05,140
2.55,-0.9,134
2.55,-0.75,131
2.55,-0.6,129
2.55,-0.45,131
2.55,-0.3,133
2.55,-0.15,133
2.55,0.0,134
2.55,0.15,134
2.55,0.3,133
2.55,0.45,134
2.55,0.6,134
2.55,0.75,131
2.55,0.9,125
2.55,1.05,118
2.55,1.2,107
2.55,1.35,98
2.55,1.5,87
2.7,-1.5,103
2.7,-1.35,111
2.7,-1.2,125
2.7,-1.05,134
2.7,-0.9,137
2.7,-0.75,133
2.7,-0.6,131
2.7,-0.45,129
2.7,-0.3,132
2.7,-0.15,133
2.7,0.0,134
2.7,0.15,133
2.7,0.3,133
2.7,0.45,134
2.7,0.6,134
2.7,0.75,132
2.7,0.9,128
2.7,1.05,123
2.7,1.2,126
2.7,1.35,124
2.7,1.5,122
2.85,-1.5,105
2.85,-1.35,113
2.85,-1.2,121
2.85,-1.05,127
2.85,-0.9,135
2.85,-0.75,133
2.85,-0.6,138
2.85,-0.45,147
2.85,-0.3,130
2.85,-0.15,132
2.85,0.0,135
2.85,0.15,135
2.85,0.3,138
2.85,0.45,140
2.85,0.6,133
2.85,0.75,132
2.85,0.9,130
2.85,1.05,127
2.85,1.2,140
2.85,1.35,141
2.85,1.5,143
3.0,-1.5,109
3.0,-1.35,117
3.0,-1.2,124
3.0,-1.05,129
3.0,-0.9,130
3.0,-0.75,128
3.0,-0.6,131
3.0,-0.45,153
3.0,-0.3,148
3.0,-0.15,130
3.0,0.0,135
3.0,0.15,130
3.0,0.3,137
3.0,0.45,142
3.0,0.6,139
3.0,0.75,135
3.0,0.9,127
3.0,1.05,127
3.0,1.2,157
3.0,1.35,165
3.0,1.5,175
3.15,-1.5,109
3.15,-1.35,119
3.15,-1.2,132
3.15,-1.05,138
3.15,-0.9,138
3.15,-0.75,137
3.15,-0.6,128
3.15,-0.45,142
3.15,-0.3,149
3.15,-0.15,130
3.15,0.0,133
3.15,0.15,128
3.15,0.3,132
3.15,0.45,139
3.15,0.6,142
3.15,0.75,137
3.15,0.9,127
3.15,1.05,127
3.15,1.2,174
3.15,1.35,188
3.15,1.5,202
3.3,-1.5,116
3.3,-1.35,127
3.3,-1.2,135
3.3,-1.05,138
3.3,-0.9,138
3.3,-0.75,135
3.3,-0.6,133
3.3,-0.45,119
3.3,-0.3,130
3.3,-0.15,132
3.3,0.0,131
3.3,0.15,114
3.3,0.3,124
3.3,0.45,135
3.3,0.6,144
3.3,0.75,146
3.3,0.9,155
3.3,1.05,174
3.3,1.2,218
3.3,1.35,243
3.3,1.5,255
3.45,-1.5,120
3.45,-1.35,130
3.45,-1.2,134
3.45,-1.05,138
3.45,-0.9,135
3.45,-0.75,133
3.45,-0.6,151
3.45,-0.45,132
3.45,-0.3,132
3.45,-0.15,134
3.45,0.0,149
3.45,0.15,111
3.45,0.3,114
3.45,0.45,129
3.45,0.6,134
3.45,0.75,136
3.45,0.9,180
3.45,1.05,209
3.45,1.2,238
3.45,1.35,255
3.45,1.5,255
3.6,-1.5,112
3.6,-1.35,124
3.6,-1.2,136
3.6,-1.05,141
3.6,-0.9,158
3.6,-0.75,165
3.6,-0.6,143
3.6,-0.45,137
3.6,-0.3,137
3.6,-0.15,144
3.6,0.0,130
3.6,0.15,127
3.6,0.3,130
3.6,0.45,136
3.6,0.6,132
3.6,0.75,138
3.6,0.9,186
3.6,1.05,211
3.6,1.2,229
3.6,1.35,255
3.6,1.5,255
3.75,-1.5,110
3.75,-1.35,122
3.75,-1.2,132
3.75,-1.05,135
3.75,-0.9,150
3.75,-0.75,164
3.75,-0.6,131
3.75,-0.45,132
3.75,-0.3,132
3.75,-0.15,136
3.75,0.0,134
3.75,0.15,144
3.75,0.3,127
3.75,0.45,134
3.75,0.6,152
3.75,0.75,170
3.75,0.9,200
3.75,1.05,218
3.75,1.2,226
3.75,1.35,246
3.75,1.5,255
3.9,-1.5,201
3.9,-1.35,177
3.9,-1.2,130
3.9,-1.05,124
3.9,-0.9,128
3.9,-0.75,139
3.9,-0.6,131
3.9,-0.45,136
3.9,-0.3,136
3.9,-0.15,133
3.9,0.0,125
3.9,0.15,136
3.9,0.3,118
3.9,0.45,140
3.9,0.6,190
3.9,0.75,208
3.9,0.9,200
3.9,1.05,205
3.9,1.2,208
3.9,1.35,224
3.9,1.5,242
4.05,-1.5,255
4.05,-1.35,245
4.05,-1.2,143
4.05,-1.05,122
4.05,-0.9,135
4.05,-0.75,129
4.05,-0.6,130
4.05,-0.45,132
4.05,-0.3,134
4.05,-0.15,125
4.05,0.0,136
4.05,0.15,136
4.05,0.3,147
4.05,0.45,173
4.05,0.6,218
4.05,0.75,232
4.05,0.9,204
4.05,1.05,198
4.05,1.2,193
4.05,1.35,207
4.05,1.5,224
4.2,-1.5,255
4.2,-1.35,242
4.2,-1.2,216
4.2,-1.05,185
4.2,-0.9,152
4.2,-0.75,131
4.2,-0.6,135
4.2,-0.45,135
4.2,-0.3,114
4.2,-0.15,136
4.2,0.0,114
4.2,0.15,112
4.2,0.3,155
4.2,0.45,173
4.2,0.6,168
4.2,0.75,181
4.2,0.9,204
4.2,1.05,186
4.2,1.2,137
4.2,1.35,133
4.2,1.5,133
4.35,-1.5,255
4.35,-1.35,231
4.35,-1.2,255
4.35,-1.05,252
4.35,-0.9,154
4.35,-0.75,145
4.35,-0.6,154
4.35,-0.45,139
4.35,-0.3,130
4.35,-0.15,137
4.35,0.0,132
4.35,0.15,134
4.35,0.3,134
4.35,0.45,138
4.35,0.6,135
4.35,0.75,140
4.35,0.9,188
4.35,1.05,166
4.35,1.2,87
4.35,1.35,70
4.35,1.5,56
4.5,-1.5,207
4.5,-1.35,196
4.5,-1.2,244
4.5,-1.05,243
4.5,-0.9,170
4.5,-0.75,169
4.5,-0.6,146
4.5,-0.45,136
4.5,-0.3,137
4.5,-0.15,129
4.5,0.0,136
4.5,0.15,132
4.5,0.3,132
4.5,0.45,135
4.5,0.6,135
4.5,0.75,155
4.5,0.9,164
4.5,1.05,151
4.5,1.2,112
4.5,1.35,111
4.5,1.5,114
4.65,-1.5,125
4.65,-1.35,133
4.65,-1.2,183
4.65,-1.05,216
4.65,-0.9,192
4.65,-0.75,106
4.65,-0.6,128
4.65,-0.45,133
4.65,-0.3,127
4.65,-0.15,153
4.65,0.0,149
4.65,0.15,157
4.65,0.3,137
4.65,0.45,146
4.65,0.6,151
4.65,0.75,172
4.65,0.9,130
4.65,1.05,125
4.65,1.2,130
4.65,1.35,145
4.65,1.5,162
4.8,-1.5,70
4.8,-1.35,94
4.8,-1.2,158
4.8,-1.05,203
4.8,-0.9,207
4.8,-0.75,137
4.8,-0.6,124
4.8,-0.45,124
4.8,-0.3,138
4.8,-0.15,161
4.8,0.0,164
4.8,0.15,152
4.8,0.3,110
4.8,0.45,131
4.8,0.6,154
4.8,0.75,147
4.8,0.9,103
4.8,1.05,108
4.8,1.2,135
4.8,1.35,152
4.8,1.5,171
4.95,-1.5,49
4.95,-1.35,80
4.95,-1.2,121
4.95,-1.05,157
4.95,-0.9,167
4.95,-0.75,136
4.95,-0.6,129
4.95,-0.45,135
4.95,-0.3,134
4.95,-0.15,130
4.95,0.0,109
4.95,0.15,130
4.95,0.3,121
4.95,0.45,140
4.95,0.6,138
4.95,0.75,104
4.95,0.9,95
4.95,1.05,106
4.95,1.2,138
4.95,1.35,156
4.95,1.5,176
5.1,-1.5,74
5.1,-1.35,86
5.1,-1.2,105
5.1,-1.05,128
5.1,-0.9,146
5.1,-0.75,140
5.1,-0.6,142
5.1,-0.45,136
5.1,-0.3,120
5.1,-0.15,136
5.1,0.0,107
5.1,0.15,143
5.1,0.3,148
5.1,0.45,148
5.1,0.6,124
5.1,0.75,99
5.1,0.9,101
5.1,1.05,106
5.1,1.2,120
5.1,1.35,129
5.1,1.5,139
5.25,-1.5,80
5.25,-1.35,84
5.25,-1.2,121
5.25,-1.05,153
5.25,-0.9,170
5.25,-0.75,140
5.25,-0.6,148
5.25,-0.45,135
5.25,-0.3,146
5.25,-0.15,132
5.25,0.0,131
5.25,0.15,105
5.25,0.3,106
5.25,0.45,148
5.25,0.6,118
5.25,0.75,110
5.25,0.9,114
5.25,1.05,113
5.25,1.2,115
5.25,1.35,115
5.25,1.5,115
5.4,-1.5,92
5.4,-1.35,99
5.4,-1.2,142
5.4,-1.05,180
5.4,-0.9,220
5.4,-0.75,177
5.4,-0.6,134
5.4,-0.45,138
5.4,-0.3,139
5.4,-0.15,146
5.4,0.0,155
5.4,0.15,66
5.4,0.3,102
5.4,0.45,154
5.4,0.6,142
5.4,0.75,141
5.4,0.9,144
5.4,1.05,140
5.4,1.2,132
5.4,1.35,128
5.4,1.5,125
5.55,-1.5,106
5.55,-1.35,106
5.55,-1.2,153
5.55,-1.05,193
5.55,-0.9,221
5.55,-0.75,159
5.55,-0.6,66
5.55,-0.45,110
5.55,-0.3,167
5.55,-0.15,134
5.55,0.0,134
5.55,0.15,126
5.55,0.3,149
5.55,0.45,154
5.55,0.6,156
5.55,0.75,165
5.55,0.9,174
5.55,1.05,166
5.55,1.2,146
5.55,1.35,140
5.55,1.5,136
5.7,-1.5,97
5.7,-1.35,100
5.7,-1.2,166
5.7,-1.05,196
5.7,-0.9,185
5.7,-0.75,123
5.7,-0.6,65
5.7,-0.45,95
5.7,-0.3,149
5.7,-0.15,138
5.7,0.0,174
5.7,0.15,128
5.7,0.3,138
5.7,0.45,143
5.7,0.6,155
5.7,0.75,167
5.7,0.9,179
5.7,1.05,177
5.7,1.2,170
5.7,1.35,168
5.7,1.5,168
5.85,-1.5,92
5.85,-1.35,99
5.85,-1.2,165
5.85,-1.05,179
5.85,-0.9,157
5.85,-0.75,127
5.85,-0.6,212
5.85,-0.45,150
5.85,-0.3,126
5.85,-0.15,126
5.85,0.0,136
5.85,0.15,139
5.85,0.3,136
5.85,0.45,141
5.85,0.6,153
5.85,0.75,161
5.85,0.9,174
5.85,1.05,181
5.85,1.2,191
5.85,1.35,197
5.85,1.5,204
6.0,-1.5,119
6.0,-1.35,121
6.0,-1.2,147
6.0,-1.05,144
6.0,-0.9,127
6.0,-0.75,136
6.0,-0.6,255
6.0,-0.45,232
6.0,-0.3,146
6.0,-0.15,128
6.0,0.0,139
6.0,0.15,132
6.0,0.3,142
6.0,0.45,146
6.0,0.6,148
6.0,0.75,154
6.0,0.9,169
6.0,1.05,176
6.0,1.2,176
6.0,1.35,180
6.0,1.5,184
6.15,-1.5,140
6.15,-1.35,140
6.15,-1.2,136
6.15,-1.05,132
6.15,-0.9,127
6.15,-0.75,140
6.15,-0.6,139
6.15,-0.45,146
6.15,-0.3,128
6.15,-0.15,133
6.15,0.0,135
6.15,0.15,135
6.15,0.3,129
6.15,0.45,133
6.15,0.6,135
6.15,0.75,142
6.15,0.9,162
6.15,1.05,167
6.15,1.2,149
6.15,1.35,148
6.15,1.5,147
6.3,-1.5,140
6.3,-1.35,140
6.3,-1.2,122
6.3,-1.05,127
6.3,-0.9,145
6.3,-0.75,152
6.3,-0.6,166
6.3,-0.45,148
6.3,-0.3,135
6.3,-0.15,134
6.3,0.0,131
6.3,0.15,133
6.3,0.3,129
6.3,0.45,124
6.3,0.6,126
6.3,0.75,130
6.3,0.9,134
6.3,1.05,139
6.3,1.2,141
6.3,1.35,146
6.3,1.5,150
6.45,-1.5,140
6.45,-1.35,140
6.45,-1.2,100
6.45,-1.05,109
6.45,-0.9,132
6.45,-0.75,149
6.45,-0.6,221
6.45,-0.45,123
6.45,-0.3,135
6.45,-0.15,131
6.45,0.0,131
6.45,0.15,131
6.45,0.3,122
6.45,0.45,119
6.45,0.6,132
6.45,0.75,132
6.45,0.9,105
6.45,1.05,110
6.45,1.2,137
6.45,1.35,147
6.45,1.5,157
6.6,-1.5,140
6.6,-1.35,140
6.6,-1.2,88
6.6,-1.05,89
6.6,-0.9,123
6.6,-0.75,153
6.6,-0.6,255
6.6,-0.45,153
6.6,-0.3,111
6.6,-0.15,143
6.6,0.0,151
6.6,0.15,128
6.6,0.3,130
6.6,0.45,117
6.6,0.6,119
6.6,0.75,87
6.6,0.9,93
6.6,1.05,98
6.6,1.2,114
6.6,1.35,120
6.6,1.5,125
6.75,-1.5,134
6.75,-1.35,134
6.75,-1.2,75
6.75,-1.05,83
6.75,-0.9,128
6.75,-0.75,139
6.75,-0.6,165
6.75,-0.45,147
6.75,-0.3,108
6.75,-0.15,131
6.75,0.0,144
6.75,0.15,169
6.75,0.3,134
6.75,0.45,125
6.75,0.6,39
6.75,0.75,0
6.75,0.9,82
6.75,1.05,90
6.75,1.2,92
6.75,1.35,90
6.75,1.5,88
6.9,-1.5,122
6.9,-1.35,125
6.9,-1.2,66
6.9,-1.05,79
6.9,-0.9,144
6.9,-0.75,141
6.9,-0.6,156
6.9,-0.45,139
6.9,-0.3,136
6.9,-0.15,137
6.9,0.0,177
6.9,0.15,103
6.9,0.3,123
6.9,0.45,121
6.9,0.6,8
6.9,0.75,0
6.9,0.9,75
6.9,1.05,82
6.9,1.2,89
6.9,1.35,88
6.9,1.5,87
7.05,-1.5,106
7.05,-1.35,113
7.05,-1.2,67
7.05,-1.05,80
7.05,-0.9,167
7.05,-0.75,149
7.05,-0.6,137
7.05,-0.45,129
7.05,-0.3,126
7.05,-0.15,129
7.05,0.0,147
7.05,0.15,67
7.05,0.3,140
7.05,0.45,88
7.05,0.6,36
7.05,0.75,16
7.05,0.9,75
7.05,1.05,75
7.05,1.2,86
7.05,1.35,85
7.05,1.5,86
7.2,-1.5,99
7.2,-1.35,107
7.2,-1.2,77
7.2,-1.05,87
7.2,-0.9,154
7.2,-0.75,149
7.2,-0.6,159
7.2,-0.45,133
7.2,-0.3,131
7.2,-0.15,126
7.2,0.0,130
7.2,0.15,112
7.2,0.3,46
7.2,0.45,71
7.2,0.6,29
7.2,0.75,0
7.2,0.9,78
7.2,1.05,76
7.2,1.2,76
7.2,1.35,71
7.2,1.5,66
7.35,-1.5,88
7.35,-1.35,99
7.35,-1.2,100
7.35,-1.05,108
7.35,-0.9,125
7.35,-0.75,123
7.35,-0.6,136
7.35,-0.45,130
7.35,-0.3,136
7.35,-0.15,150
7.35,0.0,114
7.35,0.15,132
7.35,0.3,112
7.35,0.45,146
7.35,0.6,48
7.35,0.75,0
7.35,0.9,80
7.35,1.05,77
7.35,1.2,62
7.35,1.35,47
7.35,1.5,32
7.5,-1.5,97
7.5,-1.35,105
7.5,-1.2,104
7.5,-1.05,109
7.5,-0.9,119
7.5,-0.75,120
7.5,-0.6,130
7.5,-0.45,130
7.5,-0.3,130
7.5,-0.15,136
7.5,0.0,151
7.5,0.15,140
7.5,0.3,146
7.5,0.45,146
7.5,0.6,87
7.5,0.75,29
7.5,0.9,95
7.5,1.05,90
7.5,1.2,77
7.5,1.35,65
7.5,1.5,53
7.65,-1.5,111
7.65,-1.35,114
7.65,-1.2,115
7.65,-1.05,124
7.65,-0.9,143
7.65,-0.75,153
7.65,-0.6,151
7.65,-0.45,148
7.65,-0.3,133
7.65,-0.15,132
7.65,0.0,129
7.65,0.15,149
7.65,0.3,140
7.65,0.45,132
7.65,0.6,116
7.65,0.75,88
7.65,0.9,110
7.65,1.05,109
7.65,1.2,112
7.65,1.35,109
7.65,1.5,106
7.8,-1.5,120
7.8,-1.35,121
7.8,-1.2,127
7.8,-1.05,137
7.8,-0.9,148
7.8,-0.75,135
7.8,-0.6,136
7.8,-0.45,130
7.8,-0.3,130
7.8,-0.15,134
7.8,0.0,130
7.8,0.15,123
7.8,0.3,120
7.8,0.45,130
7.8,0.6,124
7.8,0.75,110
7.8,0.9,116
7.8,1.05,118
7.8,1.2,125
7.8,1.35,123
7.8,1.5,120
7.95,-1.5,156
7.95,-1.35,150
7.95,-1.2,148
7.95,-1.05,143
7.95,-0.9,133
7.95,-0.75,131
7.95,-0.6,136
7.95,-0.45,129
7.95,-0.3,129
7.95,-0.15,134
7.95,0.0,131
7.95,0.15,149
7.95,0.3,128
7.95,0.45,128
7.95,0.6,120
7.95,0.75,126
7.95,0.9,139
7.95,1.05,139
7.95,1.2,128
7.95,1.35,124
7.95,1.5,120
8.1,-1.5,141
8.1,-1.35,141
8.1,-1.2,143
8.1,-1.05,136
8.1,-0.9,126
8.1,-0.75,126
8.1,-0.6,129
8.1,-0.45,136
8.1,-0.3,130
8.1,-0.15,134
8.1,0.0,130
8.1,0.15,130
8.1,0.3,166
8.1,0.45,149
8.1,0.6,136
8.1,0.75,140
8.1,0.9,150
8.1,1.05,146
8.1,1.2,132
8.1,1.35,126
8.1,1.5,121
8.25,-1.5,36
8.25,-1.35,55
8.25,-1.2,76
8.25,-1.05,103
8.25,-0.9,133
8.25,-0.75,128
8.25,-0.6,132
8.25,-0.45,119
8.25,-0.3,133
8.25,-0.15,133
8.25,0.0,134
8.25,0.15,137
8.25,0.3,136
8.25,0.45,154
8.25,0.6,157
8.25,0.75,148
8.25,0.9,150
8.25,1.05,143
8.25,1.2,136
8.25,1.35,131
8.25,1.5,125
8.4,-1.5,0
8.4,-1.35,21
8.4,-1.2,44
8.4,-1.05,87
8.4,-0.9,135
8.4,-0.75,142
8.4,-0.6,128
8.4,-0.45,135
8.4,-0.3,135
8.4,-0.15,129
8.4,0.0,129
8.4,0.15,126
8.4,0.3,117
8.4,0.45,145
8.4,0.6,162
8.4,0.75,158
8.4,0.9,145
8.4,1.05,141
8.4,1.2,143
8.4,1.35,140
8.4,1.5,136
8.55,-1.5,0
8.55,-1.35,0
8.55,-1.2,20
8.55,-1.05,67
8.55,-0.9,125
8.55,-0.75,142
8.55,-0.6,142
8.55,-0.45,142
8.55,-0.3,133
8.55,-0.15,136
8.55,0.0,130
8.55,0.15,131
8.55,0.3,129
8.55,0.45,126
8.55,0.6,149
8.55,0.75,167
8.55,0.9,136
8.55,1.05,140
8.55,1.2,166
8.55,1.35,172
8.55,1.5,178
8.7,-1.5,0
8.7,-1.35,0
8.7,-1.2,16
8.7,-1.05,57
8.7,-0.9,110
8.7,-0.75,142
8.7,-0.6,130
8.7,-0.45,142
8.7,-0.3,136
8.7,-0.15,129
8.7,0.0,133
8.7,0.15,129
8.7,0.3,135
8.7,0.45,113
8.7,0.6,122
8.7,0.75,139
8.7,0.9,133
8.7,1.05,142
8.7,1.2,169
8.7,1.35,178
8.7,1.5,186
8.85,-1.5,0
8.85,-1.35,1
8.85,-1.2,13
8.85,-1.05,59
8.85,-0.9,116
8.85,-0.75,142
8.85,-0.6,130
8.85,-0.45,130
8.85,-0.3,132
8.85,-0.15,125
8.85,0.0,130
8.85,0.15,141
8.85,0.3,153
8.85,0.45,121
8.85,0.6,105
8.85,0.75,112
8.85,0.9,151
8.85,1.05,165
8.85,1.2,165
8.85,1.35,174
8.85,1.5,181
9.0,-1.5,0
9.0,-1.35,19
9.0,-1.2,40
9.0,-1.05,94
9.0,-0.9,151
9.0,-0.75,151
9.0,-0.6,147
9.0,-0.45,128
9.0,-0.3,126
9.0,-0.15,114
9.0,0.0,125
9.0,0.15,125
9.0,0.3,136
9.0,0.45,119
9.0,0.6,102
9.0,0.75,111
9.0,0.9,158
9.0,1.05,172
9.0,1.2,167
9.0,1.35,176
9.0,1.5,181
9.15,-1.5,25
9.15,-1.35,51
9.15,-1.2,78
9.15,-1.05,123
9.15,-0.9,165
9.15,-0.75,149
9.15,-0.6,128
9.15,-0.45,103
9.15,-0.3,108
9.15,-0.15,118
9.15,0.0,146
9.15,0.15,135
9.15,0.3,126
9.15,0.45,112
9.15,0.6,102
9.15,0.75,117
9.15,0.9,167
9.15,1.05,176
9.15,1.2,167
9.15,1.35,167
9.15,1.5,173
9.3,-1.5,64
9.3,-1.35,85
9.3,-1.2,100
9.3,-1.05,124
9.3,-0.9,144
9.3,-0.75,137
9.3,-0.6,144
9.3,-0.45,130
9.3,-0.3,124
9.3,-0.15,140
9.3,0.0,126
9.3,0.15,134
9.3,0.3,134
9.3,0.45,129
9.3,0.6,126
9.3,0.75,135
9.3,0.9,171
9.3,1.05,179
9.3,1.2,168
9.3,1.35,172
9.3,1.5,176
9.45,-1.5,126
9.45,-1.35,125
9.45,-1.2,129
9.45,-1.05,134
9.45,-0.9,126
9.45,-0.75,113
9.45,-0.6,123
9.45,-0.45,129
9.45,-0.3,136
9.45,-0.15,109
9.45,0.0,111
9.45,0.15,130
9.45,0.3,131
9.45,0.45,142
9.45,0.6,151
9.45,0.75,157
9.45,0.9,163
9.45,1.05,172
9.45,1.2,191
9.45,1.35,197
9.45,1.5,203
9.6,-1.5,139
9.6,-1.35,136
9.6,-1.2,137
9.6,-1.05,139
9.6,-0.9,126
9.6,-0.75,123
9.6,-0.6,136
9.6,-0.45,146
9.6,-0.3,134
9.6,-0.15,122
9.6,0.0,145
9.6,0.15,132
9.6,0.3,131
9.6,0.45,147
9.6,0.6,162
9.6,0.75,169
9.6,0.9,168
9.6,1.05,175
9.6,1.2,195
9.6,1.35,201
9.6,1.5,206
9.75,-1.5,157
9.75,-1.35,153
9.75,-1.2,140
9.75,-1.05,135
9.75,-0.9,131
9.75,-0.75,129
9.75,-0.6,134
9.75,-0.45,130
9.75,-0.3,132
9.75,-0.15,124
9.75,0.0,133
9.75,0.15,129
9.75,0.3,132
9.75,0.45,143
9.75,0.6,155
9.75,0.75,165
9.75,0.9,174
9.75,1.05,177
9.75,1.2,181
9.75,1.35,181
9.75,1.5,180
9.9,-1.5,163
9.9,-1.35,157
9.9,-1.2,134
9.9,-1.05,123
9.9,-0.9,128
9.9,-0.75,128
9.9,-0.6,142
9.9,-0.45,122
9.9,-0.3,120
9.9,-0.15,110
9.9,0.0,129
9.9,0.15,130
9.9,0.3,133
9.9,0.45,139
9.9,0.6,148
9.9,0.75,160
9.9,0.9,172
9.9,1.05,177
9.9,1.2,179
9.9,1.35,179
9.9,1.5,179
10.05,-1.5,125
10.05,-1.35,125
10.05,-1.2,120
10.05,-1.05,113
10.05,-0.9,133
10.05,-0.75,134
10.05,-0.6,149
10.05,-0.45,152
10.05,-0.3,92
10.05,-0.15,107
10.05,0.0,131
10.05,0.15,137
10.05,0.3,130
10.05,0.45,132
10.05,0.6,145
10.05,0.75,156
10.05,0.9,170
10.05,1.05,177
10.05,1.2,178
10.05,1.35,180
10.05,1.5,180
10.2,-1.5,98
10.2,-1.35,99
10.2,-1.2,113
10.2,-1.05,117
10.2,-0.9,142
10.2,-0.75,144
10.2,-0.6,137
10.2,-0.45,120
10.2,-0.3,142
10.2,-0.15,138
10.2,0.0,136
10.2,0.15,145
10.2,0.3,133
10.2,0.45,130
10.2,0.6,138
10.2,0.75,148
10.2,0.9,164
10.2,1.05,173
10.2,1.2,176
10.2,1.35,180
10.2,1.5,182
10.35,-1.5,73
10.35,-1.35,74
10.35,-1.2,86
10.35,-1.05,104
10.35,-0.9,129
10.35,-0.75,141
10.35,-0.6,138
10.35,-0.45,134
10.35,-0.3,121
10.35,-0.15,133
10.35,0.0,139
10.35,0.15,151
10.35,0.3,147
10.35,0.45,132
10.35,0.6,130
10.35,0.75,135
10.35,0.9,140
10.35,1.05,154
10.35,1.2,177
10.35,1.35,185
10.35,1.5,192
10.5,-1.5,62
10.5,-1.35,65
10.5,-1.2,74
10.5,-1.05,93
10.5,-0.9,115
10.5,-0.75,134
10.5,-0.6,132
10.5,-0.45,139
10.5,-0.3,139
10.5,-0.15,139
10.5,0.0,136
10.5,0.15,139
10.5,0.3,141
10.5,0.45,127
10.5,0.6,120
10.5,0.75,121
10.5,0.9,120
10.5,1.05,138
10.5,1.2,172
10.5,1.35,181
10.5,1.5,190
10.65,-1.5,53
10.65,-1.35,61
10.65,-1.2,66
10.65,-1.05,85
10.65,-0.9,120
10.65,-0.75,152
10.65,-0.6,136
10.65,-0.45,132
10.65,-0.3,138
10.65,-0.15,132
10.65,0.0,138
10.65,0.15,133
10.65,0.3,119
10.65,0.45,109
10.65,0.6,112
10.65,0.75,113
10.65,0.9,110
10.65,1.05,130
10.65,1.2,161
10.65,1.35,168
10.65,1.5,174
10.8,-1.5,53
10.8,-1.35,62
10.8,-1.2,67
10.8,-1.05,86
10.8,-0.9,119
10.8,-0.75,137
10.8,-0.6,132
10.8,-0.45,137
10.8,-0.3,132
10.8,-0.15,133
10.8,0.0,139
10.8,0.15,138
10.8,0.3,110
10.8,0.45,96
10.8,0.6,103
10.8,0.75,105
10.8,0.9,101
10.8,1.05,121
10.8,1.2,151
10.8,1.35,157
10.8,1.5,162
10.95,-1.5,42
10.95,-1.35,56
10.95,-1.2,62
10.95,-1.05,86
10.95,-0.9,117
10.95,-0.75,142
10.95,-0.6,145
10.95,-0.45,150
10.95,-0.3,132
10.95,-0.15,139
10.95,0.0,139
10.95,0.15,135
10.95,0.3,115
10.95,0.45,98
10.95,0.6,96
10.95,0.75,96
10.95,0.9,99
10.95,1.05,107
10.95,1.2,115
10.95,1.35,120
10.95,1.5,124
11.1,-1.5,50
11.1,-1.35,65
11.1,-1.2,64
11.1,-1.05,85
11.1,-0.9,116
11.1,-0.75,134
11.1,-0.6,128
11.1,-0.45,140
11.1,-0.3,132
11.1,-0.15,139
11.1,0.0,139
11.1,0.15,136
11.1,0.3,125
11.1,0.45,110
11.1,0.6,95
11.1,0.75,91
11.1,0.9,97
11.1,1.05,97
11.1,1.2,93
11.1,1.35,97
11.1,1.5,101
11.25,-1.5,135
11.25,-1.35,128
11.25,-1.2,79
11.25,-1.05,83
11.25,-0.9,131
11.25,-0.75,138
11.25,-0.6,128
11.25,-0.45,145
11.25,-0.3,149
11.25,-0.15,118
11.25,0.0,118
11.25,0.15,128
11.25,0.3,135
11.25,0.45,129
11.25,0.6,110
11.25,0.75,98
11.25,0.9,86
11.25,1.05,88
11.25,1.2,98
11.25,1.35,101
11.25,1.5,101
11.4,-1.5,187
11.4,-1.35,169
11.4,-1.2,89
11.4,-1.05,79
11.4,-0.9,136
11.4,-0.75,146
11.4,-0.6,131
11.4,-0.45,128
11.4,-0.3,124
11.4,-0.15,106
11.4,0.0,106
11.4,0.15,122
11.4,0.3,135
11.4,0.45,138
11.4,0.6,130
11.4,0.75,113
11.4,0.9,80
11.4,1.05,82
11.4,1.2,98
11.4,1.35,101
11.4,1.5,101
11.55,-1.5,219
11.55,-1.35,201
11.55,-1.2,155
11.55,-1.05,133
11.55,-0.9,124
11.55,-0.75,133
11.55,-0.6,149
11.55,-0.45,150
11.55,-0.3,139
11.55,-0.15,126
11.55,0.0,112
11.55,0.15,124
11.55,0.3,135
11.55,0.45,152
11.55,0.6,143
11.55,0.75,124
11.55,0.9,80
11.55,1.05,74
11.55,1.2,75
11.55,1.35,70
11.55,1.5,66
11.7,-1.5,240
11.7,-1.35,226
11.7,-1.2,207
11.7,-1.05,181
11.7,-0.9,124
11.7,-0.75,124
11.7,-0.6,143
11.7,-0.45,163
11.7,-0.3,155
11.7,-0.15,134
11.7,0.0,112
11.7,0.15,118
11.7,0.3,143
11.7,0.45,164
11.7,0.6,145
11.7,0.75,125
11.7,0.9,87
11.7,1.05,77
11.7,1.2,68
11.7,1.35,59
11.7,1.5,49
11.85,-1.5,240
11.85,-1.35,233
11.85,-1.2,227
11.85,-1.05,204
11.85,-0.9,153
11.85,-0.75,129
11.85,-0.6,129
11.85,-0.45,152
11.85,-0.3,147
11.85,-0.15,133
11.85,0.0,126
11.85,0.15,135
11.85,0.3,145
11.85,0.45,152
11.85,0.6,154
11.85,0.75,149
11.85,0.9,130
11.85,1.05,115
11.85,1.2,92
11.85,1.35,87
11.85,1.5,82
12.0,-1.5,240
12.0,-1.35,240
12.0,-1.2,246
12.0,-1.05,230
12.0,-0.9,194
12.0,-0.75,158
12.0,-0.6,129
12.0,-0.45,129
12.0,-0.3,133
12.0,-0.15,142
12.0,0.0,162
12.0,0.15,174
12.0,0.3,142
12.0,0.45,137
12.0,0.6,154
12.0,0.75,154
12.0,0.9,152
12.0,1.05,136
12.0,1.2,110
12.0,1.35,108
12.0,1.5,106
12.15,-1.5,225
12.15,-1.35,227
12.15,-1.2,240
12.15,-1.05,234
12.15,-0.9,213
12.15,-0.75,188
12.15,-0.6,154
12.15,-0.45,141
12.15,-0.3,134
12.15,-0.15,168
12.15,0.0,178
12.15,0.15,171
12.15,0.3,142
12.15,0.45,135
12.15,0.6,143
12.15,0.75,148
12.15,0.9,154
12.15,1.05,149
12.15,1.2,136
12.15,1.35,136
12.15,1.5,137
12.3,-1.5,199
12.3,-1.35,208
12.3,-1.2,227
12.3,-1.05,227
12.3,-0.9,214
12.3,-0.75,189
12.3,-0.6,158
12.3,-0.45,143
12.3,-0.3,147
12.3,-0.15,183
12.3,0.0,174
12.3,0.15,151
12.3,0.3,139
12.3,0.45,135
12.3,0.6,136
12.3,0.75,140
12.3,0.9,152
12.3,1.05,151
12.3,1.2,147
12.3,1.35,147
12.3,1.5,147
12.45,-1.5,187
12.45,-1.35,197
12.45,-1.2,210
12.45,-1.05,210
12.45,-0.9,181
12.45,-0.75,157
12.45,-0.6,139
12.45,-0.45,133
12.45,-0.3,153
12.45,-0.15,174
12.45,0.0,164
12.45,0.15,146
12.45,0.3,136
12.45,0.45,132
12.45,0.6,133
12.45,0.75,135
12.45,0.9,139
12.45,1.05,143
12.45,1.2,147
12.45,1.35,147
12.45,1.5,147
12.6,-1.5,173
12.6,-1.35,183
12.6,-1.2,188
12.6,-1.05,186
12.6,-0.9,159
12.6,-0.75,143
12.6,-0.6,130
12.6,-0.45,129
12.6,-0.3,145
12.6,-0.15,156
12.6,0.0,145
12.6,0.15,133
12.6,0.3,131
12.6,0.45,130
12.6,0.6,131
12.6,0.75,132
12.6,0.9,133
12.6,1.05,137
12.6,1.2,143
12.6,1.35,145
12.6,1.5,147
12.75,-1.5,155
12.75,-1.35,165
12.75,-1.2,162
12.75,-1.05,158
12.75,-0.9,150
12.75,-0.75,143
12.75,-0.6,133
12.75,-0.45,129
12.75,-0.3,135
12.75,-0.15,140
12.75,0.0,135
12.75,0.15,128
12.75,0.3,128
12.75,0.45,128
12.75,0.6,129
12.75,0.75,129
12.75,0.9,130
12.75,1.05,132
12.75,1.2,134
12.75,1.35,136
12.75,1.5,137
12.9,-1.5,139
12.9,-1.35,147
12.9,-1.2,147
12.9,-1.05,145
12.9,-0.9,148
12.9,-0.75,146
12.9,-0.6,135
12.9,-0.45,129
12.9,-0.3,129
12.9,-0.15,130
12.9,0.0,128
12.9,0.15,128
12.9,0.3,129
12.9,0.45,129
12.9,0.6,127
12.9,0.75,127
12.9,0.9,127
12.9,1.05,128
12.9,1.2,129
12.9,1.35,130
12.9,1.5,132
13.05,-1.5,125
13.05,-1.35,133
13.05,-1.2,138
13.05,-1.05,140
13.05,-0.9,147
13.05,-0.75,148
13.05,-0.6,142
13.05,-0.45,135
13.05,-0.3,130
13.05,-0.15,128
13.05,0.0,128
13.05,0.15,128
13.05,0.3,129
13.05,0.45,129
13.05,0.6,123
13.05,0.75,123
13.05,0.9,123
13.05,1.05,124
13.05,1.2,125
13.05,1.35,127
13.05,1.5,128
