-3.0,-1.5,94
-3.0,-1.35,94
-3.0,-1.2,94
-3.0,-1.05,95
-3.0,-0.9,96
-3.0,-0.75,97
-3.0,-0.6,99
-3.0,-0.45,101
-3.0,-0.3,103
-3.0,-0.15,105
-3.0,0.0,106
-3.0,0.15,105
-3.0,0.3,103
-3.0,0.45,101
-3.0,0.6,98
-3.0,0.75,96
-3.0,0.9,94
-3.0,1.05,94
-3.0,1.2,93
-3.0,1.35,93
-3.0,1.5,93
-2.85,-1.5,93
-2.85,-1.35,93
-2.85,-1.2,94
-2.85,-1.05,94
-2.85,-0.9,95
-2.85,-0.75,96
-2.85,-0.6,98
-2.85,-0.45,100
-2.85,-0.3,103
-2.85,-0.15,105
-2.85,0.0,106
-2.85,0.15,106
-2.85,0.3,103
-2.85,0.45,100
-2.85,0.6,98
-2.85,0.75,95
-2.85,0.9,94
-2.85,1.05,93
-2.85,1.2,92
-2.85,1.35,92
-2.85,1.5,92
-2.7,-1.5,93
-2.7,-1.35,93
-2.7,-1.2,93
-2.7,-1.05,93
-2.7,-0.9,94
-2.7,-0.75,95
-2.7,-0.6,97
-2.7,-0.45,99
-2.7,-0.3,103
-2.7,-0.15,105
-2.7,0.0,107
-2.7,0.15,106
-2.7,0.3,103
-2.7,0.45,99
-2.7,0.6,96
-2.7,0.75,94
-2.7,0.9,93
-2.7,1.05,92
-2.7,1.2,91
-2.7,1.35,91
-2.7,1.5,91
-2.55,-1.5,93
-2.55,-1.35,92
-2.55,-1.2,92
-2.55,-1.05,92
-2.55,-0.9,93
-2.55,-0.75,94
-2.55,-0.6,96
-2.55,-0.45,98
-2.55,-0.3,102
-2.55,-0.15,105
-2.55,0.0,107
-2.55,0.15,105
-2.55,0.3,101
-2.55,0.45,97
-2.55,0.6,94
-2.55,0.75,92
-2.55,0.9,91
-2.55,1.05,90
-2.55,1.2,90
-2.55,1.35,90
-2.55,1.5,91
-2.4,-1.5,92
-2.4,-1.35,92
-2.4,-1.2,92
-2.4,-1.05,92
-2.4,-0.9,92
-2.4,-0.75,93
-2.4,-0.6,95
-2.4,-0.45,97
-2.4,-0.3,100
-2.4,-0.15,104
-2.4,0.0,106
-2.4,0.15,103
-2.4,0.3,98
-2.4,0.45,94
-2.4,0.6,92
-2.4,0.75,90
-2.4,0.9,90
-2.4,1.05,90
-2.4,1.2,90
-2.4,1.35,90
-2.4,1.5,91
-2.25,-1.5,92
-2.25,-1.35,92
-2.25,-1.2,92
-2.25,-1.05,92
-2.25,-0.9,92
-2.25,-0.75,92
-2.25,-0.6,93
-2.25,-0.45,96
-2.25,-0.3,98
-2.25,-0.15,101
-2.25,0.0,102
-2.25,0.15,98
-2.25,0.3,93
-2.25,0.45,90
-2.25,0.6,90
-2.25,0.75,90
-2.25,0.9,90
-2.25,1.05,90
-2.25,1.2,90
-2.25,1.35,90
-2.25,1.5,90
-2.1,-1.5,92
-2.1,-1.35,92
-2.1,-1.2,92
-2.1,-1.05,91
-2.1,-0.9,92
-2.1,-0.75,92
-2.1,-0.6,93
-2.1,-0.45,95
-2.1,-0.3,97
-2.1,-0.15,99
-2.1,0.0,97
-2.1,0.15,92
-2.1,0.3,90
-2.1,0.45,90
-2.1,0.6,90
-2.1,0.75,90
-2.1,0.9,90
-2.1,1.05,90
-2.1,1.2,90
-2.1,1.35,90
-2.1,1.5,90
-1.95,-1.5,92
-1.95,-1.35,92
-1.95,-1.2,91
-1.95,-1.05,91
-1.95,-0.9,92
-1.95,-0.75,92
-1.95,-0.6,92
-1.95,-0.45,93
-1.95,-0.3,95
-1.95,-0.15,96
-1.95,0.0,94
-1.95,0.15,91
-1.95,0.3,90
-1.95,0.45,90
-1.95,0.6,90
-1.95,0.75,90
-1.95,0.9,90
-1.95,1.05,90
-1.95,1.2,90
-1.95,1.35,90
-1.95,1.5,90
-1.8,-1.5,91
-1.8,-1.35,91
-1.8,-1.2,91
-1.8,-1.05,91
-1.8,-0.9,92
-1.8,-0.75,93
-1.8,-0.6,92
-1.8,-0.45,92
-1.8,-0.3,92
-1.8,-0.15,93
-1.8,0.0,94
-1.8,0.15,94
-1.8,0.3,93
-1.8,0.45,93
-1.8,0.6,93
-1.8,0.75,92
-1.8,0.9,90
-1.8,1.05,90
-1.8,1.2,90
-1.8,1.35,90
-1.8,1.5,90
-1.65,-1.5,90
-1.65,-1.35,91
-1.65,-1.2,91
-1.65,-1.05,91
-1.65,-0.9,93
-1.65,-0.75,94
-1.65,-0.6,93
-1.65,-0.45,92
-1.65,-0.3,92
-1.65,-0.15,93
-1.65,0.0,96
-1.65,0.15,96
-1.65,0.3,96
-1.65,0.45,96
-1.65,0.6,94
-1.65,0.75,92
-1.65,0.9,90
-1.65,1.05,90
-1.65,1.2,90
-1.65,1.35,90
-1.65,1.5,90
-1.5,-1.5,90
-1.5,-1.35,91
-1.5,-1.2,92
-1.5,-1.05,94
-1.5,-0.9,94
-1.5,-0.75,95
-1.5,-0.6,94
-1.5,-0.45,94
-1.5,-0.3,93
-1.5,-0.15,94
-1.5,0.0,96
-1.5,0.15,96
-1.5,0.3,96
-1.5,0.45,96
-1.5,0.6,93
-1.5,0.75,92
-1.5,0.9,90
-1.5,1.05,90
-1.5,1.2,90
-1.5,1.35,90
-1.5,1.5,90
-1.35,-1.5,90
-1.35,-1.35,91
-1.35,-1.2,94
-1.35,-1.05,96
-1.35,-0.9,96
-1.35,-0.75,96
-1.35,-0.6,96
-1.35,-0.45,96
-1.35,-0.3,96
-1.35,-0.15,96
-1.35,0.0,96
-1.35,0.15,96
-1.35,0.3,96
-1.35,0.45,95
-1.35,0.6,94
-1.35,0.75,93
-1.35,0.9,93
-1.35,1.05,92
-1.35,1.2,90
-1.35,1.35,90
-1.35,1.5,90
-1.2,-1.5,90
-1.2,-1.35,92
-1.2,-1.2,95
-1.2,-1.05,96
-1.2,-0.9,96
-1.2,-0.75,96
-1.2,-0.6,96
-1.2,-0.45,96
-1.2,-0.3,96
-1.2,-0.15,96
-1.2,0.0,95
-1.2,0.15,95
-1.2,0.3,95
-1.2,0.45,95
-1.2,0.6,95
-1.2,0.75,94
-1.2,0.9,94
-1.2,1.05,93
-1.2,1.2,92
-1.2,1.35,90
-1.2,1.5,90
-1.05,-1.5,90
-1.05,-1.35,92
-1.05,-1.2,94
-1.05,-1.05,96
-1.05,-0.9,96
-1.05,-0.75,96
-1.05,-0.6,96
-1.05,-0.45,96
-1.05,-0.3,96
-1.05,-0.15,95
-1.05,0.0,95
-1.05,0.15,95
-1.05,0.3,96
-1.05,0.45,96
-1.05,0.6,96
-1.05,0.75,95
-1.05,0.9,94
-1.05,1.05,94
-1.05,1.2,93
-1.05,1.35,91
-1.05,1.5,90
-0.9,-1.5,90
-0.9,-1.35,92
-0.9,-1.2,93
-0.9,-1.05,95
-0.9,-0.9,96
-0.9,-0.75,96
-0.9,-0.6,96
-0.9,-0.45,96
-0.9,-0.3,96
-0.9,-0.15,95
-0.9,0.0,95
-0.9,0.15,96
-0.9,0.3,96
-0.9,0.45,96
-0.9,0.6,96
-0.9,0.75,96
-0.9,0.9,95
-0.9,1.05,94
-0.9,1.2,93
-0.9,1.35,91
-0.9,1.5,90
-0.75,-1.5,90
-0.75,-1.35,91
-0.75,-1.2,92
-0.75,-1.05,94
-0.75,-0.9,95
-0.75,-0.75,96
-0.75,-0.6,96
-0.75,-0.45,96
-0.75,-0.3,95
-0.75,-0.15,95
-0.75,0.0,95
-0.75,0.15,96
-0.75,0.3,96
-0.75,0.45,96
-0.75,0.6,96
-0.75,0.75,96
-0.75,0.9,96
-0.75,1.05,94
-0.75,1.2,92
-0.75,1.35,90
-0.75,1.5,88
-0.6,-1.5,89
-0.6,-1.35,90
-0.6,-1.2,91
-0.6,-1.05,93
-0.6,-0.9,93
-0.6,-0.75,94
-0.6,-0.6,95
-0.6,-0.45,96
-0.6,-0.3,95
-0.6,-0.15,95
-0.6,0.0,95
-0.6,0.15,95
-0.6,0.3,96
-0.6,0.45,96
-0.6,0.6,96
-0.6,0.75,96
-0.6,0.9,96
-0.6,1.05,93
-0.6,1.2,87
-0.6,1.35,83
-0.6,1.5,79
-0.45,-1.5,88
-0.45,-1.35,88
-0.45,-1.2,90
-0.45,-1.05,92
-0.45,-0.9,93
-0.45,-0.75,95
-0.45,-0.6,96
-0.45,-0.45,96
-0.45,-0.3,96
-0.45,-0.15,96
-0.45,0.0,95
-0.45,0.15,95
-0.45,0.3,96
-0.45,0.45,96
-0.45,0.6,96
-0.45,0.75,96
-0.45,0.9,96
-0.45,1.05,92
-0.45,1.2,84
-0.45,1.35,79
-0.45,1.5,75
-0.3,-1.5,86
-0.3,-1.35,87
-0.3,-1.2,89
-0.3,-1.05,89
-0.3,-0.9,93
-0.3,-0.75,96
-0.3,-0.6,96
-0.3,-0.45,96
-0.3,-0.3,96
-0.3,-0.15,96
-0.3,0.0,96
-0.3,0.15,96
-0.3,0.3,96
-0.3,0.45,96
-0.3,0.6,96
-0.3,0.75,96
-0.3,0.9,93
-0.3,1.05,86
-0.3,1.2,75
-0.3,1.35,70
-0.3,1.5,66
-0.15,-1.5,86
-0.15,-1.35,86
-0.15,-1.2,88
-0.15,-1.05,89
-0.15,-0.9,92
-0.15,-0.75,94
-0.15,-0.6,96
-0.15,-0.45,96
-0.15,-0.3,96
-0.15,-0.15,96
-0.15,0.0,96
-0.15,0.15,95
-0.15,0.3,95
-0.15,0.45,96
-0.15,0.6,96
-0.15,0.75,95
-0.15,0.9,87
-0.15,1.05,81
-0.15,1.2,73
-0.15,1.35,70
-0.15,1.5,67
0.0,-1.5,86
0.0,-1.35,86
0.0,-1.2,88
0.0,-1.05,91
0.0,-0.9,91
0.0,-0.75,92
0.0,-0.6,95
0.0,-0.45,96
0.0,-0.3,96
0.0,-0.15,96
0.0,0.0,93
0.0,0.15,89
0.0,0.3,89
0.0,0.45,88
0.0,0.6,90
0.0,0.75,84
0.0,0.9,70
0.0,1.05,74
0.0,1.2,87
0.0,1.35,88
0.0,1.5,89
0.15,-1.5,86
0.15,-1.35,86
0.15,-1.2,86
0.15,-1.05,89
0.15,-0.9,92
0.15,-0.75,94
0.15,-0.6,96
0.15,-0.45,96
0.15,-0.3,96
0.15,-0.15,96
0.15,0.0,96
0.15,0.15,89
0.15,0.3,83
0.15,0.45,78
0.15,0.6,75
0.15,0.75,69
0.15,0.9,60
0.15,1.05,68
0.15,1.2,84
0.15,1.35,87
0.15,1.5,90
0.3,-1.5,86
0.3,-1.35,86
0.3,-1.2,86
0.3,-1.05,87
0.3,-0.9,93
0.3,-0.75,97
0.3,-0.6,99
0.3,-0.45,96
0.3,-0.3,95
0.3,-0.15,96
0.3,0.0,96
0.3,0.15,89
0.3,0.3,82
0.3,0.45,73
0.3,0.6,42
0.3,0.75,42
0.3,0.9,63
0.3,1.05,68
0.3,1.2,73
0.3,1.35,77
0.3,1.5,81
0.45,-1.5,86
0.45,-1.35,86
0.45,-1.2,86
0.45,-1.05,88
0.45,-0.9,94
0.45,-0.75,98
0.45,-0.6,102
0.45,-0.45,99
0.45,-0.3,93
0.45,-0.15,96
0.45,0.0,96
0.45,0.15,84
0.45,0.3,77
0.45,0.45,66
0.45,0.6,37
0.45,0.75,39
0.45,0.9,63
0.45,1.05,70
0.45,1.2,77
0.45,1.35,80
0.45,1.5,83
0.6,-1.5,86
0.6,-1.35,86
0.6,-1.2,88
0.6,-1.05,91
0.6,-0.9,94
0.6,-0.75,100
0.6,-0.6,100
0.6,-0.45,99
0.6,-0.3,93
0.6,-0.15,96
0.6,0.0,95
0.6,0.15,81
0.6,0.3,65
0.6,0.45,49
0.6,0.6,54
0.6,0.75,57
0.6,0.9,61
0.6,1.05,74
0.6,1.2,90
0.6,1.35,91
0.6,1.5,92
0.75,-1.5,86
0.75,-1.35,87
0.75,-1.2,90
0.75,-1.05,92
0.75,-0.9,94
0.75,-0.75,98
0.75,-0.6,95
0.75,-0.45,95
0.75,-0.3,92
0.75,-0.15,92
0.75,0.0,92
0.75,0.15,90
0.75,0.3,78
0.75,0.45,60
0.75,0.6,66
0.75,0.75,68
0.75,0.9,70
0.75,1.05,79
0.75,1.2,93
0.75,1.35,94
0.75,1.5,96
0.9,-1.5,86
0.9,-1.35,87
0.9,-1.2,91
0.9,-1.05,94
0.9,-0.9,98
0.9,-0.75,97
0.9,-0.6,94
0.9,-0.45,95
0.9,-0.3,95
0.9,-0.15,95
0.9,0.0,94
0.9,0.15,94
0.9,0.3,93
0.9,0.45,84
0.9,0.6,80
0.9,0.75,78
0.9,0.9,81
0.9,1.05,86
0.9,1.2,100
0.9,1.35,104
0.9,1.5,108
1.05,-1.5,86
1.05,-1.35,88
1.05,-1.2,91
1.05,-1.05,93
1.05,-0.9,96
1.05,-0.75,94
1.05,-0.6,93
1.05,-0.45,95
1.05,-0.3,95
1.05,-0.15,94
1.05,0.0,94
1.05,0.15,91
1.05,0.3,91
1.05,0.45,98
1.05,0.6,98
1.05,0.75,95
1.05,0.9,93
1.05,1.05,94
1.05,1.2,104
1.05,1.35,109
1.05,1.5,114
1.2,-1.5,81
1.2,-1.35,85
1.2,-1.2,91
1.2,-1.05,92
1.2,-0.9,93
1.2,-0.75,93
1.2,-0.6,93
1.2,-0.45,93
1.2,-0.3,94
1.2,-0.15,94
1.2,0.0,96
1.2,0.15,96
1.2,0.3,91
1.2,0.45,98
1.2,0.6,103
1.2,0.75,100
1.2,0.9,100
1.2,1.05,102
1.2,1.2,105
1.2,1.35,109
1.2,1.5,114
1.35,-1.5,79
1.35,-1.35,84
1.35,-1.2,91
1.35,-1.05,93
1.35,-0.9,94
1.35,-0.75,93
1.35,-0.6,93
1.35,-0.45,93
1.35,-0.3,95
1.35,-0.15,96
1.35,0.0,96
1.35,0.15,96
1.35,0.3,93
1.35,0.45,95
1.35,0.6,103
1.35,0.75,104
1.35,0.9,103
1.35,1.05,105
1.35,1.2,108
1.35,1.35,111
1.35,1.5,115
1.5,-1.5,78
1.5,-1.35,82
1.5,-1.2,88
1.5,-1.05,92
1.5,-0.9,96
1.5,-0.75,96
1.5,-0.6,94
1.5,-0.45,93
1.5,-0.3,96
1.5,-0.15,96
1.5,0.0,96
1.5,0.15,96
1.5,0.3,93
1.5,0.45,96
1.5,0.6,103
1.5,0.75,107
1.5,0.9,104
1.5,1.05,103
1.5,1.2,111
1.5,1.35,114
1.5,1.5,118
1.65,-1.5,77
1.65,-1.35,81
1.65,-1.2,86
1.65,-1.05,91
1.65,-0.9,96
1.65,-0.75,97
1.65,-0.6,95
1.65,-0.45,94
1.65,-0.3,95
1.65,-0.15,96
1.65,0.0,96
1.65,0.15,94
1.65,0.3,95
1.65,0.45,100
1.65,0.6,105
1.65,0.75,108
1.65,0.9,105
1.65,1.05,104
1.65,1.2,113
1.65,1.35,116
1.65,1.5,119
1.8,-1.5,80
1.8,-1.35,83
1.8,-1.2,85
1.8,-1.05,91
1.8,-0.9,96
1.8,-0.75,99
1.8,-0.6,98
1.8,-0.45,94
1.8,-0.3,94
1.8,-0.15,96
1.8,0.0,95
1.8,0.15,94
1.8,0.3,94
1.8,0.45,98
1.8,0.6,104
1.8,0.75,107
1.8,0.9,112
1.8,1.05,113
1.8,1.2,111
1.8,1.35,111
1.8,1.5,112
1.95,-1.5,82
1.95,-1.35,84
1.95,-1.2,87
1.95,-1.05,92
1.95,-0.9,99
1.95,-0.75,106
1.95,-0.6,106
1.95,-0.45,98
1.95,-0.3,95
1.95,-0.15,96
1.95,0.0,94
1.95,0.15,94
1.95,0.3,94
1.95,0.45,94
1.95,0.6,99
1.95,0.75,103
1.95,0.9,111
1.95,1.05,113
1.95,1.2,108
1.95,1.35,108
1.95,1.5,108
2.1,-1.5,82
2.1,-1.35,86
2.1,-1.2,89
2.1,-1.05,95
2.1,-0.9,102
2.1,-0.75,108
2.1,-0.6,108
2.1,-0.45,100
2.1,-0.3,98
2.1,-0.15,94
2.1,0.0,94
2.1,0.15,95
2.1,0.3,95
2.1,0.45,94
2.1,0.6,94
2.1,0.75,98
2.1,0.9,102
2.1,1.05,107
2.1,1.2,110
2.1,1.35,110
2.1,1.5,110
2.25,-1.5,82
2.25,-1.35,87
2.25,-1.2,92
2.25,-1.05,97
2.25,-0.9,101
2.25,-0.75,102
2.25,-0.6,99
2.25,-0.45,93
2.25,-0.3,94
2.25,-0.15,94
2.25,0.0,94
2.25,0.15,95
2.25,0.3,95
2.25,0.45,94
2.25,0.6,94
2.25,0.75,95
2.25,0.9,98
2.25,1.05,103
2.25,1.2,109
2.25,1.35,110
2.25,1.5,110
2.4,-1.5,84
2.4,-1.35,88
2.4,-1.2,92
2.4,-1.05,95
2.4,-0.9,96
2.4,-0.75,93
2.4,-0.6,93
2.4,-0.45,98
2.4,-0.3,98
2.4,-0.15,98
2.4,0.0,96
2.4,0.15,95
2.4,0.3,94
2.4,0.45,94
2.4,0.6,94
2.4,0.75,94
2.4,0.9,96
2.4,1.05,101
2.4,1.2,109
2.4,1.35,110
2.4,1.5,110
2.55,-1.5,86
2.55,-1.35,89
2.55,-1.2,89
2.55,-1.05,91
2.55,-0.9,92
2.55,-0.75,92
2.55,-0.6,96
2.55,-0.45,98
2.55,-0.3,96
2.55,-0.15,95
2.55,0.0,95
2.55,0.15,96
2.55,0.3,94
2.55,0.45,95
2.55,0.6,94
2.55,0.75,94
2.55,0.9,95
2.55,1.05,100
2.55,1.2,106
2.55,1.35,109
2.55,1.5,110
2.7,-1.5,88
2.7,-1.35,89
2.7,-1.2,91
2.7,-1.05,89
2.7,-0.9,86
2.7,-0.75,87
2.7,-0.6,95
2.7,-0.45,98
2.7,-0.3,95
2.7,-0.15,96
2.7,0.0,95
2.7,0.15,95
2.7,0.3,96
2.7,0.45,96
2.7,0.6,96
2.7,0.75,94
2.7,0.9,94
2.7,1.05,95
2.7,1.2,98
2.7,1.35,99
2.7,1.5,100
2.85,-1.5,89
2.85,-1.35,89
2.85,-1.2,91
2.85,-1.05,89
2.85,-0.9,78
2.85,-0.75,81
2.85,-0.6,93
2.85,-0.45,98
2.85,-0.3,98
2.85,-0.15,94
2.85,0.0,96
2.85,0.15,95
2.85,0.3,96
2.85,0.45,96
2.85,0.6,95
2.85,0.75,93
2.85,0.9,92
2.85,1.05,92
2.85,1.2,92
2.85,1.35,92
2.85,1.5,92
3.0,-1.5,88
3.0,-1.35,89
3.0,-1.2,91
3.0,-1.05,89
3.0,-0.9,83
3.0,-0.75,84
3.0,-0.6,92
3.0,-0.45,98
3.0,-0.3,98
3.0,-0.15,95
3.0,0.0,94
3.0,0.15,95
3.0,0.3,96
3.0,0.45,93
3.0,0.6,91
3.0,0.75,88
3.0,0.9,89
3.0,1.05,88
3.0,1.2,85
3.0,1.35,84
3.0,1.5,83
3.15,-1.5,87
3.15,-1.35,89
3.15,-1.2,91
3.15,-1.05,91
3.15,-0.9,90
3.15,-0.75,88
3.15,-0.6,89
3.15,-0.45,94
3.15,-0.3,94
3.15,-0.15,94
3.15,0.0,96
3.15,0.15,96
3.15,0.3,94
3.15,0.45,93
3.15,0.6,88
3.15,0.75,86
3.15,0.9,86
3.15,1.05,85
3.15,1.2,83
3.15,1.35,81
3.15,1.5,79
3.3,-1.5,86
3.3,-1.35,89
3.3,-1.2,91
3.3,-1.05,93
3.3,-0.9,95
3.3,-0.75,95
3.3,-0.6,91
3.3,-0.45,95
3.3,-0.3,113
3.3,-0.15,94
3.3,0.0,95
3.3,0.15,94
3.3,0.3,94
3.3,0.45,95
3.3,0.6,90
3.3,0.75,87
3.3,0.9,87
3.3,1.05,86
3.3,1.2,85
3.3,1.35,85
3.3,1.5,84
3.45,-1.5,85
3.45,-1.35,87
3.45,-1.2,89
3.45,-1.05,93
3.45,-0.9,95
3.45,-0.75,95
3.45,-0.6,95
3.45,-0.45,92
3.45,-0.3,100
3.45,-0.15,94
3.45,0.0,94
3.45,0.15,94
3.45,0.3,100
3.45,0.45,96
3.45,0.6,92
3.45,0.75,90
3.45,0.9,87
3.45,1.05,86
3.45,1.2,88
3.45,1.35,88
3.45,1.5,87
3.6,-1.5,84
3.6,-1.35,87
3.6,-1.2,89
3.6,-1.05,91
3.6,-0.9,92
3.6,-0.75,93
3.6,-0.6,93
3.6,-0.45,97
3.6,-0.3,97
3.6,-0.15,94
3.6,0.0,98
3.6,0.15,102
3.6,0.3,97
3.6,0.45,92
3.6,0.6,92
3.6,0.75,92
3.6,0.9,87
3.6,1.05,87
3.6,1.2,94
3.6,1.35,95
3.6,1.5,96
3.75,-1.5,83
3.75,-1.35,87
3.75,-1.2,89
3.75,-1.05,90
3.75,-0.9,90
3.75,-0.75,91
3.75,-0.6,97
3.75,-0.45,97
3.75,-0.3,95
3.75,-0.15,94
3.75,0.0,94
3.75,0.15,94
3.75,0.3,93
3.75,0.45,89
3.75,0.6,92
3.75,0.75,93
3.75,0.9,90
3.75,1.05,90
3.75,1.2,99
3.75,1.35,101
3.75,1.5,103
3.9,-1.5,79
3.9,-1.35,84
3.9,-1.2,90
3.9,-1.05,93
3.9,-0.9,95
3.9,-0.75,94
3.9,-0.6,94
3.9,-0.45,94
3.9,-0.3,95
3.9,-0.15,94
3.9,0.0,95
3.9,0.15,95
3.9,0.3,95
3.9,0.45,91
3.9,0.6,84
3.9,0.75,84
3.9,0.9,95
3.9,1.05,95
3.9,1.2,90
3.9,1.35,87
3.9,1.5,83
4.05,-1.5,75
4.05,-1.35,81
4.05,-1.2,88
4.05,-1.05,94
4.05,-0.9,98
4.05,-0.75,98
4.05,-0.6,94
4.05,-0.45,93
4.05,-0.3,95
4.05,-0.15,105
4.05,0.0,101
4.05,0.15,95
4.05,0.3,95
4.05,0.45,94
4.05,0.6,79
4.05,0.75,78
4.05,0.9,95
4.05,1.05,95
4.05,1.2,82
4.05,1.35,75
4.05,1.5,67
4.2,-1.5,72
4.2,-1.35,75
4.2,-1.2,83
4.2,-1.05,91
4.2,-0.9,98
4.2,-0.75,98
4.2,-0.6,98
4.2,-0.45,98
4.2,-0.3,92
4.2,-0.15,94
4.2,0.0,95
4.2,0.15,94
4.2,0.3,92
4.2,0.45,92
4.2,0.6,92
4.2,0.75,93
4.2,0.9,95
4.2,1.05,89
4.2,1.2,69
4.2,1.35,60
4.2,1.5,52
4.35,-1.5,64
4.35,-1.35,63
4.35,-1.2,74
4.35,-1.05,84
4.35,-0.9,92
4.35,-0.75,93
4.35,-0.6,93
4.35,-0.45,92
4.35,-0.3,98
4.35,-0.15,106
4.35,0.0,93
4.35,0.15,93
4.35,0.3,91
4.35,0.45,85
4.35,0.6,86
4.35,0.75,91
4.35,0.9,89
4.35,1.05,75
4.35,1.2,47
4.35,1.35,35
4.35,1.5,27
4.5,-1.5,27
4.5,-1.35,31
4.5,-1.2,53
4.5,-1.05,68
4.5,-0.9,77
4.5,-0.75,85
4.5,-0.6,92
4.5,-0.45,98
4.5,-0.3,96
4.5,-0.15,94
4.5,0.0,94
4.5,0.15,94
4.5,0.3,94
4.5,0.45,82
4.5,0.6,83
4.5,0.75,80
4.5,0.9,71
4.5,1.05,53
4.5,1.2,27
4.5,1.35,16
4.5,1.5,9
4.65,-1.5,11
4.65,-1.35,20
4.65,-1.2,44
4.65,-1.05,57
4.65,-0.9,65
4.65,-0.75,84
4.65,-0.6,97
4.65,-0.45,98
4.65,-0.3,94
4.65,-0.15,98
4.65,0.0,94
4.65,0.15,94
4.65,0.3,90
4.65,0.45,94
4.65,0.6,82
4.65,0.75,58
4.65,0.9,36
4.65,1.05,20
4.65,1.2,3
4.65,1.35,3
4.65,1.5,3
4.8,-1.5,34
4.8,-1.35,42
4.8,-1.2,47
4.8,-1.05,55
4.8,-0.9,68
4.8,-0.75,93
4.8,-0.6,98
4.8,-0.45,98
4.8,-0.3,98
4.8,-0.15,98
4.8,0.0,94
4.8,0.15,104
4.8,0.3,93
4.8,0.45,88
4.8,0.6,56
4.8,0.75,27
4.8,0.9,5
4.8,1.05,1
4.8,1.2,11
4.8,1.35,14
4.8,1.5,20
4.95,-1.5,49
4.95,-1.35,59
4.95,-1.2,62
4.95,-1.05,70
4.95,-0.9,83
4.95,-0.75,94
4.95,-0.6,90
4.95,-0.45,98
4.95,-0.3,91
4.95,-0.15,94
4.95,0.0,94
4.95,0.15,94
4.95,0.3,91
4.95,0.45,56
4.95,0.6,19
4.95,0.75,0
4.95,0.9,0
4.95,1.05,0
4.95,1.2,32
4.95,1.35,47
4.95,1.5,62
5.1,-1.5,50
5.1,-1.35,65
5.1,-1.2,79
5.1,-1.05,91
5.1,-0.9,99
5.1,-0.75,100
5.1,-0.6,95
5.1,-0.45,85
5.1,-0.3,61
5.1,-0.15,109
5.1,0.0,94
5.1,0.15,97
5.1,0.3,93
5.1,0.45,43
5.1,0.6,0
5.1,0.75,0
5.1,0.9,0
5.1,1.05,0
5.1,1.2,23
5.1,1.35,35
5.1,1.5,48
5.25,-1.5,54
5.25,-1.35,70
5.25,-1.2,84
5.25,-1.05,97
5.25,-0.9,106
5.25,-0.75,106
5.25,-0.6,92
5.25,-0.45,90
5.25,-0.3,69
5.25,-0.15,96
5.25,0.0,94
5.25,0.15,97
5.25,0.3,107
5.25,0.45,64
5.25,0.6,0
5.25,0.75,0
5.25,0.9,19
5.25,1.05,26
5.25,1.2,21
5.25,1.35,29
5.25,1.5,37
5.4,-1.5,56
5.4,-1.35,72
5.4,-1.2,83
5.4,-1.05,93
5.4,-0.9,106
5.4,-0.75,106
5.4,-0.6,94
5.4,-0.45,97
5.4,-0.3,87
5.4,-0.15,96
5.4,0.0,96
5.4,0.15,102
5.4,0.3,87
5.4,0.45,78
5.4,0.6,21
5.4,0.75,0
5.4,0.9,27
5.4,1.05,27
5.4,1.2,22
5.4,1.35,23
5.4,1.5,26
5.55,-1.5,56
5.55,-1.35,69
5.55,-1.2,80
5.55,-1.05,88
5.55,-0.9,98
5.55,-0.75,109
5.55,-0.6,103
5.55,-0.45,101
5.55,-0.3,90
5.55,-0.15,96
5.55,0.0,95
5.55,0.15,91
5.55,0.3,75
5.55,0.45,75
5.55,0.6,59
5.55,0.75,42
5.55,0.9,37
5.55,1.05,26
5.55,1.2,20
5.55,1.35,14
5.55,1.5,9
5.7,-1.5,63
5.7,-1.35,71
5.7,-1.2,78
5.7,-1.05,84
5.7,-0.9,95
5.7,-0.75,105
5.7,-0.6,101
5.7,-0.45,102
5.7,-0.3,99
5.7,-0.15,96
5.7,0.0,91
5.7,0.15,94
5.7,0.3,94
5.7,0.45,82
5.7,0.6,74
5.7,0.75,72
5.7,0.9,91
5.7,1.05,72
5.7,1.2,34
5.7,1.35,25
5.7,1.5,18
5.85,-1.5,79
5.85,-1.35,83
5.85,-1.2,83
5.85,-1.05,83
5.85,-0.9,88
5.85,-0.75,97
5.85,-0.6,96
5.85,-0.45,98
5.85,-0.3,96
5.85,-0.15,94
5.85,0.0,97
5.85,0.15,95
5.85,0.3,94
5.85,0.45,98
5.85,0.6,99
5.85,0.75,99
5.85,0.9,119
5.85,1.05,102
5.85,1.2,52
5.85,1.35,41
5.85,1.5,33
6.0,-1.5,76
6.0,-1.35,84
6.0,-1.2,92
6.0,-1.05,91
6.0,-0.9,84
6.0,-0.75,85
6.0,-0.6,89
6.0,-0.45,98
6.0,-0.3,95
6.0,-0.15,97
6.0,0.0,93
6.0,0.15,94
6.0,0.3,94
6.0,0.45,97
6.0,0.6,99
6.0,0.75,99
6.0,0.9,101
6.0,1.05,99
6.0,1.2,104
6.0,1.35,105
6.0,1.5,107
6.15,-1.5,69
6.15,-1.35,84
6.15,-1.2,101
6.15,-1.05,103
6.15,-0.9,90
6.15,-0.75,75
6.15,-0.6,87
6.15,-0.45,98
6.15,-0.3,91
6.15,-0.15,93
6.15,0.0,97
6.15,0.15,97
6.15,0.3,94
6.15,0.45,94
6.15,0.6,86
6.15,0.75,83
6.15,0.9,95
6.15,1.05,106
6.15,1.2,150
6.15,1.35,166
6.15,1.5,181
6.3,-1.5,90
6.3,-1.35,98
6.3,-1.2,103
6.3,-1.05,103
6.3,-0.9,95
6.3,-0.75,83
6.3,-0.6,87
6.3,-0.45,98
6.3,-0.3,98
6.3,-0.15,91
6.3,0.0,97
6.3,0.15,94
6.3,0.3,94
6.3,0.45,92
6.3,0.6,83
6.3,0.75,80
6.3,0.9,93
6.3,1.05,101
6.3,1.2,117
6.3,1.35,121
6.3,1.5,124
6.45,-1.5,127
6.45,-1.35,120
6.45,-1.2,101
6.45,-1.05,100
6.45,-0.9,103
6.45,-0.75,103
6.45,-0.6,97
6.45,-0.45,91
6.45,-0.3,91
6.45,-0.15,95
6.45,0.0,104
6.45,0.15,94
6.45,0.3,97
6.45,0.45,92
6.45,0.6,86
6.45,0.75,89
6.45,0.9,95
6.45,1.05,96
6.45,1.2,84
6.45,1.35,73
6.45,1.5,60
6.6,-1.5,136
6.6,-1.35,124
6.6,-1.2,100
6.6,-1.05,90
6.6,-0.9,99
6.6,-0.75,99
6.6,-0.6,91
6.6,-0.45,97
6.6,-0.3,96
6.6,-0.15,95
6.6,0.0,99
6.6,0.15,94
6.6,0.3,97
6.6,0.45,95
6.6,0.6,93
6.6,0.75,95
6.6,0.9,98
6.6,1.05,98
6.6,1.2,90
6.6,1.35,85
6.6,1.5,78
6.75,-1.5,152
6.75,-1.35,135
6.75,-1.2,114
6.75,-1.05,94
6.75,-0.9,78
6.75,-0.75,94
6.75,-0.6,91
6.75,-0.45,94
6.75,-0.3,94
6.75,-0.15,98
6.75,0.0,95
6.75,0.15,99
6.75,0.3,94
6.75,0.45,95
6.75,0.6,99
6.75,0.75,99
6.75,0.9,98
6.75,1.05,98
6.75,1.2,99
6.75,1.35,99
6.75,1.5,99
6.9,-1.5,171
6.9,-1.35,150
6.9,-1.2,122
6.9,-1.05,102
6.9,-0.9,74
6.9,-0.75,97
6.9,-0.6,130
6.9,-0.45,94
6.9,-0.3,94
6.9,-0.15,94
6.9,0.0,94
6.9,0.15,95
6.9,0.3,94
6.9,0.45,96
6.9,0.6,99
6.9,0.75,99
6.9,0.9,99
6.9,1.05,99
6.9,1.2,101
6.9,1.35,101
6.9,1.5,101
7.05,-1.5,198
7.05,-1.35,171
7.05,-1.2,135
7.05,-1.05,119
7.05,-0.9,105
7.05,-0.75,99
7.05,-0.6,117
7.05,-0.45,101
7.05,-0.3,94
7.05,-0.15,100
7.05,0.0,94
7.05,0.15,94
7.05,0.3,96
7.05,0.45,95
7.05,0.6,97
7.05,0.75,96
7.05,0.9,99
7.05,1.05,100
7.05,1.2,102
7.05,1.35,103
7.05,1.5,104
7.2,-1.5,202
7.2,-1.35,179
7.2,-1.2,159
7.2,-1.05,143
7.2,-0.9,124
7.2,-0.75,105
7.2,-0.6,94
7.2,-0.45,94
7.2,-0.3,100
7.2,-0.15,94
7.2,0.0,100
7.2,0.15,95
7.2,0.3,96
7.2,0.45,95
7.2,0.6,96
7.2,0.75,96
7.2,0.9,96
7.2,1.05,98
7.2,1.2,104
7.2,1.35,106
7.2,1.5,108
7.35,-1.5,203
7.35,-1.35,185
7.35,-1.2,185
7.35,-1.05,158
7.35,-0.9,130
7.35,-0.75,99
7.35,-0.6,94
7.35,-0.45,95
7.35,-0.3,94
7.35,-0.15,96
7.35,0.0,97
7.35,0.15,95
7.35,0.3,95
7.35,0.45,95
7.35,0.6,103
7.35,0.75,103
7.35,0.9,96
7.35,1.05,96
7.35,1.2,110
7.35,1.35,115
7.35,1.5,120
7.5,-1.5,218
7.5,-1.35,198
7.5,-1.2,185
7.5,-1.05,151
7.5,-0.9,122
7.5,-0.75,102
7.5,-0.6,94
7.5,-0.45,94
7.5,-0.3,95
7.5,-0.15,97
7.5,0.0,96
7.5,0.15,95
7.5,0.3,95
7.5,0.45,95
7.5,0.6,106
7.5,0.75,107
7.5,0.9,96
7.5,1.05,96
7.5,1.2,107
7.5,1.35,112
7.5,1.5,116
7.65,-1.5,236
7.65,-1.35,209
7.65,-1.2,187
7.65,-1.05,156
7.65,-0.9,120
7.65,-0.75,94
7.65,-0.6,94
7.65,-0.45,94
7.65,-0.3,95
7.65,-0.15,94
7.65,0.0,94
7.65,0.15,98
7.65,0.3,95
7.65,0.45,96
7.65,0.6,112
7.65,0.75,117
7.65,0.9,98
7.65,1.05,98
7.65,1.2,97
7.65,1.35,98
7.65,1.5,99
7.8,-1.5,231
7.8,-1.35,206
7.8,-1.2,186
7.8,-1.05,162
7.8,-0.9,131
7.8,-0.75,102
7.8,-0.6,101
7.8,-0.45,101
7.8,-0.3,97
7.8,-0.15,95
7.8,0.0,94
7.8,0.15,98
7.8,0.3,95
7.8,0.45,97
7.8,0.6,119
7.8,0.75,125
7.8,0.9,101
7.8,1.05,100
7.8,1.2,96
7.8,1.35,96
7.8,1.5,96
7.95,-1.5,225
7.95,-1.35,204
7.95,-1.2,188
7.95,-1.05,165
7.95,-0.9,124
7.95,-0.75,105
7.95,-0.6,95
7.95,-0.45,93
7.95,-0.3,96
7.95,-0.15,94
7.95,0.0,98
7.95,0.15,98
7.95,0.3,95
7.95,0.45,105
7.95,0.6,127
7.95,0.75,129
7.95,0.9,101
7.95,1.05,97
7.95,1.2,96
7.95,1.35,96
7.95,1.5,96
8.1,-1.5,192
8.1,-1.35,176
8.1,-1.2,171
8.1,-1.05,153
8.1,-0.9,106
8.1,-0.75,98
8.1,-0.6,105
8.1,-0.45,93
8.1,-0.3,93
8.1,-0.15,93
8.1,0.0,98
8.1,0.15,95
8.1,0.3,95
8.1,0.45,110
8.1,0.6,126
8.1,0.75,124
8.1,0.9,101
8.1,1.05,98
8.1,1.2,96
8.1,1.35,96
8.1,1.5,96
8.25,-1.5,128
8.25,-1.35,122
8.25,-1.2,134
8.25,-1.05,128
8.25,-0.9,87
8.25,-0.75,90
8.25,-0.6,101
8.25,-0.45,93
8.25,-0.3,98
8.25,-0.15,96
8.25,0.0,98
8.25,0.15,98
8.25,0.3,98
8.25,0.45,109
8.25,0.6,117
8.25,0.75,113
8.25,0.9,97
8.25,1.05,96
8.25,1.2,96
8.25,1.35,96
8.25,1.5,96
8.4,-1.5,128
8.4,-1.35,119
8.4,-1.2,123
8.4,-1.05,114
8.4,-0.9,86
8.4,-0.75,91
8.4,-0.6,119
8.4,-0.45,93
8.4,-0.3,93
8.4,-0.15,98
8.4,0.0,98
8.4,0.15,98
8.4,0.3,93
8.4,0.45,99
8.4,0.6,105
8.4,0.75,104
8.4,0.9,96
8.4,1.05,96
8.4,1.2,96
8.4,1.35,96
8.4,1.5,96
8.55,-1.5,163
8.55,-1.35,142
8.55,-1.2,114
8.55,-1.05,100
8.55,-0.9,94
8.55,-0.75,97
8.55,-0.6,114
8.55,-0.45,104
8.55,-0.3,93
8.55,-0.15,95
8.55,0.0,94
8.55,0.15,93
8.55,0.3,95
8.55,0.45,92
8.55,0.6,96
8.55,0.75,97
8.55,0.9,96
8.55,1.05,96
8.55,1.2,99
8.55,1.35,101
8.55,1.5,104
8.7,-1.5,161
8.7,-1.35,137
8.7,-1.2,107
8.7,-1.05,97
8.7,-0.9,94
8.7,-0.75,94
8.7,-0.6,98
8.7,-0.45,91
8.7,-0.3,94
8.7,-0.15,95
8.7,0.0,100
8.7,0.15,95
8.7,0.3,95
8.7,0.45,95
8.7,0.6,92
8.7,0.75,93
8.7,0.9,93
8.7,1.05,94
8.7,1.2,98
8.7,1.35,100
8.7,1.5,103
8.85,-1.5,127
8.85,-1.35,114
8.85,-1.2,98
8.85,-1.05,94
8.85,-0.9,94
8.85,-0.75,85
8.85,-0.6,86
8.85,-0.45,98
8.85,-0.3,102
8.85,-0.15,110
8.85,0.0,89
8.85,0.15,94
8.85,0.3,94
8.85,0.45,94
8.85,0.6,93
8.85,0.75,91
8.85,0.9,89
8.85,1.05,89
8.85,1.2,90
8.85,1.35,89
8.85,1.5,88
9.0,-1.5,119
9.0,-1.35,109
9.0,-1.2,94
9.0,-1.05,90
9.0,-0.9,80
9.0,-0.75,45
9.0,-0.6,49
9.0,-0.45,93
9.0,-0.3,87
9.0,-0.15,89
9.0,0.0,89
9.0,0.15,97
9.0,0.3,95
9.0,0.45,96
9.0,0.6,95
9.0,0.75,94
9.0,0.9,94
9.0,1.05,91
9.0,1.2,86
9.0,1.35,84
9.0,1.5,81
9.15,-1.5,123
9.15,-1.35,116
9.15,-1.2,87
9.15,-1.05,81
9.15,-0.9,95
9.15,-0.75,84
9.15,-0.6,89
9.15,-0.45,87
9.15,-0.3,101
9.15,-0.15,96
9.15,0.0,94
9.15,0.15,96
9.15,0.3,98
9.15,0.45,108
9.15,0.6,106
9.15,0.75,101
9.15,0.9,97
9.15,1.05,91
9.15,1.2,80
9.15,1.35,74
9.15,1.5,69
9.3,-1.5,133
9.3,-1.35,128
9.3,-1.2,96
9.3,-1.05,86
9.3,-0.9,118
9.3,-0.75,101
9.3,-0.6,90
9.3,-0.45,101
9.3,-0.3,92
9.3,-0.15,93
9.3,0.0,85
9.3,0.15,98
9.3,0.3,95
9.3,0.45,107
9.3,0.6,115
9.3,0.75,110
9.3,0.9,100
9.3,1.05,93
9.3,1.2,82
9.3,1.35,76
9.3,1.5,71
9.45,-1.5,132
9.45,-1.35,136
9.45,-1.2,133
9.45,-1.05,128
9.45,-0.9,138
9.45,-0.75,126
9.45,-0.6,101
9.45,-0.45,98
9.45,-0.3,92
9.45,-0.15,102
9.45,0.0,74
9.45,0.15,95
9.45,0.3,92
9.45,0.45,94
9.45,0.6,118
9.45,0.75,123
9.45,0.9,107
9.45,1.05,101
9.45,1.2,90
9.45,1.35,87
9.45,1.5,84
9.6,-1.5,147
9.6,-1.35,154
9.6,-1.2,165
9.6,-1.05,162
9.6,-0.9,153
9.6,-0.75,132
9.6,-0.6,97
9.6,-0.45,93
9.6,-0.3,95
9.6,-0.15,92
9.6,0.0,103
9.6,0.15,91
9.6,0.3,92
9.6,0.45,92
9.6,0.6,108
9.6,0.75,117
9.6,0.9,105
9.6,1.05,102
9.6,1.2,93
9.6,1.35,91
9.6,1.5,90
9.75,-1.5,194
9.75,-1.35,193
9.75,-1.2,211
9.75,-1.05,204
9.75,-0.9,170
9.75,-0.75,128
9.75,-0.6,96
9.75,-0.45,101
9.75,-0.3,96
9.75,-0.15,108
9.75,0.0,116
9.75,0.15,96
9.75,0.3,94
9.75,0.45,92
9.75,0.6,101
9.75,0.75,108
9.75,0.9,103
9.75,1.05,104
9.75,1.2,101
9.75,1.35,103
9.75,1.5,104
9.9,-1.5,217
9.9,-1.35,211
9.9,-1.2,217
9.9,-1.05,202
9.9,-0.9,167
9.9,-0.75,120
9.9,-0.6,93
9.9,-0.45,97
9.9,-0.3,101
9.9,-0.15,110
9.9,0.0,112
9.9,0.15,95
9.9,0.3,96
9.9,0.45,97
9.9,0.6,96
9.9,0.75,102
9.9,0.9,102
9.9,1.05,103
9.9,1.2,103
9.9,1.35,105
9.9,1.5,108
10.05,-1.5,255
10.05,-1.35,244
10.05,-1.2,226
10.05,-1.05,195
10.05,-0.9,163
10.05,-0.75,124
10.05,-0.6,87
10.05,-0.45,95
10.05,-0.3,95
10.05,-0.15,94
10.05,0.0,100
10.05,0.15,100
10.05,0.3,100
10.05,0.45,104
10.05,0.6,99
10.05,0.75,106
10.05,0.9,113
10.05,1.05,113
10.05,1.2,105
10.05,1.35,109
10.05,1.5,114
10.2,-1.5,255
10.2,-1.35,240
10.2,-1.2,214
10.2,-1.05,186
10.2,-0.9,182
10.2,-0.75,113
10.2,-0.6,52
10.2,-0.45,73
10.2,-0.3,94
10.2,-0.15,99
10.2,0.0,113
10.2,0.15,99
10.2,0.3,93
10.2,0.45,105
10.2,0.6,105
10.2,0.75,113
10.2,0.9,122
10.2,1.05,119
10.2,1.2,105
10.2,1.35,108
10.2,1.5,113
10.35,-1.5,255
10.35,-1.35,226
10.35,-1.2,220
10.35,-1.05,220
10.35,-0.9,202
10.35,-0.75,156
10.35,-0.6,88
10.35,-0.45,109
10.35,-0.3,98
10.35,-0.15,113
10.35,0.0,158
10.35,0.15,111
10.35,0.3,89
10.35,0.45,99
10.35,0.6,106
10.35,0.75,115
10.35,0.9,128
10.35,1.05,123
10.35,1.2,105
10.35,1.35,105
10.35,1.5,105
10.5,-1.5,241
10.5,-1.35,213
10.5,-1.2,215
10.5,-1.05,218
10.5,-0.9,188
10.5,-0.75,156
10.5,-0.6,115
10.5,-0.45,139
10.5,-0.3,98
10.5,-0.15,99
10.5,0.0,116
10.5,0.15,66
10.5,0.3,51
10.5,0.45,77
10.5,0.6,107
10.5,0.75,122
10.5,0.9,128
10.5,1.05,127
10.5,1.2,105
10.5,1.35,105
10.5,1.5,105
10.65,-1.5,255
10.65,-1.35,238
10.65,-1.2,202
10.65,-1.05,172
10.65,-0.9,145
10.65,-0.75,87
10.65,-0.6,54
10.65,-0.45,108
10.65,-0.3,101
10.65,-0.15,102
10.65,0.0,98
10.65,0.15,100
10.65,0.3,58
10.65,0.45,48
10.65,0.6,107
10.65,0.75,128
10.65,0.9,126
10.65,1.05,126
10.65,1.2,131
10.65,1.35,131
10.65,1.5,129
10.8,-1.5,255
10.8,-1.35,243
10.8,-1.2,188
10.8,-1.05,144
10.8,-0.9,115
10.8,-0.75,49
10.8,-0.6,28
10.8,-0.45,68
10.8,-0.3,100
10.8,-0.15,98
10.8,0.0,101
10.8,0.15,102
10.8,0.3,98
10.8,0.45,90
10.8,0.6,109
10.8,0.75,128
10.8,0.9,120
10.8,1.05,124
10.8,1.2,139
10.8,1.35,139
10.8,1.5,137
10.95,-1.5,255
10.95,-1.35,248
10.95,-1.2,198
10.95,-1.05,163
10.95,-0.9,128
10.95,-0.75,76
10.95,-0.6,76
10.95,-0.45,99
10.95,-0.3,112
10.95,-0.15,100
10.95,0.0,102
10.95,0.15,97
10.95,0.3,97
10.95,0.45,102
10.95,0.6,112
10.95,0.75,115
10.95,0.9,128
10.95,1.05,128
10.95,1.2,109
10.95,1.35,108
10.95,1.5,107
11.1,-1.5,255
11.1,-1.35,255
11.1,-1.2,211
11.1,-1.05,181
11.1,-0.9,141
11.1,-0.75,102
11.1,-0.6,93
11.1,-0.45,86
11.1,-0.3,100
11.1,-0.15,100
11.1,0.0,102
11.1,0.15,101
11.1,0.3,97
11.1,0.45,97
11.1,0.6,115
11.1,0.75,117
11.1,0.9,128
11.1,1.05,122
11.1,1.2,98
11.1,1.35,97
11.1,1.5,96
11.25,-1.5,255
11.25,-1.35,245
11.25,-1.2,230
11.25,-1.05,201
11.25,-0.9,144
11.25,-0.75,111
11.25,-0.6,102
11.25,-0.45,102
11.25,-0.3,100
11.25,-0.15,102
11.25,0.0,102
11.25,0.15,101
11.25,0.3,99
11.25,0.45,97
11.25,0.6,100
11.25,0.75,106
11.25,0.9,110
11.25,1.05,107
11.25,1.2,116
11.25,1.35,114
11.25,1.5,110
11.4,-1.5,255
11.4,-1.35,235
11.4,-1.2,231
11.4,-1.05,197
11.4,-0.9,139
11.4,-0.75,107
11.4,-0.6,94
11.4,-0.45,99
11.4,-0.3,102
11.4,-0.15,102
11.4,0.0,100
11.4,0.15,97
11.4,0.3,99
11.4,0.45,101
11.4,0.6,97
11.4,0.75,99
11.4,0.9,103
11.4,1.05,99
11.4,1.2,106
11.4,1.35,101
11.4,1.5,93
11.55,-1.5,255
11.55,-1.35,246
11.55,-1.2,214
11.55,-1.05,179
11.55,-0.9,139
11.55,-0.75,109
11.55,-0.6,94
11.55,-0.45,94
11.55,-0.3,95
11.55,-0.15,99
11.55,0.0,93
11.55,0.15,93
11.55,0.3,93
11.55,0.45,102
11.55,0.6,101
11.55,0.75,100
11.55,0.9,96
11.55,1.05,93
11.55,1.2,83
11.55,1.35,71
11.55,1.5,56
11.7,-1.5,255
11.7,-1.35,244
11.7,-1.2,209
11.7,-1.05,180
11.7,-0.9,151
11.7,-0.75,123
11.7,-0.6,102
11.7,-0.45,94
11.7,-0.3,94
11.7,-0.15,95
11.7,0.0,94
11.7,0.15,93
11.7,0.3,93
11.7,0.45,102
11.7,0.6,106
11.7,0.75,103
11.7,0.9,92
11.7,1.05,91
11.7,1.2,81
11.7,1.35,68
11.7,1.5,53
11.85,-1.5,229
11.85,-1.35,211
11.85,-1.2,193
11.85,-1.05,177
11.85,-0.9,158
11.85,-0.75,136
11.85,-0.6,110
11.85,-0.45,96
11.85,-0.3,94
11.85,-0.15,94
11.85,0.0,96
11.85,0.15,93
11.85,0.3,95
11.85,0.45,102
11.85,0.6,108
11.85,0.75,110
11.85,0.9,101
11.85,1.05,97
11.85,1.2,88
11.85,1.35,84
11.85,1.5,80
12.0,-1.5,201
12.0,-1.35,191
12.0,-1.2,179
12.0,-1.05,168
12.0,-0.9,160
12.0,-0.75,142
12.0,-0.6,114
12.0,-0.45,107
12.0,-0.3,102
12.0,-0.15,96
12.0,0.0,93
12.0,0.15,93
12.0,0.3,98
12.0,0.45,102
12.0,0.6,108
12.0,0.75,112
12.0,0.9,107
12.0,1.05,101
12.0,1.2,93
12.0,1.35,94
12.0,1.5,95
12.15,-1.5,180
12.15,-1.35,174
12.15,-1.2,164
12.15,-1.05,154
12.15,-0.9,138
12.15,-0.75,125
12.15,-0.6,115
12.15,-0.45,112
12.15,-0.3,108
12.15,-0.15,96
12.15,0.0,93
12.15,0.15,93
12.15,0.3,93
12.15,0.45,97
12.15,0.6,106
12.15,0.75,109
12.15,0.9,109
12.15,1.05,104
12.15,1.2,94
12.15,1.35,94
12.15,1.5,95
12.3,-1.5,159
12.3,-1.35,156
12.3,-1.2,148
12.3,-1.05,139
12.3,-0.9,114
12.3,-0.75,103
12.3,-0.6,105
12.3,-0.45,105
12.3,-0.3,99
12.3,-0.15,93
12.3,0.0,93
12.3,0.15,93
12.3,0.3,93
12.3,0.45,93
12.3,0.6,104
12.3,0.75,107
12.3,0.9,108
12.3,1.05,104
12.3,1.2,94
12.3,1.35,95
12.3,1.5,95
12.45,-1.5,144
12.45,-1.35,140
12.45,-1.2,127
12.45,-1.05,116
12.45,-0.9,99
12.45,-0.75,93
12.45,-0.6,93
12.45,-0.45,93
12.45,-0.3,93
12.45,-0.15,94
12.45,0.0,95
12.45,0.15,95
12.45,0.3,94
12.45,0.45,94
12.45,0.6,97
12.45,0.75,101
12.45,0.9,104
12.45,1.05,104
12.45,1.2,102
12.45,1.35,103
12.45,1.5,104
12.6,-1.5,130
12.6,-1.35,127
12.6,-1.2,112
12.6,-1.05,101
12.6,-0.9,92
12.6,-0.75,91
12.6,-0.6,92
12.6,-0.45,94
12.6,-0.3,95
12.6,-0.15,95
12.6,0.0,94
12.6,0.15,95
12.6,0.3,95
12.6,0.45,94
12.6,0.6,94
12.6,0.75,98
12.6,0.9,102
12.6,1.05,102
12.6,1.2,104
12.6,1.35,104
12.6,1.5,104
12.75,-1.5,111
12.75,-1.35,108
12.75,-1.2,99
12.75,-1.05,94
12.75,-0.9,91
12.75,-0.75,92
12.75,-0.6,96
12.75,-0.45,101
12.75,-0.3,103
12.75,-0.15,99
12.75,0.0,95
12.75,0.15,95
12.75,0.3,95
12.75,0.45,95
12.75,0.6,96
12.75,0.75,96
12.75,0.9,95
12.75,1.05,97
12.75,1.2,100
12.75,1.35,100
12.75,1.5,101
12.9,-1.5,99
12.9,-1.35,96
12.9,-1.2,91
12.9,-1.05,89
12.9,-0.9,89
12.9,-0.75,90
12.9,-0.6,94
12.9,-0.45,101
12.9,-0.3,103
12.9,-0.15,97
12.9,0.0,92
12.9,0.15,90
12.9,0.3,91
12.9,0.45,92
12.9,0.6,92
12.9,0.75,92
12.9,0.9,90
12.9,1.05,93
12.9,1.2,96
12.9,1.35,96
12.9,1.5,96
13.05,-1.5,91
13.05,-1.35,87
13.05,-1.2,87
13.05,-1.05,87
13.05,-0.9,87
13.05,-0.75,87
13.05,-0.6,87
13.05,-0.45,87
13.05,-0.3,87
13.05,-0.15,84
13.05,0.0,81
13.05,0.15,81
13.05,0.3,83
13.05,0.45,84
13.05,0.6,85
13.05,0.75,87
13.05,0.9,88
13.05,1.05,90
13.05,1.2,93
13.05,1.35,93
13.05,1.5,93
