-3.0,-1.5,119
-3.0,-1.35,119
-3.0,-1.2,119
-3.0,-1.05,119
-3.0,-0.9,118
-3.0,-0.75,114
-3.0,-0.6,107
-3.0,-0.45,103
-3.0,-0.3,100
-3.0,-0.15,119
-3.0,0.0,119
-3.0,0.15,119
-3.0,0.3,123
-3.0,0.45,129
-3.0,0.6,130
-3.0,0.75,130
-3.0,0.9,130
-3.0,1.05,125
-3.0,1.2,120
-3.0,1.35,117
-3.0,1.5,116
-2.85,-1.5,119
-2.85,-1.35,119
-2.85,-1.2,119
-2.85,-1.05,119
-2.85,-0.9,120
-2.85,-0.75,117
-2.85,-0.6,112
-2.85,-0.45,109
-2.85,-0.3,106
-2.85,-0.15,116
-2.85,0.0,117
-2.85,0.15,115
-2.85,0.3,115
-2.85,0.45,119
-2.85,0.6,126
-2.85,0.75,130
-2.85,0.9,128
-2.85,1.05,121
-2.85,1.2,115
-2.85,1.35,113
-2.85,1.5,113
-2.7,-1.5,119
-2.7,-1.35,119
-2.7,-1.2,119
-2.7,-1.05,121
-2.7,-0.9,122
-2.7,-0.75,121
-2.7,-0.6,118
-2.7,-0.45,115
-2.7,-0.3,112
-2.7,-0.15,115
-2.7,0.0,115
-2.7,0.15,115
-2.7,0.3,115
-2.7,0.45,115
-2.7,0.6,122
-2.7,0.75,130
-2.7,0.9,128
-2.7,1.05,121
-2.7,1.2,115
-2.7,1.35,113
-2.7,1.5,113
-2.55,-1.5,119
-2.55,-1.35,119
-2.55,-1.2,120
-2.55,-1.05,121
-2.55,-0.9,124
-2.55,-0.75,124
-2.55,-0.6,123
-2.55,-0.45,119
-2.55,-0.3,116
-2.55,-0.15,115
-2.55,0.0,115
-2.55,0.15,116
-2.55,0.3,118
-2.55,0.45,120
-2.55,0.6,126
-2.55,0.75,133
-2.55,0.9,132
-2.55,1.05,125
-2.55,1.2,118
-2.55,1.35,115
-2.55,1.5,113
-2.4,-1.5,119
-2.4,-1.35,120
-2.4,-1.2,120
-2.4,-1.05,123
-2.4,-0.9,126
-2.4,-0.75,128
-2.4,-0.6,128
-2.4,-0.45,125
-2.4,-0.3,122
-2.4,-0.15,118
-2.4,0.0,118
-2.4,0.15,122
-2.4,0.3,127
-2.4,0.45,132
-2.4,0.6,136
-2.4,0.75,140
-2.4,0.9,140
-2.4,1.05,134
-2.4,1.2,125
-2.4,1.35,119
-2.4,1.5,115
-2.25,-1.5,119
-2.25,-1.35,121
-2.25,-1.2,124
-2.25,-1.05,127
-2.25,-0.9,128
-2.25,-0.75,132
-2.25,-0.6,134
-2.25,-0.45,131
-2.25,-0.3,126
-2.25,-0.15,119
-2.25,0.0,119
-2.25,0.15,124
-2.25,0.3,129
-2.25,0.45,137
-2.25,0.6,155
-2.25,0.75,176
-2.25,0.9,181
-2.25,1.05,170
-2.25,1.2,149
-2.25,1.35,132
-2.25,1.5,118
-2.1,-1.5,117
-2.1,-1.35,120
-2.1,-1.2,124
-2.1,-1.05,127
-2.1,-0.9,129
-2.1,-0.75,135
-2.1,-0.6,139
-2.1,-0.45,137
-2.1,-0.3,130
-2.1,-0.15,122
-2.1,0.0,120
-2.1,0.15,124
-2.1,0.3,128
-2.1,0.45,130
-2.1,0.6,154
-2.1,0.75,187
-2.1,0.9,200
-2.1,1.05,188
-2.1,1.2,163
-2.1,1.35,144
-2.1,1.5,128
-1.95,-1.5,113
-1.95,-1.35,116
-1.95,-1.2,120
-1.95,-1.05,124
-1.95,-0.9,129
-1.95,-0.75,135
-1.95,-0.6,140
-1.95,-0.45,140
-1.95,-0.3,133
-1.95,-0.15,122
-1.95,0.0,118
-1.95,0.15,118
-1.95,0.3,111
-1.95,0.45,108
-1.95,0.6,130
-1.95,0.75,166
-1.95,0.9,189
-1.95,1.05,184
-1.95,1.2,159
-1.95,1.35,143
-1.95,1.5,131
-1.8,-1.5,112
-1.8,-1.35,112
-1.8,-1.2,116
-1.8,-1.05,120
-1.8,-0.9,125
-1.8,-0.75,131
-1.8,-0.6,136
-1.8,-0.45,138
-1.8,-0.3,132
-1.8,-0.15,124
-1.8,0.0,121
-1.8,0.15,123
-1.8,0.3,104
-1.8,0.45,80
-1.8,0.6,90
-1.8,0.75,132
-1.8,0.9,159
-1.8,1.05,160
-1.8,1.2,141
-1.8,1.35,131
-1.8,1.5,127
-1.65,-1.5,112
-1.65,-1.35,112
-1.65,-1.2,112
-1.65,-1.05,114
-1.65,-0.9,119
-1.65,-0.75,124
-1.65,-0.6,128
-1.65,-0.45,130
-1.65,-0.3,128
-1.65,-0.15,124
-1.65,0.0,123
-1.65,0.15,147
-1.65,0.3,131
-1.65,0.45,75
-1.65,0.6,51
-1.65,0.75,79
-1.65,0.9,106
-1.65,1.05,115
-1.65,1.2,114
-1.65,1.35,111
-1.65,1.5,114
-1.5,-1.5,112
-1.5,-1.35,112
-1.5,-1.2,112
-1.5,-1.05,112
-1.5,-0.9,114
-1.5,-0.75,117
-1.5,-0.6,121
-1.5,-0.45,123
-1.5,-0.3,123
-1.5,-0.15,122
-1.5,0.0,127
-1.5,0.15,192
-1.5,0.3,199
-1.5,0.45,121
-1.5,0.6,50
-1.5,0.75,48
-1.5,0.9,67
-1.5,1.05,79
-1.5,1.2,90
-1.5,1.35,93
-1.5,1.5,100
-1.35,-1.5,112
-1.35,-1.35,112
-1.35,-1.2,112
-1.35,-1.05,112
-1.35,-0.9,112
-1.35,-0.75,114
-1.35,-0.6,117
-1.35,-0.45,118
-1.35,-0.3,119
-1.35,-0.15,120
-1.35,0.0,131
-1.35,0.15,212
-1.35,0.3,232
-1.35,0.45,159
-1.35,0.6,79
-1.35,0.75,57
-1.35,0.9,58
-1.35,1.05,62
-1.35,1.2,75
-1.35,1.35,82
-1.35,1.5,88
-1.2,-1.5,112
-1.2,-1.35,112
-1.2,-1.2,112
-1.2,-1.05,112
-1.2,-0.9,112
-1.2,-0.75,114
-1.2,-0.6,116
-1.2,-0.45,118
-1.2,-0.3,120
-1.2,-0.15,124
-1.2,0.0,135
-1.2,0.15,205
-1.2,0.3,212
-1.2,0.45,153
-1.2,0.6,92
-1.2,0.75,58
-1.2,0.9,64
-1.2,1.05,75
-1.2,1.2,68
-1.2,1.35,71
-1.2,1.5,72
-1.05,-1.5,110
-1.05,-1.35,112
-1.05,-1.2,109
-1.05,-1.05,112
-1.05,-0.9,117
-1.05,-0.75,117
-1.05,-0.6,118
-1.05,-0.45,120
-1.05,-0.3,125
-1.05,-0.15,130
-1.05,0.0,138
-1.05,0.15,188
-1.05,0.3,179
-1.05,0.45,134
-1.05,0.6,99
-1.05,0.75,72
-1.05,0.9,97
-1.05,1.05,118
-1.05,1.2,74
-1.05,1.35,62
-1.05,1.5,51
-0.9,-1.5,106
-0.9,-1.35,110
-0.9,-1.2,108
-0.9,-1.05,113
-0.9,-0.9,120
-0.9,-0.75,120
-0.9,-0.6,120
-0.9,-0.45,122
-0.9,-0.3,126
-0.9,-0.15,130
-0.9,0.0,132
-0.9,0.15,149
-0.9,0.3,150
-0.9,0.45,136
-0.9,0.6,121
-0.9,0.75,116
-0.9,0.9,127
-0.9,1.05,128
-0.9,1.2,66
-0.9,1.35,35
-0.9,1.5,8
-0.75,-1.5,102
-0.75,-1.35,107
-0.75,-1.2,107
-0.75,-1.05,111
-0.75,-0.9,121
-0.75,-0.75,123
-0.75,-0.6,121
-0.75,-0.45,120
-0.75,-0.3,122
-0.75,-0.15,124
-0.75,0.0,124
-0.75,0.15,128
-0.75,0.3,138
-0.75,0.45,141
-0.75,0.6,136
-0.75,0.75,136
-0.75,0.9,136
-0.75,1.05,133
-0.75,1.2,78
-0.75,1.35,42
-0.75,1.5,10
-0.6,-1.5,109
-0.6,-1.35,112
-0.6,-1.2,112
-0.6,-1.05,115
-0.6,-0.9,118
-0.6,-0.75,123
-0.6,-0.6,123
-0.6,-0.45,119
-0.6,-0.3,119
-0.6,-0.15,119
-0.6,0.0,120
-0.6,0.15,121
-0.6,0.3,130
-0.6,0.45,133
-0.6,0.6,131
-0.6,0.75,136
-0.6,0.9,136
-0.6,1.05,132
-0.6,1.2,132
-0.6,1.35,132
-0.6,1.5,133
-0.45,-1.5,112
-0.45,-1.35,115
-0.45,-1.2,117
-0.45,-1.05,117
-0.45,-0.9,115
-0.45,-0.75,123
-0.45,-0.6,127
-0.45,-0.45,123
-0.45,-0.3,119
-0.45,-0.15,119
-0.45,0.0,120
-0.45,0.15,119
-0.45,0.3,120
-0.45,0.45,119
-0.45,0.6,115
-0.45,0.75,119
-0.45,0.9,116
-0.45,1.05,119
-0.45,1.2,138
-0.45,1.35,157
-0.45,1.5,177
-0.3,-1.5,114
-0.3,-1.35,117
-0.3,-1.2,119
-0.3,-1.05,119
-0.3,-0.9,119
-0.3,-0.75,122
-0.3,-0.6,128
-0.3,-0.45,130
-0.3,-0.3,125
-0.3,-0.15,119
-0.3,0.0,120
-0.3,0.15,119
-0.3,0.3,116
-0.3,0.45,114
-0.3,0.6,107
-0.3,0.75,112
-0.3,0.9,113
-0.3,1.05,120
-0.3,1.2,135
-0.3,1.35,150
-0.3,1.5,165
-0.15,-1.5,110
-0.15,-1.35,113
-0.15,-1.2,117
-0.15,-1.05,119
-0.15,-0.9,116
-0.15,-0.75,114
-0.15,-0.6,120
-0.15,-0.45,130
-0.15,-0.3,130
-0.15,-0.15,120
-0.15,0.0,117
-0.15,0.15,116
-0.15,0.3,116
-0.15,0.45,123
-0.15,0.6,116
-0.15,0.75,128
-0.15,0.9,125
-0.15,1.05,128
-0.15,1.2,136
-0.15,1.35,146
-0.15,1.5,156
0.0,-1.5,97
0.0,-1.35,103
0.0,-1.2,113
0.0,-1.05,117
0.0,-0.9,112
0.0,-0.75,101
0.0,-0.6,103
0.0,-0.45,120
0.0,-0.3,133
0.0,-0.15,124
0.0,0.0,117
0.0,0.15,124
0.0,0.3,129
0.0,0.45,129
0.0,0.6,130
0.0,0.75,139
0.0,0.9,133
0.0,1.05,130
0.0,1.2,133
0.0,1.35,140
0.0,1.5,149
0.15,-1.5,87
0.15,-1.35,94
0.15,-1.2,105
0.15,-1.05,111
0.15,-0.9,104
0.15,-0.75,96
0.15,-0.6,96
0.15,-0.45,108
0.15,-0.3,133
0.15,-0.15,133
0.15,0.0,118
0.15,0.15,130
0.15,0.3,130
0.15,0.45,130
0.15,0.6,136
0.15,0.75,139
0.15,0.9,133
0.15,1.05,127
0.15,1.2,123
0.15,1.35,127
0.15,1.5,135
0.3,-1.5,70
0.3,-1.35,79
0.3,-1.2,89
0.3,-1.05,96
0.3,-0.9,96
0.3,-0.75,97
0.3,-0.6,98
0.3,-0.45,108
0.3,-0.3,134
0.3,-0.15,150
0.3,0.0,125
0.3,0.15,114
0.3,0.3,121
0.3,0.45,124
0.3,0.6,132
0.3,0.75,142
0.3,0.9,131
0.3,1.05,120
0.3,1.2,109
0.3,1.35,109
0.3,1.5,113
0.45,-1.5,65
0.45,-1.35,75
0.45,-1.2,92
0.45,-1.05,99
0.45,-0.9,104
0.45,-0.75,109
0.45,-0.6,114
0.45,-0.45,120
0.45,-0.3,132
0.45,-0.15,143
0.45,0.0,129
0.45,0.15,106
0.45,0.3,115
0.45,0.45,119
0.45,0.6,124
0.45,0.75,143
0.45,0.9,132
0.45,1.05,111
0.45,1.2,88
0.45,1.35,77
0.45,1.5,72
0.6,-1.5,62
0.6,-1.35,73
0.6,-1.2,114
0.6,-1.05,115
0.6,-0.9,112
0.6,-0.75,119
0.6,-0.6,130
0.6,-0.45,135
0.6,-0.3,123
0.6,-0.15,118
0.6,0.0,116
0.6,0.15,116
0.6,0.3,127
0.6,0.45,119
0.6,0.6,110
0.6,0.75,125
0.6,0.9,111
0.6,1.05,76
0.6,1.2,39
0.6,1.35,11
0.6,1.5,0
0.75,-1.5,38
0.75,-1.35,55
0.75,-1.2,104
0.75,-1.05,113
0.75,-0.9,115
0.75,-0.75,132
0.75,-0.6,142
0.75,-0.45,134
0.75,-0.3,116
0.75,-0.15,114
0.75,0.0,116
0.75,0.15,124
0.75,0.3,130
0.75,0.45,117
0.75,0.6,107
0.75,0.75,118
0.75,0.9,98
0.75,1.05,61
0.75,1.2,42
0.75,1.35,29
0.75,1.5,18
0.9,-1.5,0
0.9,-1.35,26
0.9,-1.2,82
0.9,-1.05,101
0.9,-0.9,116
0.9,-0.75,133
0.9,-0.6,136
0.9,-0.45,120
0.9,-0.3,102
0.9,-0.15,111
0.9,0.0,118
0.9,0.15,131
0.9,0.3,121
0.9,0.45,118
0.9,0.6,118
0.9,0.75,142
0.9,0.9,117
0.9,1.05,74
0.9,1.2,69
0.9,1.35,69
0.9,1.5,69
1.05,-1.5,54
1.05,-1.35,68
1.05,-1.2,100
1.05,-1.05,115
1.05,-0.9,134
1.05,-0.75,130
1.05,-0.6,120
1.05,-0.45,110
1.05,-0.3,108
1.05,-0.15,124
1.05,0.0,117
1.05,0.15,138
1.05,0.3,106
1.05,0.45,124
1.05,0.6,124
1.05,0.75,134
1.05,0.9,132
1.05,1.05,97
1.05,1.2,76
1.05,1.35,61
1.05,1.5,50
1.2,-1.5,118
1.2,-1.35,119
1.2,-1.2,120
1.2,-1.05,128
1.2,-0.9,146
1.2,-0.75,133
1.2,-0.6,114
1.2,-0.45,108
1.2,-0.3,125
1.2,-0.15,132
1.2,0.0,111
1.2,0.15,118
1.2,0.3,96
1.2,0.45,118
1.2,0.6,122
1.2,0.75,112
1.2,0.9,116
1.2,1.05,107
1.2,1.2,87
1.2,1.35,60
1.2,1.5,33
1.35,-1.5,140
1.35,-1.35,138
1.35,-1.2,138
1.35,-1.05,137
1.35,-0.9,138
1.35,-0.75,136
1.35,-0.6,125
1.35,-0.45,113
1.35,-0.3,120
1.35,-0.15,120
1.35,0.0,120
1.35,0.15,109
1.35,0.3,104
1.35,0.45,112
1.35,0.6,115
1.35,0.75,112
1.35,0.9,112
1.35,1.05,116
1.35,1.2,110
1.35,1.35,91
1.35,1.5,69
1.5,-1.5,155
1.5,-1.35,151
1.5,-1.2,146
1.5,-1.05,143
1.5,-0.9,139
1.5,-0.75,146
1.5,-0.6,145
1.5,-0.45,133
1.5,-0.3,122
1.5,-0.15,116
1.5,0.0,115
1.5,0.15,127
1.5,0.3,128
1.5,0.45,129
1.5,0.6,119
1.5,0.75,112
1.5,0.9,112
1.5,1.05,116
1.5,1.2,116
1.5,1.35,111
1.5,1.5,95
1.65,-1.5,235
1.65,-1.35,217
1.65,-1.2,152
1.65,-1.05,138
1.65,-0.9,141
1.65,-0.75,151
1.65,-0.6,161
1.65,-0.45,158
1.65,-0.3,132
1.65,-0.15,120
1.65,0.0,119
1.65,0.15,115
1.65,0.3,121
1.65,0.45,144
1.65,0.6,131
1.65,0.75,117
1.65,0.9,112
1.65,1.05,112
1.65,1.2,116
1.65,1.35,116
1.65,1.5,116
1.8,-1.5,255
1.8,-1.35,238
1.8,-1.2,151
1.8,-1.05,133
1.8,-0.9,137
1.8,-0.75,143
1.8,-0.6,151
1.8,-0.45,155
1.8,-0.3,133
1.8,-0.15,119
1.8,0.0,120
1.8,0.15,119
1.8,0.3,137
1.8,0.45,119
1.8,0.6,126
1.8,0.75,128
1.8,0.9,114
1.8,1.05,112
1.8,1.2,116
1.8,1.35,116
1.8,1.5,116
1.95,-1.5,167
1.95,-1.35,160
1.95,-1.2,132
1.95,-1.05,130
1.95,-0.9,135
1.95,-0.75,135
1.95,-0.6,130
1.95,-0.45,122
1.95,-0.3,121
1.95,-0.15,119
1.95,0.0,120
1.95,0.15,123
1.95,0.3,117
1.95,0.45,122
1.95,0.6,116
1.95,0.75,122
1.95,0.9,119
1.95,1.05,115
1.95,1.2,116
1.95,1.35,115
1.95,1.5,113
2.1,-1.5,134
2.1,-1.35,133
2.1,-1.2,123
2.1,-1.05,123
2.1,-0.9,126
2.1,-0.75,124
2.1,-0.6,119
2.1,-0.45,117
2.1,-0.3,119
2.1,-0.15,141
2.1,0.0,122
2.1,0.15,112
2.1,0.3,120
2.1,0.45,122
2.1,0.6,117
2.1,0.75,115
2.1,0.9,115
2.1,1.05,116
2.1,1.2,115
2.1,1.35,113
2.1,1.5,111
2.25,-1.5,121
2.25,-1.35,121
2.25,-1.2,112
2.25,-1.05,116
2.25,-0.9,122
2.25,-0.75,119
2.25,-0.6,117
2.25,-0.45,117
2.25,-0.3,119
2.25,-0.15,127
2.25,0.0,103
2.25,0.15,120
2.25,0.3,118
2.25,0.45,117
2.25,0.6,118
2.25,0.75,108
2.25,0.9,98
2.25,1.05,95
2.25,1.2,103
2.25,1.35,104
2.25,1.5,104
2.4,-1.5,152
2.4,-1.35,148
2.4,-1.2,136
2.4,-1.05,130
2.4,-0.9,120
2.4,-0.75,119
2.4,-0.6,119
2.4,-0.45,117
2.4,-0.3,125
2.4,-0.15,126
2.4,0.0,118
2.4,0.15,116
2.4,0.3,120
2.4,0.45,104
2.4,0.6,120
2.4,0.75,104
2.4,0.9,88
2.4,1.05,84
2.4,1.2,101
2.4,1.35,107
2.4,1.5,109
2.55,-1.5,223
2.55,-1.35,208
2.55,-1.2,192
2.55,-1.05,165
2.55,-0.9,117
2.55,-0.75,117
2.55,-0.6,117
2.55,-0.45,117
2.55,-0.3,126
2.55,-0.15,122
2.55,0.0,117
2.55,0.15,97
2.55,0.3,115
2.55,0.45,97
2.55,0.6,136
2.55,0.75,110
2.55,0.9,94
2.55,1.05,104
2.55,1.2,142
2.55,1.35,152
2.55,1.5,154
2.7,-1.5,211
2.7,-1.35,198
2.7,-1.2,186
2.7,-1.05,157
2.7,-0.9,107
2.7,-0.75,113
2.7,-0.6,116
2.7,-0.45,114
2.7,-0.3,124
2.7,-0.15,124
2.7,0.0,117
2.7,0.15,131
2.7,0.3,154
2.7,0.45,134
2.7,0.6,136
2.7,0.75,111
2.7,0.9,104
2.7,1.05,130
2.7,1.2,178
2.7,1.35,191
2.7,1.5,201
2.85,-1.5,194
2.85,-1.35,183
2.85,-1.2,176
2.85,-1.05,145
2.85,-0.9,89
2.85,-0.75,105
2.85,-0.6,116
2.85,-0.45,116
2.85,-0.3,114
2.85,-0.15,120
2.85,0.0,123
2.85,0.15,130
2.85,0.3,109
2.85,0.45,158
2.85,0.6,130
2.85,0.75,124
2.85,0.9,124
2.85,1.05,148
2.85,1.2,175
2.85,1.35,197
2.85,1.5,225
3.0,-1.5,150
3.0,-1.35,145
3.0,-1.2,142
3.0,-1.05,122
3.0,-0.9,82
3.0,-0.75,96
3.0,-0.6,109
3.0,-0.45,112
3.0,-0.3,117
3.0,-0.15,116
3.0,0.0,122
3.0,0.15,126
3.0,0.3,136
3.0,0.45,153
3.0,0.6,131
3.0,0.75,138
3.0,0.9,106
3.0,1.05,101
3.0,1.2,113
3.0,1.35,131
3.0,1.5,154
3.15,-1.5,114
3.15,-1.35,114
3.15,-1.2,114
3.15,-1.05,105
3.15,-0.9,78
3.15,-0.75,85
3.15,-0.6,95
3.15,-0.45,101
3.15,-0.3,105
3.15,-0.15,112
3.15,0.0,130
3.15,0.15,122
3.15,0.3,132
3.15,0.45,124
3.15,0.6,124
3.15,0.75,142
3.15,0.9,63
3.15,1.05,14
3.15,1.2,42
3.15,1.35,59
3.15,1.5,79
3.3,-1.5,114
3.3,-1.35,114
3.3,-1.2,115
3.3,-1.05,112
3.3,-0.9,101
3.3,-0.75,87
3.3,-0.6,85
3.3,-0.45,104
3.3,-0.3,132
3.3,-0.15,109
3.3,0.0,130
3.3,0.15,116
3.3,0.3,124
3.3,0.45,138
3.3,0.6,142
3.3,0.75,126
3.3,0.9,85
3.3,1.05,19
3.3,1.2,7
3.3,1.35,18
3.3,1.5,36
3.45,-1.5,114
3.45,-1.35,114
3.45,-1.2,115
3.45,-1.05,116
3.45,-0.9,117
3.45,-0.75,103
3.45,-0.6,111
3.45,-0.45,125
3.45,-0.3,110
3.45,-0.15,150
3.45,0.0,109
3.45,0.15,151
3.45,0.3,122
3.45,0.45,122
3.45,0.6,151
3.45,0.75,116
3.45,0.9,101
3.45,1.05,69
3.45,1.2,4
3.45,1.35,0
3.45,1.5,10
3.6,-1.5,116
3.6,-1.35,117
3.6,-1.2,117
3.6,-1.05,117
3.6,-0.9,117
3.6,-0.75,116
3.6,-0.6,121
3.6,-0.45,125
3.6,-0.3,119
3.6,-0.15,132
3.6,0.0,97
3.6,0.15,128
3.6,0.3,122
3.6,0.45,124
3.6,0.6,131
3.6,0.75,136
3.6,0.9,128
3.6,1.05,115
3.6,1.2,75
3.6,1.35,46
3.6,1.5,19
3.75,-1.5,120
3.75,-1.35,120
3.75,-1.2,119
3.75,-1.05,118
3.75,-0.9,117
3.75,-0.75,118
3.75,-0.6,118
3.75,-0.45,117
3.75,-0.3,117
3.75,-0.15,146
3.75,0.0,93
3.75,0.15,124
3.75,0.3,124
3.75,0.45,138
3.75,0.6,136
3.75,0.75,128
3.75,0.9,137
3.75,1.05,139
3.75,1.2,126
3.75,1.35,104
3.75,1.5,79
3.9,-1.5,134
3.9,-1.35,129
3.9,-1.2,119
3.9,-1.05,117
3.9,-0.9,117
3.9,-0.75,117
3.9,-0.6,117
3.9,-0.45,118
3.9,-0.3,117
3.9,-0.15,167
3.9,0.0,119
3.9,0.15,140
3.9,0.3,131
3.9,0.45,174
3.9,0.6,100
3.9,0.75,59
3.9,0.9,96
3.9,1.05,150
3.9,1.2,197
3.9,1.35,255
3.9,1.5,255
4.05,-1.5,139
4.05,-1.35,133
4.05,-1.2,121
4.05,-1.05,117
4.05,-0.9,116
4.05,-0.75,113
4.05,-0.6,113
4.05,-0.45,118
4.05,-0.3,120
4.05,-0.15,179
4.05,0.0,119
4.05,0.15,122
4.05,0.3,127
4.05,0.45,126
4.05,0.6,52
4.05,0.75,0
4.05,0.9,40
4.05,1.05,130
4.05,1.2,211
4.05,1.35,255
4.05,1.5,255
4.2,-1.5,141
4.2,-1.35,136
4.2,-1.2,129
4.2,-1.05,121
4.2,-0.9,116
4.2,-0.75,113
4.2,-0.6,113
4.2,-0.45,120
4.2,-0.3,131
4.2,-0.15,126
4.2,0.0,129
4.2,0.15,123
4.2,0.3,107
4.2,0.45,146
4.2,0.6,73
4.2,0.75,0
4.2,0.9,50
4.2,1.05,149
4.2,1.2,201
4.2,1.35,247
4.2,1.5,255
4.35,-1.5,145
4.35,-1.35,139
4.35,-1.2,132
4.35,-1.05,123
4.35,-0.9,116
4.35,-0.75,111
4.35,-0.6,108
4.35,-0.45,117
4.35,-0.3,110
4.35,-0.15,110
4.35,0.0,139
4.35,0.15,139
4.35,0.3,139
4.35,0.45,124
4.35,0.6,147
4.35,0.75,82
4.35,0.9,108
4.35,1.05,168
4.35,1.2,197
4.35,1.35,224
4.35,1.5,254
4.5,-1.5,148
4.5,-1.35,143
4.5,-1.2,135
4.5,-1.05,127
4.5,-0.9,118
4.5,-0.75,104
4.5,-0.6,97
4.5,-0.45,108
4.5,-0.3,124
4.5,-0.15,144
4.5,0.0,114
4.5,0.15,125
4.5,0.3,115
4.5,0.45,80
4.5,0.6,129
4.5,0.75,152
4.5,0.9,162
4.5,1.05,167
4.5,1.2,174
4.5,1.35,200
4.5,1.5,236
4.65,-1.5,150
4.65,-1.35,146
4.65,-1.2,140
4.65,-1.05,132
4.65,-0.9,123
4.65,-0.75,114
4.65,-0.6,118
4.65,-0.45,113
4.65,-0.3,144
4.65,-0.15,93
4.65,0.0,155
4.65,0.15,117
4.65,0.3,110
4.65,0.45,123
4.65,0.6,143
4.65,0.75,148
4.65,0.9,142
4.65,1.05,139
4.65,1.2,135
4.65,1.35,154
4.65,1.5,182
4.8,-1.5,150
4.8,-1.35,147
4.8,-1.2,144
4.8,-1.05,137
4.8,-0.9,128
4.8,-0.75,118
4.8,-0.6,109
4.8,-0.45,97
4.8,-0.3,135
4.8,-0.15,121
4.8,0.0,129
4.8,0.15,120
4.8,0.3,152
4.8,0.45,155
4.8,0.6,157
4.8,0.75,121
4.8,0.9,111
4.8,1.05,111
4.8,1.2,116
4.8,1.35,124
4.8,1.5,137
4.95,-1.5,152
4.95,-1.35,151
4.95,-1.2,148
4.95,-1.05,142
4.95,-0.9,133
4.95,-0.75,118
4.95,-0.6,95
4.95,-0.45,109
4.95,-0.3,109
4.95,-0.15,123
4.95,0.0,129
4.95,0.15,114
4.95,0.3,114
4.95,0.45,130
4.95,0.6,120
4.95,0.75,116
4.95,0.9,97
4.95,1.05,88
4.95,1.2,118
4.95,1.35,117
4.95,1.5,115
5.1,-1.5,152
5.1,-1.35,152
5.1,-1.2,151
5.1,-1.05,145
5.1,-0.9,137
5.1,-0.75,125
5.1,-0.6,103
5.1,-0.45,127
5.1,-0.3,148
5.1,-0.15,119
5.1,0.0,106
5.1,0.15,117
5.1,0.3,135
5.1,0.45,133
5.1,0.6,103
5.1,0.75,77
5.1,0.9,72
5.1,1.05,70
5.1,1.2,110
5.1,1.35,90
5.1,1.5,64
5.25,-1.5,152
5.25,-1.35,152
5.25,-1.2,152
5.25,-1.05,150
5.25,-0.9,151
5.25,-0.75,134
5.25,-0.6,109
5.25,-0.45,120
5.25,-0.3,119
5.25,-0.15,127
5.25,0.0,85
5.25,0.15,144
5.25,0.3,117
5.25,0.45,118
5.25,0.6,122
5.25,0.75,106
5.25,0.9,101
5.25,1.05,66
5.25,1.2,63
5.25,1.35,56
5.25,1.5,54
5.4,-1.5,152
5.4,-1.35,152
5.4,-1.2,152
5.4,-1.05,153
5.4,-0.9,166
5.4,-0.75,137
5.4,-0.6,116
5.4,-0.45,121
5.4,-0.3,121
5.4,-0.15,119
5.4,0.0,119
5.4,0.15,126
5.4,0.3,118
5.4,0.45,121
5.4,0.6,127
5.4,0.75,122
5.4,0.9,123
5.4,1.05,64
5.4,1.2,28
5.4,1.35,23
5.4,1.5,35
5.55,-1.5,152
5.55,-1.35,152
5.55,-1.2,147
5.55,-1.05,144
5.55,-0.9,148
5.55,-0.75,126
5.55,-0.6,111
5.55,-0.45,112
5.55,-0.3,116
5.55,-0.15,120
5.55,0.0,120
5.55,0.15,119
5.55,0.3,122
5.55,0.45,113
5.55,0.6,139
5.55,0.75,124
5.55,0.9,107
5.55,1.05,76
5.55,1.2,60
5.55,1.35,53
5.55,1.5,48
5.7,-1.5,148
5.7,-1.35,147
5.7,-1.2,141
5.7,-1.05,137
5.7,-0.9,134
5.7,-0.75,119
5.7,-0.6,106
5.7,-0.45,108
5.7,-0.3,118
5.7,-0.15,121
5.7,0.0,118
5.7,0.15,114
5.7,0.3,109
5.7,0.45,118
5.7,0.6,127
5.7,0.75,129
5.7,0.9,110
5.7,1.05,117
5.7,1.2,119
5.7,1.35,119
5.7,1.5,113
5.85,-1.5,133
5.85,-1.35,132
5.85,-1.2,117
5.85,-1.05,118
5.85,-0.9,123
5.85,-0.75,117
5.85,-0.6,112
5.85,-0.45,117
5.85,-0.3,118
5.85,-0.15,124
5.85,0.0,129
5.85,0.15,120
5.85,0.3,109
5.85,0.45,132
5.85,0.6,148
5.85,0.75,178
5.85,0.9,123
5.85,1.05,148
5.85,1.2,154
5.85,1.35,150
5.85,1.5,143
6.0,-1.5,125
6.0,-1.35,123
6.0,-1.2,110
6.0,-1.05,112
6.0,-0.9,121
6.0,-0.75,117
6.0,-0.6,118
6.0,-0.45,116
6.0,-0.3,121
6.0,-0.15,119
6.0,0.0,121
6.0,0.15,115
6.0,0.3,109
6.0,0.45,111
6.0,0.6,172
6.0,0.75,150
6.0,0.9,114
6.0,1.05,141
6.0,1.2,154
6.0,1.35,157
6.0,1.5,155
6.15,-1.5,114
6.15,-1.35,113
6.15,-1.2,110
6.15,-1.05,112
6.15,-0.9,116
6.15,-0.75,113
6.15,-0.6,118
6.15,-0.45,118
6.15,-0.3,118
6.15,-0.15,118
6.15,0.0,137
6.15,0.15,116
6.15,0.3,117
6.15,0.45,104
6.15,0.6,92
6.15,0.75,114
6.15,0.9,115
6.15,1.05,137
6.15,1.2,163
6.15,1.35,184
6.15,1.5,200
6.3,-1.5,108
6.3,-1.35,108
6.3,-1.2,109
6.3,-1.05,109
6.3,-0.9,110
6.3,-0.75,107
6.3,-0.6,107
6.3,-0.45,117
6.3,-0.3,120
6.3,-0.15,120
6.3,0.0,122
6.3,0.15,116
6.3,0.3,115
6.3,0.45,135
6.3,0.6,118
6.3,0.75,137
6.3,0.9,145
6.3,1.05,160
6.3,1.2,169
6.3,1.35,189
6.3,1.5,209
6.45,-1.5,88
6.45,-1.35,94
6.45,-1.2,107
6.45,-1.05,107
6.45,-0.9,107
6.45,-0.75,107
6.45,-0.6,107
6.45,-0.45,115
6.45,-0.3,120
6.45,-0.15,118
6.45,0.0,116
6.45,0.15,127
6.45,0.3,127
6.45,0.45,115
6.45,0.6,92
6.45,0.75,143
6.45,0.9,137
6.45,1.05,143
6.45,1.2,169
6.45,1.35,197
6.45,1.5,228
6.6,-1.5,67
6.6,-1.35,79
6.6,-1.2,102
6.6,-1.05,105
6.6,-0.9,107
6.6,-0.75,107
6.6,-0.6,121
6.6,-0.45,132
6.6,-0.3,128
6.6,-0.15,116
6.6,0.0,122
6.6,0.15,122
6.6,0.3,115
6.6,0.45,119
6.6,0.6,129
6.6,0.75,138
6.6,0.9,130
6.6,1.05,130
6.6,1.2,155
6.6,1.35,173
6.6,1.5,193
6.75,-1.5,40
6.75,-1.35,63
6.75,-1.2,91
6.75,-1.05,100
6.75,-0.9,107
6.75,-0.75,112
6.75,-0.6,118
6.75,-0.45,70
6.75,-0.3,121
6.75,-0.15,119
6.75,0.0,130
6.75,0.15,120
6.75,0.3,117
6.75,0.45,120
6.75,0.6,92
6.75,0.75,117
6.75,0.9,124
6.75,1.05,108
6.75,1.2,112
6.75,1.35,103
6.75,1.5,92
6.9,-1.5,30
6.9,-1.35,53
6.9,-1.2,83
6.9,-1.05,98
6.9,-0.9,109
6.9,-0.75,116
6.9,-0.6,115
6.9,-0.45,0
6.9,-0.3,118
6.9,-0.15,118
6.9,0.0,107
6.9,0.15,117
6.9,0.3,120
6.9,0.45,118
6.9,0.6,100
6.9,0.75,109
6.9,0.9,115
6.9,1.05,103
6.9,1.2,113
6.9,1.35,112
6.9,1.5,112
7.05,-1.5,22
7.05,-1.35,40
7.05,-1.2,74
7.05,-1.05,100
7.05,-0.9,108
7.05,-0.75,118
7.05,-0.6,117
7.05,-0.45,0
7.05,-0.3,122
7.05,-0.15,118
7.05,0.0,121
7.05,0.15,115
7.05,0.3,119
7.05,0.45,120
7.05,0.6,118
7.05,0.75,128
7.05,0.9,107
7.05,1.05,97
7.05,1.2,130
7.05,1.35,150
7.05,1.5,168
7.2,-1.5,4
7.2,-1.35,29
7.2,-1.2,62
7.2,-1.05,98
7.2,-0.9,124
7.2,-0.75,127
7.2,-0.6,120
7.2,-0.45,72
7.2,-0.3,130
7.2,-0.15,121
7.2,0.0,121
7.2,0.15,118
7.2,0.3,112
7.2,0.45,112
7.2,0.6,112
7.2,0.75,117
7.2,0.9,97
7.2,1.05,97
7.2,1.2,138
7.2,1.35,165
7.2,1.5,189
7.35,-1.5,0
7.35,-1.35,18
7.35,-1.2,51
7.35,-1.05,92
7.35,-0.9,145
7.35,-0.75,141
7.35,-0.6,124
7.35,-0.45,116
7.35,-0.3,129
7.35,-0.15,125
7.35,0.0,108
7.35,0.15,129
7.35,0.3,120
7.35,0.45,112
7.35,0.6,120
7.35,0.75,97
7.35,0.9,99
7.35,1.05,122
7.35,1.2,150
7.35,1.35,179
7.35,1.5,206
7.5,-1.5,0
7.5,-1.35,23
7.5,-1.2,54
7.5,-1.05,88
7.5,-0.9,126
7.5,-0.75,152
7.5,-0.6,146
7.5,-0.45,118
7.5,-0.3,116
7.5,-0.15,72
7.5,0.0,100
7.5,0.15,140
7.5,0.3,116
7.5,0.45,115
7.5,0.6,123
7.5,0.75,91
7.5,0.9,80
7.5,1.05,86
7.5,1.2,114
7.5,1.35,119
7.5,1.5,119
7.65,-1.5,11
7.65,-1.35,36
7.65,-1.2,57
7.65,-1.05,89
7.65,-0.9,120
7.65,-0.75,137
7.65,-0.6,132
7.65,-0.45,118
7.65,-0.3,120
7.65,-0.15,121
7.65,0.0,134
7.65,0.15,143
7.65,0.3,134
7.65,0.45,123
7.65,0.6,120
7.65,0.75,114
7.65,0.9,78
7.65,1.05,55
7.65,1.2,89
7.65,1.35,76
7.65,1.5,58
7.8,-1.5,96
7.8,-1.35,98
7.8,-1.2,79
7.8,-1.05,98
7.8,-0.9,116
7.8,-0.75,114
7.8,-0.6,88
7.8,-0.45,78
7.8,-0.3,125
7.8,-0.15,119
7.8,0.0,132
7.8,0.15,125
7.8,0.3,116
7.8,0.45,116
7.8,0.6,118
7.8,0.75,134
7.8,0.9,97
7.8,1.05,62
7.8,1.2,46
7.8,1.35,4
7.8,1.5,0
7.95,-1.5,116
7.95,-1.35,113
7.95,-1.2,93
7.95,-1.05,107
7.95,-0.9,119
7.95,-0.75,113
7.95,-0.6,94
7.95,-0.45,74
7.95,-0.3,132
7.95,-0.15,122
7.95,0.0,119
7.95,0.15,144
7.95,0.3,135
7.95,0.45,147
7.95,0.6,114
7.95,0.75,98
7.95,0.9,93
7.95,1.05,80
7.95,1.2,44
7.95,1.35,0
7.95,1.5,0
8.1,-1.5,51
8.1,-1.35,72
8.1,-1.2,93
8.1,-1.05,113
8.1,-0.9,121
8.1,-0.75,115
8.1,-0.6,102
8.1,-0.45,80
8.1,-0.3,117
8.1,-0.15,117
8.1,0.0,123
8.1,0.15,124
8.1,0.3,122
8.1,0.45,145
8.1,0.6,110
8.1,0.75,93
8.1,0.9,100
8.1,1.05,111
8.1,1.2,52
8.1,1.35,7
8.1,1.5,0
8.25,-1.5,42
8.25,-1.35,66
8.25,-1.2,95
8.25,-1.05,113
8.25,-0.9,121
8.25,-0.75,118
8.25,-0.6,120
8.25,-0.45,108
8.25,-0.3,117
8.25,-0.15,119
8.25,0.0,139
8.25,0.15,126
8.25,0.3,122
8.25,0.45,125
8.25,0.6,106
8.25,0.75,125
8.25,0.9,117
8.25,1.05,112
8.25,1.2,66
8.25,1.35,35
8.25,1.5,6
8.4,-1.5,52
8.4,-1.35,71
8.4,-1.2,96
8.4,-1.05,115
8.4,-0.9,124
8.4,-0.75,120
8.4,-0.6,120
8.4,-0.45,120
8.4,-0.3,111
8.4,-0.15,124
8.4,0.0,112
8.4,0.15,120
8.4,0.3,121
8.4,0.45,112
8.4,0.6,117
8.4,0.75,131
8.4,0.9,129
8.4,1.05,117
8.4,1.2,118
8.4,1.35,124
8.4,1.5,132
8.55,-1.5,74
8.55,-1.35,87
8.55,-1.2,107
8.55,-1.05,118
8.55,-0.9,124
8.55,-0.75,119
8.55,-0.6,111
8.55,-0.45,111
8.55,-0.3,115
8.55,-0.15,124
8.55,0.0,122
8.55,0.15,112
8.55,0.3,116
8.55,0.45,118
8.55,0.6,130
8.55,0.75,132
8.55,0.9,129
8.55,1.05,119
8.55,1.2,114
8.55,1.35,113
8.55,1.5,114
8.7,-1.5,128
8.7,-1.35,130
8.7,-1.2,137
8.7,-1.05,130
8.7,-0.9,122
8.7,-0.75,122
8.7,-0.6,116
8.7,-0.45,121
8.7,-0.3,121
8.7,-0.15,119
8.7,0.0,108
8.7,0.15,133
8.7,0.3,119
8.7,0.45,103
8.7,0.6,116
8.7,0.75,122
8.7,0.9,116
8.7,1.05,106
8.7,1.2,94
8.7,1.35,78
8.7,1.5,62
8.85,-1.5,132
8.85,-1.35,134
8.85,-1.2,137
8.85,-1.05,129
8.85,-0.9,121
8.85,-0.75,122
8.85,-0.6,121
8.85,-0.45,119
8.85,-0.3,116
8.85,-0.15,124
8.85,0.0,115
8.85,0.15,120
8.85,0.3,141
8.85,0.45,116
8.85,0.6,114
8.85,0.75,115
8.85,0.9,111
8.85,1.05,99
8.85,1.2,84
8.85,1.35,67
8.85,1.5,51
9.0,-1.5,133
9.0,-1.35,133
9.0,-1.2,137
9.0,-1.05,127
9.0,-0.9,118
9.0,-0.75,112
9.0,-0.6,126
9.0,-0.45,138
9.0,-0.3,129
9.0,-0.15,116
9.0,0.0,118
9.0,0.15,115
9.0,0.3,115
9.0,0.45,127
9.0,0.6,137
9.0,0.75,128
9.0,0.9,104
9.0,1.05,83
9.0,1.2,72
9.0,1.35,60
9.0,1.5,49
9.15,-1.5,162
9.15,-1.35,150
9.15,-1.2,147
9.15,-1.05,125
9.15,-0.9,108
9.15,-0.75,96
9.15,-0.6,100
9.15,-0.45,115
9.15,-0.3,116
9.15,-0.15,116
9.15,0.0,119
9.15,0.15,131
9.15,0.3,137
9.15,0.45,118
9.15,0.6,136
9.15,0.75,122
9.15,0.9,92
9.15,1.05,72
9.15,1.2,69
9.15,1.35,65
9.15,1.5,61
9.3,-1.5,204
9.3,-1.35,179
9.3,-1.2,164
9.3,-1.05,131
9.3,-0.9,107
9.3,-0.75,94
9.3,-0.6,92
9.3,-0.45,116
9.3,-0.3,124
9.3,-0.15,119
9.3,0.0,116
9.3,0.15,116
9.3,0.3,116
9.3,0.45,119
9.3,0.6,104
9.3,0.75,85
9.3,0.9,75
9.3,1.05,68
9.3,1.2,66
9.3,1.35,67
9.3,1.5,67
9.45,-1.5,220
9.45,-1.35,194
9.45,-1.2,170
9.45,-1.05,144
9.45,-0.9,122
9.45,-0.75,109
9.45,-0.6,111
9.45,-0.45,114
9.45,-0.3,120
9.45,-0.15,131
9.45,0.0,125
9.45,0.15,118
9.45,0.3,118
9.45,0.45,118
9.45,0.6,102
9.45,0.75,74
9.45,0.9,62
9.45,1.05,54
9.45,1.2,56
9.45,1.35,52
9.45,1.5,48
9.6,-1.5,230
9.6,-1.35,206
9.6,-1.2,182
9.6,-1.05,163
9.6,-0.9,145
9.6,-0.75,127
9.6,-0.6,122
9.6,-0.45,117
9.6,-0.3,118
9.6,-0.15,126
9.6,0.0,154
9.6,0.15,128
9.6,0.3,118
9.6,0.45,115
9.6,0.6,110
9.6,0.75,85
9.6,0.9,69
9.6,1.05,55
9.6,1.2,54
9.6,1.35,46
9.6,1.5,38
9.75,-1.5,195
9.75,-1.35,187
9.75,-1.2,183
9.75,-1.05,172
9.75,-0.9,157
9.75,-0.75,142
9.75,-0.6,134
9.75,-0.45,131
9.75,-0.3,130
9.75,-0.15,97
9.75,0.0,175
9.75,0.15,156
9.75,0.3,116
9.75,0.45,118
9.75,0.6,116
9.75,0.75,104
9.75,0.9,95
9.75,1.05,82
9.75,1.2,54
9.75,1.35,40
9.75,1.5,31
9.9,-1.5,173
9.9,-1.35,176
9.9,-1.2,182
9.9,-1.05,179
9.9,-0.9,169
9.9,-0.75,152
9.9,-0.6,130
9.9,-0.45,134
9.9,-0.3,132
9.9,-0.15,117
9.9,0.0,113
9.9,0.15,103
9.9,0.3,120
9.9,0.45,128
9.9,0.6,119
9.9,0.75,105
9.9,0.9,94
9.9,1.05,84
9.9,1.2,60
9.9,1.35,46
9.9,1.5,37
10.05,-1.5,144
10.05,-1.35,158
10.05,-1.2,170
10.05,-1.05,174
10.05,-0.9,170
10.05,-0.75,160
10.05,-0.6,128
10.05,-0.45,119
10.05,-0.3,124
10.05,-0.15,131
10.05,0.0,101
10.05,0.15,116
10.05,0.3,132
10.05,0.45,134
10.05,0.6,118
10.05,0.75,97
10.05,0.9,81
10.05,1.05,75
10.05,1.2,83
10.05,1.35,80
10.05,1.5,77
10.2,-1.5,136
10.2,-1.35,152
10.2,-1.2,167
10.2,-1.05,176
10.2,-0.9,178
10.2,-0.75,169
10.2,-0.6,130
10.2,-0.45,108
10.2,-0.3,117
10.2,-0.15,132
10.2,0.0,135
10.2,0.15,126
10.2,0.3,124
10.2,0.45,125
10.2,0.6,105
10.2,0.75,83
10.2,0.9,75
10.2,1.05,75
10.2,1.2,82
10.2,1.35,83
10.2,1.5,83
10.35,-1.5,118
10.35,-1.35,131
10.35,-1.2,159
10.35,-1.05,176
10.35,-0.9,188
10.35,-0.75,178
10.35,-0.6,151
10.35,-0.45,131
10.35,-0.3,127
10.35,-0.15,131
10.35,0.0,104
10.35,0.15,141
10.35,0.3,115
10.35,0.45,117
10.35,0.6,101
10.35,0.75,87
10.35,0.9,80
10.35,1.05,75
10.35,1.2,76
10.35,1.35,77
10.35,1.5,78
10.5,-1.5,111
10.5,-1.35,119
10.5,-1.2,145
10.5,-1.05,161
10.5,-0.9,173
10.5,-0.75,173
10.5,-0.6,155
10.5,-0.45,130
10.5,-0.3,122
10.5,-0.15,142
10.5,0.0,132
10.5,0.15,120
10.5,0.3,115
10.5,0.45,128
10.5,0.6,125
10.5,0.75,106
10.5,0.9,89
10.5,1.05,76
10.5,1.2,75
10.5,1.35,75
10.5,1.5,76
10.65,-1.5,111
10.65,-1.35,113
10.65,-1.2,122
10.65,-1.05,130
10.65,-0.9,145
10.65,-0.75,154
10.65,-0.6,154
10.65,-0.45,122
10.65,-0.3,123
10.65,-0.15,98
10.65,0.0,130
10.65,0.15,128
10.65,0.3,128
10.65,0.45,110
10.65,0.6,128
10.65,0.75,114
10.65,0.9,87
10.65,1.05,71
10.65,1.2,71
10.65,1.35,69
10.65,1.5,68
10.8,-1.5,108
10.8,-1.35,107
10.8,-1.2,110
10.8,-1.05,111
10.8,-0.9,118
10.8,-0.75,128
10.8,-0.6,135
10.8,-0.45,122
10.8,-0.3,126
10.8,-0.15,117
10.8,0.0,99
10.8,0.15,120
10.8,0.3,128
10.8,0.45,106
10.8,0.6,118
10.8,0.75,112
10.8,0.9,99
10.8,1.05,85
10.8,1.2,75
10.8,1.35,68
10.8,1.5,63
10.95,-1.5,97
10.95,-1.35,101
10.95,-1.2,116
10.95,-1.05,112
10.95,-0.9,111
10.95,-0.75,121
10.95,-0.6,120
10.95,-0.45,116
10.95,-0.3,135
10.95,-0.15,113
10.95,0.0,105
10.95,0.15,110
10.95,0.3,124
10.95,0.45,119
10.95,0.6,118
10.95,0.75,112
10.95,0.9,110
10.95,1.05,103
10.95,1.2,87
10.95,1.35,77
10.95,1.5,69
11.1,-1.5,102
11.1,-1.35,107
11.1,-1.2,129
11.1,-1.05,127
11.1,-0.9,127
11.1,-0.75,142
11.1,-0.6,135
11.1,-0.45,113
11.1,-0.3,113
11.1,-0.15,151
11.1,0.0,118
11.1,0.15,112
11.1,0.3,119
11.1,0.45,127
11.1,0.6,129
11.1,0.75,128
11.1,0.9,124
11.1,1.05,121
11.1,1.2,114
11.1,1.35,109
11.1,1.5,105
11.25,-1.5,111
11.25,-1.35,112
11.25,-1.2,136
11.25,-1.05,142
11.25,-0.9,151
11.25,-0.75,164
11.25,-0.6,156
11.25,-0.45,123
11.25,-0.3,114
11.25,-0.15,147
11.25,0.0,101
11.25,0.15,99
11.25,0.3,118
11.25,0.45,133
11.25,0.6,145
11.25,0.75,157
11.25,0.9,146
11.25,1.05,143
11.25,1.2,140
11.25,1.35,140
11.25,1.5,140
11.4,-1.5,112
11.4,-1.35,111
11.4,-1.2,121
11.4,-1.05,141
11.4,-0.9,189
11.4,-0.75,173
11.4,-0.6,144
11.4,-0.45,120
11.4,-0.3,122
11.4,-0.15,115
11.4,0.0,109
11.4,0.15,106
11.4,0.3,116
11.4,0.45,135
11.4,0.6,162
11.4,0.75,177
11.4,0.9,178
11.4,1.05,178
11.4,1.2,151
11.4,1.35,146
11.4,1.5,145
11.55,-1.5,112
11.55,-1.35,112
11.55,-1.2,111
11.55,-1.05,130
11.55,-0.9,175
11.55,-0.75,152
11.55,-0.6,118
11.55,-0.45,117
11.55,-0.3,145
11.55,-0.15,121
11.55,0.0,131
11.55,0.15,117
11.55,0.3,114
11.55,0.45,126
11.55,0.6,154
11.55,0.75,157
11.55,0.9,189
11.55,1.05,204
11.55,1.2,157
11.55,1.35,150
11.55,1.5,148
11.7,-1.5,111
11.7,-1.35,111
11.7,-1.2,111
11.7,-1.05,125
11.7,-0.9,149
11.7,-0.75,137
11.7,-0.6,134
11.7,-0.45,122
11.7,-0.3,117
11.7,-0.15,106
11.7,0.0,136
11.7,0.15,128
11.7,0.3,129
11.7,0.45,114
11.7,0.6,120
11.7,0.75,144
11.7,0.9,191
11.7,1.05,215
11.7,1.2,201
11.7,1.35,213
11.7,1.5,228
11.85,-1.5,111
11.85,-1.35,111
11.85,-1.2,112
11.85,-1.05,125
11.85,-0.9,135
11.85,-0.75,124
11.85,-0.6,137
11.85,-0.45,132
11.85,-0.3,120
11.85,-0.15,167
11.85,0.0,152
11.85,0.15,141
11.85,0.3,157
11.85,0.45,135
11.85,0.6,114
11.85,0.75,133
11.85,0.9,177
11.85,1.05,208
11.85,1.2,215
11.85,1.35,239
11.85,1.5,255
12.0,-1.5,111
12.0,-1.35,113
12.0,-1.2,114
12.0,-1.05,125
12.0,-0.9,131
12.0,-0.75,119
12.0,-0.6,119
12.0,-0.45,123
12.0,-0.3,125
12.0,-0.15,160
12.0,0.0,159
12.0,0.15,133
12.0,0.3,114
12.0,0.45,114
12.0,0.6,114
12.0,0.75,118
12.0,0.9,140
12.0,1.05,165
12.0,1.2,201
12.0,1.35,228
12.0,1.5,252
12.15,-1.5,113
12.15,-1.35,115
12.15,-1.2,116
12.15,-1.05,125
12.15,-0.9,131
12.15,-0.75,128
12.15,-0.6,119
12.15,-0.45,125
12.15,-0.3,120
12.15,-0.15,123
12.15,0.0,152
12.15,0.15,125
12.15,0.3,114
12.15,0.45,120
12.15,0.6,120
12.15,0.75,128
12.15,0.9,142
12.15,1.05,162
12.15,1.2,193
12.15,1.35,215
12.15,1.5,234
12.3,-1.5,114
12.3,-1.35,117
12.3,-1.2,118
12.3,-1.05,124
12.3,-0.9,131
12.3,-0.75,131
12.3,-0.6,116
12.3,-0.45,109
12.3,-0.3,117
12.3,-0.15,114
12.3,0.0,127
12.3,0.15,114
12.3,0.3,117
12.3,0.45,114
12.3,0.6,114
12.3,0.75,131
12.3,0.9,159
12.3,1.05,173
12.3,1.2,140
12.3,1.35,127
12.3,1.5,114
12.45,-1.5,116
12.45,-1.35,117
12.45,-1.2,118
12.45,-1.05,120
12.45,-0.9,124
12.45,-0.75,121
12.45,-0.6,121
12.45,-0.45,122
12.45,-0.3,138
12.45,-0.15,117
12.45,0.0,114
12.45,0.15,118
12.45,0.3,119
12.45,0.45,116
12.45,0.6,121
12.45,0.75,154
12.45,0.9,190
12.45,1.05,206
12.45,1.2,134
12.45,1.35,107
12.45,1.5,84
12.6,-1.5,117
12.6,-1.35,117
12.6,-1.2,115
12.6,-1.05,114
12.6,-0.9,110
12.6,-0.75,110
12.6,-0.6,120
12.6,-0.45,120
12.6,-0.3,117
12.6,-0.15,117
12.6,0.0,114
12.6,0.15,116
12.6,0.3,118
12.6,0.45,150
12.6,0.6,179
12.6,0.75,205
12.6,0.9,237
12.6,1.05,249
12.6,1.2,143
12.6,1.35,104
12.6,1.5,72
12.75,-1.5,117
12.75,-1.35,115
12.75,-1.2,112
12.75,-1.05,108
12.75,-0.9,104
12.75,-0.75,110
12.75,-0.6,118
12.75,-0.45,120
12.75,-0.3,120
12.75,-0.15,117
12.75,0.0,116
12.75,0.15,114
12.75,0.3,118
12.75,0.45,172
12.75,0.6,220
12.75,0.75,250
12.75,0.9,255
12.75,1.05,254
12.75,1.2,166
12.75,1.35,127
12.75,1.5,96
12.9,-1.5,117
12.9,-1.35,115
12.9,-1.2,106
12.9,-1.05,103
12.9,-0.9,107
12.9,-0.75,113
12.9,-0.6,118
12.9,-0.45,119
12.9,-0.3,117
12.9,-0.15,117
12.9,0.0,117
12.9,0.15,115
12.9,0.3,126
12.9,0.45,188
12.9,0.6,237
12.9,0.75,255
12.9,0.9,234
12.9,1.05,200
12.9,1.2,172
12.9,1.35,143
12.9,1.5,116
13.05,-1.5,116
13.05,-1.35,115
13.05,-1.2,107
13.05,-1.05,106
13.05,-0.9,114
13.05,-0.75,116
13.05,-0.6,116
13.05,-0.45,117
13.05,-0.3,117
13.05,-0.15,117
13.05,0.0,118
13.05,0.15,118
13.05,0.3,135
13.05,0.45,204
13.05,0.6,250
13.05,0.75,255
13.05,0.9,234
13.05,1.05,197
13.05,1.2,172
13.05,1.35,143
13.05,1.5,116
