-3.0,-1.5,75
-3.0,-1.35,70
-3.0,-1.2,63
-3.0,-1.05,58
-3.0,-0.9,58
-3.0,-0.75,84
-3.0,-0.6,86
-3.0,-0.45,64
-3.0,-0.3,73
-3.0,-0.15,77
-3.0,0.0,77
-3.0,0.15,77
-3.0,0.3,77
-3.0,0.45,77
-3.0,0.6,77
-3.0,0.75,77
-3.0,0.9,77
-3.0,1.05,77
-3.0,1.2,77
-3.0,1.35,77
-3.0,1.5,77
-2.85,-1.5,74
-2.85,-1.35,69
-2.85,-1.2,64
-2.85,-1.05,60
-2.85,-0.9,58
-2.85,-0.75,78
-2.85,-0.6,82
-2.85,-0.45,69
-2.85,-0.3,80
-2.85,-0.15,83
-2.85,0.0,80
-2.85,0.15,78
-2.85,0.3,78
-2.85,0.45,78
-2.85,0.6,77
-2.85,0.75,77
-2.85,0.9,77
-2.85,1.05,77
-2.85,1.2,77
-2.85,1.35,78
-2.85,1.5,80
-2.7,-1.5,73
-2.7,-1.35,68
-2.7,-1.2,65
-2.7,-1.05,60
-2.7,-0.9,58
-2.7,-0.75,70
-2.7,-0.6,76
-2.7,-0.45,74
-2.7,-0.3,87
-2.7,-0.15,87
-2.7,0.0,80
-2.7,0.15,77
-2.7,0.3,78
-2.7,0.45,78
-2.7,0.6,78
-2.7,0.75,77
-2.7,0.9,79
-2.7,1.05,79
-2.7,1.2,82
-2.7,1.35,84
-2.7,1.5,86
-2.55,-1.5,65
-2.55,-1.35,64
-2.55,-1.2,62
-2.55,-1.05,59
-2.55,-0.9,58
-2.55,-0.75,58
-2.55,-0.6,62
-2.55,-0.45,76
-2.55,-0.3,90
-2.55,-0.15,86
-2.55,0.0,72
-2.55,0.15,69
-2.55,0.3,77
-2.55,0.45,78
-2.55,0.6,76
-2.55,0.75,78
-2.55,0.9,81
-2.55,1.05,84
-2.55,1.2,87
-2.55,1.35,90
-2.55,1.5,92
-2.4,-1.5,60
-2.4,-1.35,60
-2.4,-1.2,61
-2.4,-1.05,59
-2.4,-0.9,58
-2.4,-0.75,58
-2.4,-0.6,58
-2.4,-0.45,72
-2.4,-0.3,93
-2.4,-0.15,87
-2.4,0.0,60
-2.4,0.15,57
-2.4,0.3,70
-2.4,0.45,77
-2.4,0.6,76
-2.4,0.75,79
-2.4,0.9,85
-2.4,1.05,89
-2.4,1.2,92
-2.4,1.35,94
-2.4,1.5,94
-2.25,-1.5,55
-2.25,-1.35,55
-2.25,-1.2,57
-2.25,-1.05,58
-2.25,-0.9,58
-2.25,-0.75,58
-2.25,-0.6,58
-2.25,-0.45,67
-2.25,-0.3,88
-2.25,-0.15,84
-2.25,0.0,57
-2.25,0.15,55
-2.25,0.3,67
-2.25,0.45,74
-2.25,0.6,76
-2.25,0.75,82
-2.25,0.9,89
-2.25,1.05,95
-2.25,1.2,94
-2.25,1.35,92
-2.25,1.5,92
-2.1,-1.5,54
-2.1,-1.35,55
-2.1,-1.2,56
-2.1,-1.05,60
-2.1,-0.9,61
-2.1,-0.75,59
-2.1,-0.6,61
-2.1,-0.45,71
-2.1,-0.3,85
-2.1,-0.15,87
-2.1,0.0,73
-2.1,0.15,65
-2.1,0.3,68
-2.1,0.45,72
-2.1,0.6,75
-2.1,0.75,84
-2.1,0.9,93
-2.1,1.05,98
-2.1,1.2,98
-2.1,1.35,96
-2.1,1.5,94
-1.95,-1.5,55
-1.95,-1.35,55
-1.95,-1.2,56
-1.95,-1.05,62
-1.95,-0.9,67
-1.95,-0.75,66
-1.95,-0.6,72
-1.95,-0.45,78
-1.95,-0.3,83
-1.95,-0.15,83
-1.95,0.0,78
-1.95,0.15,75
-1.95,0.3,78
-1.95,0.45,76
-1.95,0.6,75
-1.95,0.75,86
-1.95,0.9,95
-1.95,1.05,99
-1.95,1.2,99
-1.95,1.35,98
-1.95,1.5,96
-1.8,-1.5,64
-1.8,-1.35,64
-1.8,-1.2,64
-1.8,-1.05,66
-1.8,-0.9,70
-1.8,-0.75,74
-1.8,-0.6,80
-1.8,-0.45,83
-1.8,-0.3,81
-1.8,-0.15,77
-1.8,0.0,75
-1.8,0.15,77
-1.8,0.3,82
-1.8,0.45,81
-1.8,0.6,83
-1.8,0.75,89
-1.8,0.9,96
-1.8,1.05,102
-1.8,1.2,98
-1.8,1.35,96
-1.8,1.5,94
-1.65,-1.5,67
-1.65,-1.35,67
-1.65,-1.2,67
-1.65,-1.05,69
-1.65,-0.9,72
-1.65,-0.75,76
-1.65,-0.6,82
-1.65,-0.45,83
-1.65,-0.3,82
-1.65,-0.15,80
-1.65,0.0,78
-1.65,0.15,78
-1.65,0.3,82
-1.65,0.45,85
-1.65,0.6,86
-1.65,0.75,88
-1.65,0.9,92
-1.65,1.05,99
-1.65,1.2,96
-1.65,1.35,94
-1.65,1.5,94
-1.5,-1.5,67
-1.5,-1.35,67
-1.5,-1.2,68
-1.5,-1.05,69
-1.5,-0.9,72
-1.5,-0.75,78
-1.5,-0.6,81
-1.5,-0.45,81
-1.5,-0.3,82
-1.5,-0.15,81
-1.5,0.0,82
-1.5,0.15,82
-1.5,0.3,81
-1.5,0.45,80
-1.5,0.6,80
-1.5,0.75,83
-1.5,0.9,87
-1.5,1.05,89
-1.5,1.2,93
-1.5,1.35,96
-1.5,1.5,96
-1.35,-1.5,69
-1.35,-1.35,68
-1.35,-1.2,68
-1.35,-1.05,69
-1.35,-0.9,71
-1.35,-0.75,75
-1.35,-0.6,77
-1.35,-0.45,78
-1.35,-0.3,79
-1.35,-0.15,80
-1.35,0.0,82
-1.35,0.15,82
-1.35,0.3,80
-1.35,0.45,79
-1.35,0.6,79
-1.35,0.75,79
-1.35,0.9,81
-1.35,1.05,82
-1.35,1.2,88
-1.35,1.35,92
-1.35,1.5,95
-1.2,-1.5,74
-1.2,-1.35,71
-1.2,-1.2,68
-1.2,-1.05,68
-1.2,-0.9,69
-1.2,-0.75,71
-1.2,-0.6,72
-1.2,-0.45,74
-1.2,-0.3,75
-1.2,-0.15,77
-1.2,0.0,82
-1.2,0.15,82
-1.2,0.3,79
-1.2,0.45,79
-1.2,0.6,79
-1.2,0.75,79
-1.2,0.9,79
-1.2,1.05,80
-1.2,1.2,83
-1.2,1.35,87
-1.2,1.5,91
-1.05,-1.5,75
-1.05,-1.35,74
-1.05,-1.2,72
-1.05,-1.05,70
-1.05,-0.9,69
-1.05,-0.75,69
-1.05,-0.6,70
-1.05,-0.45,72
-1.05,-0.3,74
-1.05,-0.15,75
-1.05,0.0,81
-1.05,0.15,82
-1.05,0.3,79
-1.05,0.45,79
-1.05,0.6,79
-1.05,0.75,80
-1.05,0.9,80
-1.05,1.05,79
-1.05,1.2,77
-1.05,1.35,77
-1.05,1.5,77
-0.9,-1.5,75
-0.9,-1.35,75
-0.9,-1.2,75
-0.9,-1.05,72
-0.9,-0.9,69
-0.9,-0.75,69
-0.9,-0.6,69
-0.9,-0.45,71
-0.9,-0.3,74
-0.9,-0.15,77
-0.9,0.0,82
-0.9,0.15,82
-0.9,0.3,79
-0.9,0.45,79
-0.9,0.6,80
-0.9,0.75,80
-0.9,0.9,79
-0.9,1.05,78
-0.9,1.2,76
-0.9,1.35,76
-0.9,1.5,76
-0.75,-1.5,83
-0.75,-1.35,80
-0.75,-1.2,74
-0.75,-1.05,72
-0.75,-0.9,70
-0.75,-0.75,69
-0.75,-0.6,69
-0.75,-0.45,70
-0.75,-0.3,73
-0.75,-0.15,77
-0.75,0.0,81
-0.75,0.15,82
-0.75,0.3,80
-0.75,0.45,80
-0.75,0.6,80
-0.75,0.75,79
-0.75,0.9,77
-0.75,1.05,76
-0.75,1.2,76
-0.75,1.35,76
-0.75,1.5,76
-0.6,-1.5,89
-0.6,-1.35,84
-0.6,-1.2,76
-0.6,-1.05,74
-0.6,-0.9,72
-0.6,-0.75,71
-0.6,-0.6,69
-0.6,-0.45,69
-0.6,-0.3,73
-0.6,-0.15,75
-0.6,0.0,77
-0.6,0.15,78
-0.6,0.3,78
-0.6,0.45,78
-0.6,0.6,77
-0.6,0.75,76
-0.6,0.9,76
-0.6,1.05,76
-0.6,1.2,77
-0.6,1.35,77
-0.6,1.5,77
-0.45,-1.5,96
-0.45,-1.35,91
-0.45,-1.2,83
-0.45,-1.05,79
-0.45,-0.9,77
-0.45,-0.75,76
-0.45,-0.6,74
-0.45,-0.45,73
-0.45,-0.3,76
-0.45,-0.15,77
-0.45,0.0,76
-0.45,0.15,77
-0.45,0.3,78
-0.45,0.45,79
-0.45,0.6,76
-0.45,0.75,76
-0.45,0.9,76
-0.45,1.05,76
-0.45,1.2,78
-0.45,1.35,79
-0.45,1.5,79
-0.3,-1.5,101
-0.3,-1.35,95
-0.3,-1.2,81
-0.3,-1.05,80
-0.3,-0.9,80
-0.3,-0.75,79
-0.3,-0.6,79
-0.3,-0.45,81
-0.3,-0.3,79
-0.3,-0.15,77
-0.3,0.0,76
-0.3,0.15,77
-0.3,0.3,80
-0.3,0.45,82
-0.3,0.6,78
-0.3,0.75,76
-0.3,0.9,76
-0.3,1.05,77
-0.3,1.2,79
-0.3,1.35,80
-0.3,1.5,81
-0.15,-1.5,102
-0.15,-1.35,96
-0.15,-1.2,80
-0.15,-1.05,81
-0.15,-0.9,83
-0.15,-0.75,82
-0.15,-0.6,83
-0.15,-0.45,83
-0.15,-0.3,82
-0.15,-0.15,80
-0.15,0.0,77
-0.15,0.15,77
-0.15,0.3,83
-0.15,0.45,83
-0.15,0.6,82
-0.15,0.75,77
-0.15,0.9,76
-0.15,1.05,76
-0.15,1.2,79
-0.15,1.35,83
-0.15,1.5,85
0.0,-1.5,88
0.0,-1.35,87
0.0,-1.2,84
0.0,-1.05,84
0.0,-0.9,83
0.0,-0.75,83
0.0,-0.6,83
0.0,-0.45,83
0.0,-0.3,83
0.0,-0.15,83
0.0,0.0,83
0.0,0.15,83
0.0,0.3,77
0.0,0.45,78
0.0,0.6,78
0.0,0.75,76
0.0,0.9,76
0.0,1.05,76
0.0,1.2,81
0.0,1.35,82
0.0,1.5,80
0.15,-1.5,82
0.15,-1.35,83
0.15,-1.2,84
0.15,-1.05,83
0.15,-0.9,81
0.15,-0.75,82
0.15,-0.6,81
0.15,-0.45,80
0.15,-0.3,82
0.15,-0.15,83
0.15,0.0,83
0.15,0.15,83
0.15,0.3,76
0.15,0.45,76
0.15,0.6,76
0.15,0.75,76
0.15,0.9,76
0.15,1.05,76
0.15,1.2,81
0.15,1.35,79
0.15,1.5,75
0.3,-1.5,81
0.3,-1.35,82
0.3,-1.2,82
0.3,-1.05,80
0.3,-0.9,79
0.3,-0.75,81
0.3,-0.6,80
0.3,-0.45,77
0.3,-0.3,77
0.3,-0.15,78
0.3,0.0,79
0.3,0.15,83
0.3,0.3,78
0.3,0.45,76
0.3,0.6,76
0.3,0.75,76
0.3,0.9,78
0.3,1.05,77
0.3,1.2,74
0.3,1.35,69
0.3,1.5,64
0.45,-1.5,76
0.45,-1.35,77
0.45,-1.2,78
0.45,-1.05,78
0.45,-0.9,80
0.45,-0.75,81
0.45,-0.6,81
0.45,-0.45,77
0.45,-0.3,77
0.45,-0.15,77
0.45,0.0,77
0.45,0.15,78
0.45,0.3,77
0.45,0.45,79
0.45,0.6,76
0.45,0.75,77
0.45,0.9,78
0.45,1.05,78
0.45,1.2,73
0.45,1.35,68
0.45,1.5,64
0.6,-1.5,76
0.6,-1.35,76
0.6,-1.2,76
0.6,-1.05,77
0.6,-0.9,81
0.6,-0.75,81
0.6,-0.6,81
0.6,-0.45,81
0.6,-0.3,79
0.6,-0.15,78
0.6,0.0,77
0.6,0.15,77
0.6,0.3,75
0.6,0.45,79
0.6,0.6,78
0.6,0.75,78
0.6,0.9,78
0.6,1.05,75
0.6,1.2,71
0.6,1.35,70
0.6,1.5,70
0.75,-1.5,76
0.75,-1.35,76
0.75,-1.2,76
0.75,-1.05,77
0.75,-0.9,79
0.75,-0.75,81
0.75,-0.6,81
0.75,-0.45,81
0.75,-0.3,81
0.75,-0.15,81
0.75,0.0,90
0.75,0.15,93
0.75,0.3,83
0.75,0.45,75
0.75,0.6,76
0.75,0.75,78
0.75,0.9,75
0.75,1.05,71
0.75,1.2,70
0.75,1.35,70
0.75,1.5,70
0.9,-1.5,76
0.9,-1.35,76
0.9,-1.2,76
0.9,-1.05,77
0.9,-0.9,79
0.9,-0.75,80
0.9,-0.6,81
0.9,-0.45,81
0.9,-0.3,80
0.9,-0.15,78
0.9,0.0,82
0.9,0.15,82
0.9,0.3,75
0.9,0.45,75
0.9,0.6,78
0.9,0.75,78
0.9,0.9,78
0.9,1.05,72
0.9,1.2,70
0.9,1.35,70
0.9,1.5,71
1.05,-1.5,76
1.05,-1.35,76
1.05,-1.2,76
1.05,-1.05,77
1.05,-0.9,80
1.05,-0.75,81
1.05,-0.6,81
1.05,-0.45,80
1.05,-0.3,77
1.05,-0.15,77
1.05,0.0,75
1.05,0.15,75
1.05,0.3,76
1.05,0.45,77
1.05,0.6,78
1.05,0.75,78
1.05,0.9,78
1.05,1.05,74
1.05,1.2,72
1.05,1.35,73
1.05,1.5,74
1.2,-1.5,76
1.2,-1.35,76
1.2,-1.2,76
1.2,-1.05,76
1.2,-0.9,79
1.2,-0.75,81
1.2,-0.6,81
1.2,-0.45,78
1.2,-0.3,77
1.2,-0.15,78
1.2,0.0,76
1.2,0.15,75
1.2,0.3,77
1.2,0.45,75
1.2,0.6,75
1.2,0.75,77
1.2,0.9,77
1.2,1.05,75
1.2,1.2,75
1.2,1.35,74
1.2,1.5,73
1.35,-1.5,76
1.35,-1.35,76
1.35,-1.2,76
1.35,-1.05,76
1.35,-0.9,76
1.35,-0.75,76
1.35,-0.6,77
1.35,-0.45,77
1.35,-0.3,78
1.35,-0.15,78
1.35,0.0,75
1.35,0.15,76
1.35,0.3,76
1.35,0.45,75
1.35,0.6,76
1.35,0.75,77
1.35,0.9,75
1.35,1.05,74
1.35,1.2,75
1.35,1.35,74
1.35,1.5,70
1.5,-1.5,76
1.5,-1.35,76
1.5,-1.2,76
1.5,-1.05,76
1.5,-0.9,76
1.5,-0.75,76
1.5,-0.6,76
1.5,-0.45,76
1.5,-0.3,76
1.5,-0.15,78
1.5,0.0,77
1.5,0.15,75
1.5,0.3,75
1.5,0.45,75
1.5,0.6,77
1.5,0.75,77
1.5,0.9,77
1.5,1.05,77
1.5,1.2,74
1.5,1.35,72
1.5,1.5,69
1.65,-1.5,81
1.65,-1.35,78
1.65,-1.2,76
1.65,-1.05,76
1.65,-0.9,76
1.65,-0.75,76
1.65,-0.6,76
1.65,-0.45,76
1.65,-0.3,76
1.65,-0.15,76
1.65,0.0,77
1.65,0.15,77
1.65,0.3,77
1.65,0.45,75
1.65,0.6,77
1.65,0.75,77
1.65,0.9,77
1.65,1.05,77
1.65,1.2,72
1.65,1.35,69
1.65,1.5,67
1.8,-1.5,84
1.8,-1.35,81
1.8,-1.2,77
1.8,-1.05,77
1.8,-0.9,76
1.8,-0.75,76
1.8,-0.6,76
1.8,-0.45,76
1.8,-0.3,78
1.8,-0.15,79
1.8,0.0,77
1.8,0.15,77
1.8,0.3,75
1.8,0.45,75
1.8,0.6,75
1.8,0.75,77
1.8,0.9,77
1.8,1.05,75
1.8,1.2,71
1.8,1.35,67
1.8,1.5,63
1.95,-1.5,88
1.95,-1.35,86
1.95,-1.2,82
1.95,-1.05,82
1.95,-0.9,79
1.95,-0.75,76
1.95,-0.6,76
1.95,-0.45,76
1.95,-0.3,79
1.95,-0.15,79
1.95,0.0,79
1.95,0.15,76
1.95,0.3,75
1.95,0.45,75
1.95,0.6,75
1.95,0.75,77
1.95,0.9,77
1.95,1.05,76
1.95,1.2,71
1.95,1.35,66
1.95,1.5,61
2.1,-1.5,90
2.1,-1.35,90
2.1,-1.2,91
2.1,-1.05,87
2.1,-0.9,81
2.1,-0.75,77
2.1,-0.6,76
2.1,-0.45,79
2.1,-0.3,79
2.1,-0.15,75
2.1,0.0,75
2.1,0.15,75
2.1,0.3,75
2.1,0.45,75
2.1,0.6,75
2.1,0.75,75
2.1,0.9,77
2.1,1.05,75
2.1,1.2,71
2.1,1.35,67
2.1,1.5,64
2.25,-1.5,91
2.25,-1.35,91
2.25,-1.2,91
2.25,-1.05,90
2.25,-0.9,87
2.25,-0.75,85
2.25,-0.6,82
2.25,-0.45,75
2.25,-0.3,76
2.25,-0.15,75
2.25,0.0,76
2.25,0.15,75
2.25,0.3,76
2.25,0.45,76
2.25,0.6,76
2.25,0.75,69
2.25,0.9,68
2.25,1.05,71
2.25,1.2,70
2.25,1.35,69
2.25,1.5,68
2.4,-1.5,90
2.4,-1.35,90
2.4,-1.2,90
2.4,-1.05,91
2.4,-0.9,93
2.4,-0.75,91
2.4,-0.6,86
2.4,-0.45,75
2.4,-0.3,75
2.4,-0.15,76
2.4,0.0,75
2.4,0.15,75
2.4,0.3,76
2.4,0.45,76
2.4,0.6,76
2.4,0.75,64
2.4,0.9,56
2.4,1.05,64
2.4,1.2,68
2.4,1.35,70
2.4,1.5,70
2.55,-1.5,105
2.55,-1.35,103
2.55,-1.2,100
2.55,-1.05,95
2.55,-0.9,93
2.55,-0.75,93
2.55,-0.6,84
2.55,-0.45,77
2.55,-0.3,75
2.55,-0.15,90
2.55,0.0,75
2.55,0.15,76
2.55,0.3,76
2.55,0.45,74
2.55,0.6,74
2.55,0.75,65
2.55,0.9,57
2.55,1.05,52
2.55,1.2,39
2.55,1.35,28
2.55,1.5,18
2.7,-1.5,111
2.7,-1.35,108
2.7,-1.2,106
2.7,-1.05,96
2.7,-0.9,90
2.7,-0.75,92
2.7,-0.6,83
2.7,-0.45,77
2.7,-0.3,75
2.7,-0.15,75
2.7,0.0,75
2.7,0.15,75
2.7,0.3,76
2.7,0.45,74
2.7,0.6,91
2.7,0.75,84
2.7,0.9,76
2.7,1.05,64
2.7,1.2,27
2.7,1.35,2
2.7,1.5,0
2.85,-1.5,97
2.85,-1.35,97
2.85,-1.2,102
2.85,-1.05,97
2.85,-0.9,91
2.85,-0.75,88
2.85,-0.6,82
2.85,-0.45,79
2.85,-0.3,79
2.85,-0.15,80
2.85,0.0,76
2.85,0.15,75
2.85,0.3,77
2.85,0.45,78
2.85,0.6,89
2.85,0.75,98
2.85,0.9,89
2.85,1.05,70
2.85,1.2,48
2.85,1.35,33
2.85,1.5,25
3.0,-1.5,99
3.0,-1.35,97
3.0,-1.2,97
3.0,-1.05,90
3.0,-0.9,83
3.0,-0.75,81
3.0,-0.6,80
3.0,-0.45,82
3.0,-0.3,82
3.0,-0.15,78
3.0,0.0,76
3.0,0.15,78
3.0,0.3,81
3.0,0.45,64
3.0,0.6,79
3.0,0.75,90
3.0,0.9,85
3.0,1.05,70
3.0,1.2,61
3.0,1.35,52
3.0,1.5,47
3.15,-1.5,121
3.15,-1.35,108
3.15,-1.2,86
3.15,-1.05,78
3.15,-0.9,75
3.15,-0.75,74
3.15,-0.6,76
3.15,-0.45,82
3.15,-0.3,80
3.15,-0.15,76
3.15,0.0,74
3.15,0.15,89
3.15,0.3,74
3.15,0.45,86
3.15,0.6,90
3.15,0.75,71
3.15,0.9,70
3.15,1.05,74
3.15,1.2,76
3.15,1.35,77
3.15,1.5,77
3.3,-1.5,97
3.3,-1.35,91
3.3,-1.2,80
3.3,-1.05,59
3.3,-0.9,52
3.3,-0.75,69
3.3,-0.6,74
3.3,-0.45,77
3.3,-0.3,82
3.3,-0.15,73
3.3,0.0,75
3.3,0.15,80
3.3,0.3,75
3.3,0.45,82
3.3,0.6,90
3.3,0.75,77
3.3,0.9,74
3.3,1.05,73
3.3,1.2,77
3.3,1.35,79
3.3,1.5,80
3.45,-1.5,77
3.45,-1.35,77
3.45,-1.2,80
3.45,-1.05,40
3.45,-0.9,26
3.45,-0.75,62
3.45,-0.6,73
3.45,-0.45,76
3.45,-0.3,77
3.45,-0.15,73
3.45,0.0,80
3.45,0.15,74
3.45,0.3,75
3.45,0.45,76
3.45,0.6,82
3.45,0.75,74
3.45,0.9,75
3.45,1.05,76
3.45,1.2,78
3.45,1.35,80
3.45,1.5,80
3.6,-1.5,79
3.6,-1.35,78
3.6,-1.2,77
3.6,-1.05,65
3.6,-0.9,58
3.6,-0.75,55
3.6,-0.6,67
3.6,-0.45,74
3.6,-0.3,77
3.6,-0.15,75
3.6,0.0,70
3.6,0.15,73
3.6,0.3,78
3.6,0.45,78
3.6,0.6,74
3.6,0.75,74
3.6,0.9,74
3.6,1.05,70
3.6,1.2,79
3.6,1.35,80
3.6,1.5,80
3.75,-1.5,81
3.75,-1.35,80
3.75,-1.2,80
3.75,-1.05,80
3.75,-0.9,77
3.75,-0.75,55
3.75,-0.6,61
3.75,-0.45,75
3.75,-0.3,84
3.75,-0.15,86
3.75,0.0,70
3.75,0.15,72
3.75,0.3,78
3.75,0.45,74
3.75,0.6,74
3.75,0.75,76
3.75,0.9,74
3.75,1.05,70
3.75,1.2,79
3.75,1.35,80
3.75,1.5,80
3.9,-1.5,80
3.9,-1.35,81
3.9,-1.2,84
3.9,-1.05,86
3.9,-0.9,84
3.9,-0.75,55
3.9,-0.6,59
3.9,-0.45,75
3.9,-0.3,73
3.9,-0.15,79
3.9,0.0,68
3.9,0.15,78
3.9,0.3,76
3.9,0.45,77
3.9,0.6,78
3.9,0.75,78
3.9,0.9,69
3.9,1.05,76
3.9,1.2,80
3.9,1.35,79
3.9,1.5,79
4.05,-1.5,82
4.05,-1.35,84
4.05,-1.2,90
4.05,-1.05,82
4.05,-0.9,73
4.05,-0.75,55
4.05,-0.6,69
4.05,-0.45,96
4.05,-0.3,78
4.05,-0.15,57
4.05,0.0,77
4.05,0.15,76
4.05,0.3,78
4.05,0.45,56
4.05,0.6,75
4.05,0.75,78
4.05,0.9,62
4.05,1.05,86
4.05,1.2,84
4.05,1.35,82
4.05,1.5,80
4.2,-1.5,83
4.2,-1.35,86
4.2,-1.2,92
4.2,-1.05,73
4.2,-0.9,55
4.2,-0.75,61
4.2,-0.6,73
4.2,-0.45,94
4.2,-0.3,78
4.2,-0.15,71
4.2,0.0,62
4.2,0.15,77
4.2,0.3,69
4.2,0.45,79
4.2,0.6,96
4.2,0.75,64
4.2,0.9,51
4.2,1.05,96
4.2,1.2,90
4.2,1.35,85
4.2,1.5,84
4.35,-1.5,83
4.35,-1.35,86
4.35,-1.2,94
4.35,-1.05,89
4.35,-0.9,82
4.35,-0.75,76
4.35,-0.6,77
4.35,-0.45,78
4.35,-0.3,74
4.35,-0.15,74
4.35,0.0,80
4.35,0.15,79
4.35,0.3,78
4.35,0.45,69
4.35,0.6,73
4.35,0.75,38
4.35,0.9,44
4.35,1.05,89
4.35,1.2,89
4.35,1.35,87
4.35,1.5,86
4.5,-1.5,83
4.5,-1.35,83
4.5,-1.2,91
4.5,-1.05,91
4.5,-0.9,88
4.5,-0.75,85
4.5,-0.6,83
4.5,-0.45,81
4.5,-0.3,74
4.5,-0.15,80
4.5,0.0,82
4.5,0.15,67
4.5,0.3,73
4.5,0.45,83
4.5,0.6,95
4.5,0.75,67
4.5,0.9,59
4.5,1.05,80
4.5,1.2,85
4.5,1.35,86
4.5,1.5,87
4.65,-1.5,85
4.65,-1.35,85
4.65,-1.2,83
4.65,-1.05,84
4.65,-0.9,85
4.65,-0.75,88
4.65,-0.6,81
4.65,-0.45,73
4.65,-0.3,57
4.65,-0.15,83
4.65,0.0,61
4.65,0.15,75
4.65,0.3,85
4.65,0.45,87
4.65,0.6,113
4.65,0.75,97
4.65,0.9,74
4.65,1.05,76
4.65,1.2,82
4.65,1.35,87
4.65,1.5,90
4.8,-1.5,79
4.8,-1.35,76
4.8,-1.2,75
4.8,-1.05,78
4.8,-0.9,82
4.8,-0.75,88
4.8,-0.6,79
4.8,-0.45,74
4.8,-0.3,70
4.8,-0.15,86
4.8,0.0,95
4.8,0.15,72
4.8,0.3,76
4.8,0.45,76
4.8,0.6,80
4.8,0.75,71
4.8,0.9,67
4.8,1.05,65
4.8,1.2,82
4.8,1.35,94
4.8,1.5,105
4.95,-1.5,58
4.95,-1.35,60
4.95,-1.2,61
4.95,-1.05,68
4.95,-0.9,75
4.95,-0.75,82
4.95,-0.6,81
4.95,-0.45,79
4.95,-0.3,73
4.95,-0.15,90
4.95,0.0,99
4.95,0.15,72
4.95,0.3,83
4.95,0.45,59
4.95,0.6,67
4.95,0.75,79
4.95,0.9,75
4.95,1.05,55
4.95,1.2,84
4.95,1.35,110
4.95,1.5,137
5.1,-1.5,56
5.1,-1.35,56
5.1,-1.2,55
5.1,-1.05,61
5.1,-0.9,68
5.1,-0.75,76
5.1,-0.6,79
5.1,-0.45,78
5.1,-0.3,91
5.1,-0.15,83
5.1,0.0,88
5.1,0.15,82
5.1,0.3,94
5.1,0.45,61
5.1,0.6,83
5.1,0.75,100
5.1,0.9,98
5.1,1.05,72
5.1,1.2,79
5.1,1.35,88
5.1,1.5,99
5.25,-1.5,56
5.25,-1.35,54
5.25,-1.2,51
5.25,-1.05,52
5.25,-0.9,56
5.25,-0.75,65
5.25,-0.6,73
5.25,-0.45,77
5.25,-0.3,112
5.25,-0.15,64
5.25,0.0,88
5.25,0.15,77
5.25,0.3,75
5.25,0.45,78
5.25,0.6,84
5.25,0.75,80
5.25,0.9,80
5.25,1.05,73
5.25,1.2,73
5.25,1.35,73
5.25,1.5,73
5.4,-1.5,50
5.4,-1.35,50
5.4,-1.2,51
5.4,-1.05,51
5.4,-0.9,51
5.4,-0.75,56
5.4,-0.6,70
5.4,-0.45,78
5.4,-0.3,80
5.4,-0.15,75
5.4,0.0,79
5.4,0.15,75
5.4,0.3,75
5.4,0.45,75
5.4,0.6,81
5.4,0.75,84
5.4,0.9,84
5.4,1.05,75
5.4,1.2,77
5.4,1.35,77
5.4,1.5,74
5.55,-1.5,47
5.55,-1.35,49
5.55,-1.2,53
5.55,-1.05,51
5.55,-0.9,51
5.55,-0.75,58
5.55,-0.6,74
5.55,-0.45,81
5.55,-0.3,63
5.55,-0.15,80
5.55,0.0,79
5.55,0.15,75
5.55,0.3,77
5.55,0.45,80
5.55,0.6,73
5.55,0.75,74
5.55,0.9,79
5.55,1.05,76
5.55,1.2,77
5.55,1.35,75
5.55,1.5,70
5.7,-1.5,43
5.7,-1.35,47
5.7,-1.2,55
5.7,-1.05,56
5.7,-0.9,61
5.7,-0.75,70
5.7,-0.6,81
5.7,-0.45,74
5.7,-0.3,63
5.7,-0.15,73
5.7,0.0,74
5.7,0.15,75
5.7,0.3,80
5.7,0.45,73
5.7,0.6,76
5.7,0.75,73
5.7,0.9,72
5.7,1.05,77
5.7,1.2,74
5.7,1.35,70
5.7,1.5,66
5.85,-1.5,20
5.85,-1.35,35
5.85,-1.2,60
5.85,-1.05,63
5.85,-0.9,71
5.85,-0.75,85
5.85,-0.6,83
5.85,-0.45,76
5.85,-0.3,68
5.85,-0.15,69
5.85,0.0,74
5.85,0.15,62
5.85,0.3,77
5.85,0.45,76
5.85,0.6,73
5.85,0.75,74
5.85,0.9,74
5.85,1.05,71
5.85,1.2,68
5.85,1.35,66
5.85,1.5,66
6.0,-1.5,0
6.0,-1.35,4
6.0,-1.2,66
6.0,-1.05,68
6.0,-0.9,76
6.0,-0.75,93
6.0,-0.6,80
6.0,-0.45,83
6.0,-0.3,92
6.0,-0.15,74
6.0,0.0,74
6.0,0.15,52
6.0,0.3,77
6.0,0.45,77
6.0,0.6,76
6.0,0.75,76
6.0,0.9,71
6.0,1.05,65
6.0,1.2,65
6.0,1.35,66
6.0,1.5,66
6.15,-1.5,0
6.15,-1.35,9
6.15,-1.2,44
6.15,-1.05,71
6.15,-0.9,83
6.15,-0.75,77
6.15,-0.6,76
6.15,-0.45,80
6.15,-0.3,90
6.15,-0.15,74
6.15,0.0,75
6.15,0.15,73
6.15,0.3,77
6.15,0.45,77
6.15,0.6,74
6.15,0.75,77
6.15,0.9,75
6.15,1.05,60
6.15,1.2,54
6.15,1.35,54
6.15,1.5,54
6.3,-1.5,1
6.3,-1.35,15
6.3,-1.2,28
6.3,-1.05,66
6.3,-0.9,83
6.3,-0.75,72
6.3,-0.6,75
6.3,-0.45,74
6.3,-0.3,74
6.3,-0.15,76
6.3,0.0,74
6.3,0.15,91
6.3,0.3,69
6.3,0.45,76
6.3,0.6,77
6.3,0.75,74
6.3,0.9,71
6.3,1.05,62
6.3,1.2,46
6.3,1.35,41
6.3,1.5,41
6.45,-1.5,1
6.45,-1.35,19
6.45,-1.2,54
6.45,-1.05,44
6.45,-0.9,48
6.45,-0.75,72
6.45,-0.6,77
6.45,-0.45,78
6.45,-0.3,78
6.45,-0.15,75
6.45,0.0,74
6.45,0.15,100
6.45,0.3,62
6.45,0.45,82
6.45,0.6,73
6.45,0.75,74
6.45,0.9,61
6.45,1.05,58
6.45,1.2,37
6.45,1.35,23
6.45,1.5,12
6.6,-1.5,3
6.6,-1.35,16
6.6,-1.2,40
6.6,-1.05,27
6.6,-0.9,33
6.6,-0.75,68
6.6,-0.6,76
6.6,-0.45,78
6.6,-0.3,74
6.6,-0.15,81
6.6,0.0,84
6.6,0.15,93
6.6,0.3,81
6.6,0.45,82
6.6,0.6,78
6.6,0.75,73
6.6,0.9,60
6.6,1.05,77
6.6,1.2,45
6.6,1.35,25
6.6,1.5,13
6.75,-1.5,7
6.75,-1.35,11
6.75,-1.2,11
6.75,-1.05,26
6.75,-0.9,42
6.75,-0.75,51
6.75,-0.6,71
6.75,-0.45,76
6.75,-0.3,69
6.75,-0.15,56
6.75,0.0,74
6.75,0.15,76
6.75,0.3,87
6.75,0.45,78
6.75,0.6,79
6.75,0.75,75
6.75,0.9,83
6.75,1.05,169
6.75,1.2,102
6.75,1.35,63
6.75,1.5,43
6.9,-1.5,31
6.9,-1.35,24
6.9,-1.2,11
6.9,-1.05,18
6.9,-0.9,30
6.9,-0.75,44
6.9,-0.6,67
6.9,-0.45,82
6.9,-0.3,75
6.9,-0.15,67
6.9,0.0,73
6.9,0.15,76
6.9,0.3,76
6.9,0.45,81
6.9,0.6,83
6.9,0.75,76
6.9,0.9,101
6.9,1.05,159
6.9,1.2,98
6.9,1.35,54
6.9,1.5,25
7.05,-1.5,64
7.05,-1.35,45
7.05,-1.2,13
7.05,-1.05,15
7.05,-0.9,27
7.05,-0.75,51
7.05,-0.6,72
7.05,-0.45,95
7.05,-0.3,99
7.05,-0.15,70
7.05,0.0,80
7.05,0.15,80
7.05,0.3,80
7.05,0.45,75
7.05,0.6,77
7.05,0.75,120
7.05,0.9,166
7.05,1.05,143
7.05,1.2,93
7.05,1.35,51
7.05,1.5,15
7.2,-1.5,36
7.2,-1.35,28
7.2,-1.2,18
7.2,-1.05,23
7.2,-0.9,40
7.2,-0.75,97
7.2,-0.6,81
7.2,-0.45,86
7.2,-0.3,91
7.2,-0.15,61
7.2,0.0,73
7.2,0.15,74
7.2,0.3,80
7.2,0.45,73
7.2,0.6,78
7.2,0.75,139
7.2,0.9,191
7.2,1.05,191
7.2,1.2,121
7.2,1.35,79
7.2,1.5,53
7.35,-1.5,31
7.35,-1.35,28
7.35,-1.2,28
7.35,-1.05,45
7.35,-0.9,64
7.35,-0.75,97
7.35,-0.6,75
7.35,-0.45,76
7.35,-0.3,91
7.35,-0.15,74
7.35,0.0,76
7.35,0.15,74
7.35,0.3,75
7.35,0.45,78
7.35,0.6,55
7.35,0.75,79
7.35,0.9,105
7.35,1.05,136
7.35,1.2,109
7.35,1.35,93
7.35,1.5,86
7.5,-1.5,41
7.5,-1.35,40
7.5,-1.2,46
7.5,-1.05,107
7.5,-0.9,132
7.5,-0.75,67
7.5,-0.6,73
7.5,-0.45,81
7.5,-0.3,91
7.5,-0.15,73
7.5,0.0,73
7.5,0.15,76
7.5,0.3,74
7.5,0.45,76
7.5,0.6,73
7.5,0.75,88
7.5,0.9,76
7.5,1.05,82
7.5,1.2,112
7.5,1.35,145
7.5,1.5,177
7.65,-1.5,65
7.65,-1.35,69
7.65,-1.2,106
7.65,-1.05,115
7.65,-0.9,108
7.65,-0.75,76
7.65,-0.6,76
7.65,-0.45,75
7.65,-0.3,80
7.65,-0.15,73
7.65,0.0,76
7.65,0.15,77
7.65,0.3,77
7.65,0.45,76
7.65,0.6,85
7.65,0.75,88
7.65,0.9,78
7.65,1.05,76
7.65,1.2,86
7.65,1.35,104
7.65,1.5,126
7.8,-1.5,111
7.8,-1.35,117
7.8,-1.2,188
7.8,-1.05,116
7.8,-0.9,76
7.8,-0.75,84
7.8,-0.6,76
7.8,-0.45,74
7.8,-0.3,75
7.8,-0.15,73
7.8,0.0,77
7.8,0.15,77
7.8,0.3,76
7.8,0.45,77
7.8,0.6,76
7.8,0.75,76
7.8,0.9,76
7.8,1.05,82
7.8,1.2,78
7.8,1.35,77
7.8,1.5,77
7.95,-1.5,89
7.95,-1.35,96
7.95,-1.2,140
7.95,-1.05,117
7.95,-0.9,97
7.95,-0.75,85
7.95,-0.6,76
7.95,-0.45,73
7.95,-0.3,62
7.95,-0.15,77
7.95,0.0,75
7.95,0.15,77
7.95,0.3,77
7.95,0.45,81
7.95,0.6,76
7.95,0.75,76
7.95,0.9,77
7.95,1.05,76
7.95,1.2,76
7.95,1.35,76
7.95,1.5,76
8.1,-1.5,73
8.1,-1.35,83
8.1,-1.2,118
8.1,-1.05,117
8.1,-0.9,105
8.1,-0.75,79
8.1,-0.6,80
8.1,-0.45,80
8.1,-0.3,68
8.1,-0.15,76
8.1,0.0,77
8.1,0.15,75
8.1,0.3,75
8.1,0.45,81
8.1,0.6,76
8.1,0.75,78
8.1,0.9,81
8.1,1.05,79
8.1,1.2,80
8.1,1.35,79
8.1,1.5,77
8.25,-1.5,63
8.25,-1.35,72
8.25,-1.2,111
8.25,-1.05,106
8.25,-0.9,88
8.25,-0.75,73
8.25,-0.6,73
8.25,-0.45,77
8.25,-0.3,68
8.25,-0.15,77
8.25,0.0,77
8.25,0.15,75
8.25,0.3,81
8.25,0.45,78
8.25,0.6,76
8.25,0.75,76
8.25,0.9,80
8.25,1.05,90
8.25,1.2,101
8.25,1.35,111
8.25,1.5,120
8.4,-1.5,61
8.4,-1.35,68
8.4,-1.2,99
8.4,-1.05,104
8.4,-0.9,89
8.4,-0.75,73
8.4,-0.6,73
8.4,-0.45,77
8.4,-0.3,80
8.4,-0.15,77
8.4,0.0,78
8.4,0.15,81
8.4,0.3,78
8.4,0.45,81
8.4,0.6,76
8.4,0.75,83
8.4,0.9,81
8.4,1.05,92
8.4,1.2,114
8.4,1.35,130
8.4,1.5,143
8.55,-1.5,65
8.55,-1.35,65
8.55,-1.2,66
8.55,-1.05,93
8.55,-0.9,98
8.55,-0.75,74
8.55,-0.6,64
8.55,-0.45,50
8.55,-0.3,81
8.55,-0.15,75
8.55,0.0,81
8.55,0.15,78
8.55,0.3,79
8.55,0.45,76
8.55,0.6,81
8.55,0.75,77
8.55,0.9,85
8.55,1.05,101
8.55,1.2,126
8.55,1.35,145
8.55,1.5,158
8.7,-1.5,76
8.7,-1.35,82
8.7,-1.2,111
8.7,-1.05,109
8.7,-0.9,105
8.7,-0.75,91
8.7,-0.6,50
8.7,-0.45,63
8.7,-0.3,81
8.7,-0.15,81
8.7,0.0,73
8.7,0.15,84
8.7,0.3,79
8.7,0.45,76
8.7,0.6,68
8.7,0.75,70
8.7,0.9,91
8.7,1.05,117
8.7,1.2,137
8.7,1.35,152
8.7,1.5,165
8.85,-1.5,91
8.85,-1.35,101
8.85,-1.2,156
8.85,-1.05,127
8.85,-0.9,109
8.85,-0.75,119
8.85,-0.6,93
8.85,-0.45,69
8.85,-0.3,73
8.85,-0.15,73
8.85,0.0,76
8.85,0.15,93
8.85,0.3,86
8.85,0.45,82
8.85,0.6,75
8.85,0.75,86
8.85,0.9,106
8.85,1.05,137
8.85,1.2,149
8.85,1.35,163
8.85,1.5,177
9.0,-1.5,117
9.0,-1.35,119
9.0,-1.2,123
9.0,-1.05,135
9.0,-0.9,135
9.0,-0.75,113
9.0,-0.6,104
9.0,-0.45,79
9.0,-0.3,77
9.0,-0.15,77
9.0,0.0,73
9.0,0.15,73
9.0,0.3,88
9.0,0.45,75
9.0,0.6,78
9.0,0.75,75
9.0,0.9,90
9.0,1.05,145
9.0,1.2,154
9.0,1.35,165
9.0,1.5,177
9.15,-1.5,111
9.15,-1.35,116
9.15,-1.2,122
9.15,-1.05,130
9.15,-0.9,121
9.15,-0.75,81
9.15,-0.6,78
9.15,-0.45,81
9.15,-0.3,75
9.15,-0.15,78
9.15,0.0,73
9.15,0.15,75
9.15,0.3,87
9.15,0.45,77
9.15,0.6,77
9.15,0.75,79
9.15,0.9,93
9.15,1.05,134
9.15,1.2,157
9.15,1.35,174
9.15,1.5,189
9.3,-1.5,60
9.3,-1.35,86
9.3,-1.2,144
9.3,-1.05,120
9.3,-0.9,86
9.3,-0.75,68
9.3,-0.6,76
9.3,-0.45,83
9.3,-0.3,78
9.3,-0.15,75
9.3,0.0,71
9.3,0.15,75
9.3,0.3,75
9.3,0.45,75
9.3,0.6,74
9.3,0.75,79
9.3,0.9,90
9.3,1.05,105
9.3,1.2,157
9.3,1.35,191
9.3,1.5,216
9.45,-1.5,73
9.45,-1.35,90
9.45,-1.2,129
9.45,-1.05,105
9.45,-0.9,76
9.45,-0.75,79
9.45,-0.6,85
9.45,-0.45,85
9.45,-0.3,73
9.45,-0.15,75
9.45,0.0,60
9.45,0.15,88
9.45,0.3,84
9.45,0.45,75
9.45,0.6,74
9.45,0.75,88
9.45,0.9,103
9.45,1.05,115
9.45,1.2,120
9.45,1.35,124
9.45,1.5,127
9.6,-1.5,101
9.6,-1.35,103
9.6,-1.2,119
9.6,-1.05,95
9.6,-0.9,81
9.6,-0.75,94
9.6,-0.6,73
9.6,-0.45,73
9.6,-0.3,82
9.6,-0.15,81
9.6,0.0,74
9.6,0.15,93
9.6,0.3,80
9.6,0.45,74
9.6,0.6,74
9.6,0.75,89
9.6,0.9,102
9.6,1.05,113
9.6,1.2,52
9.6,1.35,5
9.6,1.5,0
9.75,-1.5,95
9.75,-1.35,86
9.75,-1.2,71
9.75,-1.05,102
9.75,-0.9,114
9.75,-0.75,79
9.75,-0.6,73
9.75,-0.45,78
9.75,-0.3,78
9.75,-0.15,78
9.75,0.0,74
9.75,0.15,73
9.75,0.3,75
9.75,0.45,79
9.75,0.6,81
9.75,0.75,72
9.75,0.9,76
9.75,1.05,106
9.75,1.2,62
9.75,1.35,30
9.75,1.5,8
9.9,-1.5,86
9.9,-1.35,73
9.9,-1.2,44
9.9,-1.05,87
9.9,-0.9,105
9.9,-0.75,73
9.9,-0.6,80
9.9,-0.45,80
9.9,-0.3,74
9.9,-0.15,77
9.9,0.0,73
9.9,0.15,75
9.9,0.3,75
9.9,0.45,79
9.9,0.6,81
9.9,0.75,72
9.9,0.9,62
9.9,1.05,99
9.9,1.2,70
9.9,1.35,52
9.9,1.5,42
10.05,-1.5,49
10.05,-1.35,47
10.05,-1.2,44
10.05,-1.05,51
10.05,-0.9,61
10.05,-0.75,62
10.05,-0.6,75
10.05,-0.45,80
10.05,-0.3,80
10.05,-0.15,74
10.05,0.0,73
10.05,0.15,76
10.05,0.3,70
10.05,0.45,65
10.05,0.6,73
10.05,0.75,73
10.05,0.9,64
10.05,1.05,46
10.05,1.2,47
10.05,1.35,41
10.05,1.5,31
10.2,-1.5,48
10.2,-1.35,48
10.2,-1.2,49
10.2,-1.05,47
10.2,-0.9,51
10.2,-0.75,58
10.2,-0.6,73
10.2,-0.45,81
10.2,-0.3,78
10.2,-0.15,77
10.2,0.0,84
10.2,0.15,67
10.2,0.3,47
10.2,0.45,90
10.2,0.6,76
10.2,0.75,56
10.2,0.9,65
10.2,1.05,41
10.2,1.2,33
10.2,1.35,22
10.2,1.5,7
10.35,-1.5,56
10.35,-1.35,58
10.35,-1.2,58
10.35,-1.05,57
10.35,-0.9,59
10.35,-0.75,68
10.35,-0.6,78
10.35,-0.45,81
10.35,-0.3,77
10.35,-0.15,81
10.35,0.0,89
10.35,0.15,75
10.35,0.3,68
10.35,0.45,79
10.35,0.6,88
10.35,0.75,74
10.35,0.9,68
10.35,1.05,57
10.35,1.2,24
10.35,1.35,0
10.35,1.5,0
10.5,-1.5,60
10.5,-1.35,65
10.5,-1.2,69
10.5,-1.05,71
10.5,-0.9,74
10.5,-0.75,78
10.5,-0.6,81
10.5,-0.45,81
10.5,-0.3,79
10.5,-0.15,83
10.5,0.0,83
10.5,0.15,80
10.5,0.3,75
10.5,0.45,77
10.5,0.6,75
10.5,0.75,74
10.5,0.9,74
10.5,1.05,67
10.5,1.2,51
10.5,1.35,44
10.5,1.5,41
10.65,-1.5,68
10.65,-1.35,75
10.65,-1.2,81
10.65,-1.05,84
10.65,-0.9,86
10.65,-0.75,85
10.65,-0.6,76
10.65,-0.45,81
10.65,-0.3,78
10.65,-0.15,83
10.65,0.0,79
10.65,0.15,83
10.65,0.3,77
10.65,0.45,77
10.65,0.6,77
10.65,0.75,77
10.65,0.9,75
10.65,1.05,77
10.65,1.2,75
10.65,1.35,89
10.65,1.5,108
10.8,-1.5,80
10.8,-1.35,87
10.8,-1.2,90
10.8,-1.05,92
10.8,-0.9,91
10.8,-0.75,84
10.8,-0.6,76
10.8,-0.45,79
10.8,-0.3,76
10.8,-0.15,77
10.8,0.0,74
10.8,0.15,75
10.8,0.3,75
10.8,0.45,74
10.8,0.6,74
10.8,0.75,74
10.8,0.9,74
10.8,1.05,74
10.8,1.2,77
10.8,1.35,83
10.8,1.5,89
10.95,-1.5,89
10.95,-1.35,95
10.95,-1.2,96
10.95,-1.05,95
10.95,-0.9,92
10.95,-0.75,85
10.95,-0.6,76
10.95,-0.45,76
10.95,-0.3,79
10.95,-0.15,78
10.95,0.0,64
10.95,0.15,65
10.95,0.3,74
10.95,0.45,75
10.95,0.6,75
10.95,0.75,74
10.95,0.9,74
10.95,1.05,74
10.95,1.2,79
10.95,1.35,82
10.95,1.5,83
11.1,-1.5,94
11.1,-1.35,97
11.1,-1.2,98
11.1,-1.05,94
11.1,-0.9,90
11.1,-0.75,111
11.1,-0.6,76
11.1,-0.45,78
11.1,-0.3,79
11.1,-0.15,78
11.1,0.0,62
11.1,0.15,57
11.1,0.3,76
11.1,0.45,74
11.1,0.6,82
11.1,0.75,84
11.1,0.9,80
11.1,1.05,77
11.1,1.2,82
11.1,1.35,85
11.1,1.5,85
11.25,-1.5,91
11.25,-1.35,95
11.25,-1.2,97
11.25,-1.05,144
11.25,-0.9,153
11.25,-0.75,177
11.25,-0.6,92
11.25,-0.45,76
11.25,-0.3,74
11.25,-0.15,77
11.25,0.0,69
11.25,0.15,74
11.25,0.3,82
11.25,0.45,82
11.25,0.6,82
11.25,0.75,86
11.25,0.9,88
11.25,1.05,91
11.25,1.2,101
11.25,1.35,108
11.25,1.5,115
11.4,-1.5,80
11.4,-1.35,86
11.4,-1.2,91
11.4,-1.05,255
11.4,-0.9,255
11.4,-0.75,255
11.4,-0.6,132
11.4,-0.45,72
11.4,-0.3,69
11.4,-0.15,69
11.4,0.0,71
11.4,0.15,79
11.4,0.3,82
11.4,0.45,78
11.4,0.6,76
11.4,0.75,83
11.4,0.9,98
11.4,1.05,116
11.4,1.2,131
11.4,1.35,146
11.4,1.5,160
11.55,-1.5,78
11.55,-1.35,82
11.55,-1.2,90
11.55,-1.05,194
11.55,-0.9,255
11.55,-0.75,255
11.55,-0.6,206
11.55,-0.45,135
11.55,-0.3,123
11.55,-0.15,170
11.55,0.0,166
11.55,0.15,81
11.55,0.3,82
11.55,0.45,76
11.55,0.6,80
11.55,0.75,99
11.55,0.9,124
11.55,1.05,146
11.55,1.2,162
11.55,1.35,184
11.55,1.5,208
11.7,-1.5,77
11.7,-1.35,80
11.7,-1.2,86
11.7,-1.05,142
11.7,-0.9,226
11.7,-0.75,255
11.7,-0.6,255
11.7,-0.45,173
11.7,-0.3,0
11.7,-0.15,0
11.7,0.0,13
11.7,0.15,53
11.7,0.3,82
11.7,0.45,55
11.7,0.6,76
11.7,0.75,113
11.7,0.9,143
11.7,1.05,163
11.7,1.2,177
11.7,1.35,200
11.7,1.5,227
11.85,-1.5,82
11.85,-1.35,82
11.85,-1.2,82
11.85,-1.05,150
11.85,-0.9,254
11.85,-0.75,255
11.85,-0.6,255
11.85,-0.45,251
11.85,-0.3,1
11.85,-0.15,0
11.85,0.0,0
11.85,0.15,41
11.85,0.3,71
11.85,0.45,55
11.85,0.6,69
11.85,0.75,112
11.85,0.9,141
11.85,1.05,166
11.85,1.2,185
11.85,1.35,207
11.85,1.5,230
12.0,-1.5,82
12.0,-1.35,83
12.0,-1.2,97
12.0,-1.05,126
12.0,-0.9,193
12.0,-0.75,201
12.0,-0.6,230
12.0,-0.45,190
12.0,-0.3,62
12.0,-0.15,56
12.0,0.0,14
12.0,0.15,70
12.0,0.3,52
12.0,0.45,76
12.0,0.6,76
12.0,0.75,96
12.0,0.9,124
12.0,1.05,150
12.0,1.2,191
12.0,1.35,225
12.0,1.5,254
12.15,-1.5,87
12.15,-1.35,89
12.15,-1.2,121
12.15,-1.05,81
12.15,-0.9,80
12.15,-0.75,74
12.15,-0.6,66
12.15,-0.45,72
12.15,-0.3,71
12.15,-0.15,71
12.15,0.0,81
12.15,0.15,74
12.15,0.3,23
12.15,0.45,30
12.15,0.6,56
12.15,0.75,88
12.15,0.9,110
12.15,1.05,122
12.15,1.2,232
12.15,1.35,255
12.15,1.5,255
12.3,-1.5,106
12.3,-1.35,78
12.3,-1.2,7
12.3,-1.05,41
12.3,-0.9,60
12.3,-0.75,65
12.3,-0.6,70
12.3,-0.45,80
12.3,-0.3,83
12.3,-0.15,86
12.3,0.0,93
12.3,0.15,84
12.3,0.3,55
12.3,0.45,34
12.3,0.6,50
12.3,0.75,73
12.3,0.9,78
12.3,1.05,78
12.3,1.2,171
12.3,1.35,222
12.3,1.5,254
12.45,-1.5,103
12.45,-1.35,60
12.45,-1.2,0
12.45,-1.05,24
12.45,-0.9,64
12.45,-0.75,72
12.45,-0.6,78
12.45,-0.45,79
12.45,-0.3,72
12.45,-0.15,80
12.45,0.0,89
12.45,0.15,87
12.45,0.3,81
12.45,0.45,58
12.45,0.6,59
12.45,0.75,60
12.45,0.9,59
12.45,1.05,59
12.45,1.2,99
12.45,1.35,119
12.45,1.5,129
12.6,-1.5,64
12.6,-1.35,57
12.6,-1.2,43
12.6,-1.05,61
12.6,-0.9,74
12.6,-0.75,78
12.6,-0.6,81
12.6,-0.45,75
12.6,-0.3,68
12.6,-0.15,77
12.6,0.0,83
12.6,0.15,80
12.6,0.3,74
12.6,0.45,72
12.6,0.6,71
12.6,0.75,70
12.6,0.9,64
12.6,1.05,59
12.6,1.2,60
12.6,1.35,56
12.6,1.5,47
12.75,-1.5,63
12.75,-1.35,66
12.75,-1.2,70
12.75,-1.05,75
12.75,-0.9,80
12.75,-0.75,82
12.75,-0.6,82
12.75,-0.45,76
12.75,-0.3,73
12.75,-0.15,78
12.75,0.0,81
12.75,0.15,77
12.75,0.3,72
12.75,0.45,71
12.75,0.6,72
12.75,0.75,74
12.75,0.9,69
12.75,1.05,63
12.75,1.2,59
12.75,1.35,54
12.75,1.5,44
12.9,-1.5,71
12.9,-1.35,74
12.9,-1.2,78
12.9,-1.05,83
12.9,-0.9,86
12.9,-0.75,80
12.9,-0.6,81
12.9,-0.45,82
12.9,-0.3,76
12.9,-0.15,77
12.9,0.0,78
12.9,0.15,78
12.9,0.3,78
12.9,0.45,73
12.9,0.6,73
12.9,0.75,76
12.9,0.9,75
12.9,1.05,72
12.9,1.2,70
12.9,1.35,68
12.9,1.5,63
13.05,-1.5,76
13.05,-1.35,79
13.05,-1.2,86
13.05,-1.05,90
13.05,-0.9,92
13.05,-0.75,82
13.05,-0.6,82
13.05,-0.45,82
13.05,-0.3,79
13.05,-0.15,76
13.05,0.0,76
13.05,0.15,76
13.05,0.3,78
13.05,0.45,76
13.05,0.6,75
13.05,0.75,75
13.05,0.9,78
13.05,1.05,79
13.05,1.2,81
13.05,1.35,83
13.05,1.5,80
