-3.0,-1.5,78
-3.0,-1.35,78
-3.0,-1.2,78
-3.0,-1.05,78
-3.0,-0.9,77
-3.0,-0.75,75
-3.0,-0.6,75
-3.0,-0.45,75
-3.0,-0.3,77
-3.0,-0.15,83
-3.0,0.0,86
-3.0,0.15,88
-3.0,0.3,91
-3.0,0.45,93
-3.0,0.6,95
-3.0,0.75,96
-3.0,0.9,96
-3.0,1.05,95
-3.0,1.2,90
-3.0,1.35,84
-3.0,1.5,78
-2.85,-1.5,79
-2.85,-1.35,78
-2.85,-1.2,78
-2.85,-1.05,79
-2.85,-0.9,78
-2.85,-0.75,76
-2.85,-0.6,76
-2.85,-0.45,76
-2.85,-0.3,77
-2.85,-0.15,81
-2.85,0.0,82
-2.85,0.15,84
-2.85,0.3,87
-2.85,0.45,90
-2.85,0.6,94
-2.85,0.75,97
-2.85,0.9,98
-2.85,1.05,97
-2.85,1.2,93
-2.85,1.35,87
-2.85,1.5,80
-2.7,-1.5,80
-2.7,-1.35,80
-2.7,-1.2,79
-2.7,-1.05,80
-2.7,-0.9,79
-2.7,-0.75,77
-2.7,-0.6,77
-2.7,-0.45,77
-2.7,-0.3,77
-2.7,-0.15,79
-2.7,0.0,80
-2.7,0.15,81
-2.7,0.3,83
-2.7,0.45,87
-2.7,0.6,92
-2.7,0.75,97
-2.7,0.9,98
-2.7,1.05,98
-2.7,1.2,95
-2.7,1.35,89
-2.7,1.5,83
-2.55,-1.5,80
-2.55,-1.35,80
-2.55,-1.2,80
-2.55,-1.05,81
-2.55,-0.9,80
-2.55,-0.75,78
-2.55,-0.6,78
-2.55,-0.45,78
-2.55,-0.3,78
-2.55,-0.15,78
-2.55,0.0,78
-2.55,0.15,78
-2.55,0.3,79
-2.55,0.45,82
-2.55,0.6,88
-2.55,0.75,94
-2.55,0.9,98
-2.55,1.05,98
-2.55,1.2,96
-2.55,1.35,92
-2.55,1.5,87
-2.4,-1.5,80
-2.4,-1.35,80
-2.4,-1.2,80
-2.4,-1.05,81
-2.4,-0.9,80
-2.4,-0.75,79
-2.4,-0.6,79
-2.4,-0.45,79
-2.4,-0.3,79
-2.4,-0.15,79
-2.4,0.0,78
-2.4,0.15,78
-2.4,0.3,78
-2.4,0.45,78
-2.4,0.6,82
-2.4,0.75,89
-2.4,0.9,94
-2.4,1.05,97
-2.4,1.2,98
-2.4,1.35,97
-2.4,1.5,94
-2.25,-1.5,81
-2.25,-1.35,82
-2.25,-1.2,82
-2.25,-1.05,82
-2.25,-0.9,82
-2.25,-0.75,82
-2.25,-0.6,81
-2.25,-0.45,81
-2.25,-0.3,81
-2.25,-0.15,81
-2.25,0.0,80
-2.25,0.15,79
-2.25,0.3,78
-2.25,0.45,78
-2.25,0.6,78
-2.25,0.75,84
-2.25,0.9,91
-2.25,1.05,97
-2.25,1.2,101
-2.25,1.35,103
-2.25,1.5,103
-2.1,-1.5,85
-2.1,-1.35,87
-2.1,-1.2,87
-2.1,-1.05,84
-2.1,-0.9,85
-2.1,-0.75,85
-2.1,-0.6,85
-2.1,-0.45,85
-2.1,-0.3,84
-2.1,-0.15,83
-2.1,0.0,83
-2.1,0.15,83
-2.1,0.3,81
-2.1,0.45,78
-2.1,0.6,78
-2.1,0.75,84
-2.1,0.9,92
-2.1,1.05,101
-2.1,1.2,110
-2.1,1.35,117
-2.1,1.5,123
-1.95,-1.5,87
-1.95,-1.35,90
-1.95,-1.2,90
-1.95,-1.05,87
-1.95,-0.9,88
-1.95,-0.75,88
-1.95,-0.6,89
-1.95,-0.45,89
-1.95,-0.3,88
-1.95,-0.15,86
-1.95,0.0,86
-1.95,0.15,89
-1.95,0.3,89
-1.95,0.45,87
-1.95,0.6,85
-1.95,0.75,89
-1.95,0.9,97
-1.95,1.05,106
-1.95,1.2,115
-1.95,1.35,123
-1.95,1.5,128
-1.8,-1.5,111
-1.8,-1.35,109
-1.8,-1.2,101
-1.8,-1.05,92
-1.8,-0.9,94
-1.8,-0.75,94
-1.8,-0.6,93
-1.8,-0.45,92
-1.8,-0.3,91
-1.8,-0.15,90
-1.8,0.0,90
-1.8,0.15,92
-1.8,0.3,95
-1.8,0.45,95
-1.8,0.6,93
-1.8,0.75,96
-1.8,0.9,102
-1.8,1.05,109
-1.8,1.2,116
-1.8,1.35,123
-1.8,1.5,128
-1.65,-1.5,133
-1.65,-1.35,126
-1.65,-1.2,109
-1.65,-1.05,95
-1.65,-0.9,98
-1.65,-0.75,99
-1.65,-0.6,97
-1.65,-0.45,95
-1.65,-0.3,95
-1.65,-0.15,93
-1.65,0.0,91
-1.65,0.15,91
-1.65,0.3,93
-1.65,0.45,95
-1.65,0.6,96
-1.65,0.75,100
-1.65,0.9,106
-1.65,1.05,112
-1.65,1.2,118
-1.65,1.35,123
-1.65,1.5,128
-1.5,-1.5,166
-1.5,-1.35,155
-1.5,-1.2,133
-1.5,-1.05,112
-1.5,-0.9,104
-1.5,-0.75,96
-1.5,-0.6,97
-1.5,-0.45,98
-1.5,-0.3,99
-1.5,-0.15,97
-1.5,0.0,92
-1.5,0.15,88
-1.5,0.3,87
-1.5,0.45,89
-1.5,0.6,92
-1.5,0.75,99
-1.5,0.9,106
-1.5,1.05,113
-1.5,1.2,121
-1.5,1.35,127
-1.5,1.5,132
-1.35,-1.5,209
-1.35,-1.35,195
-1.35,-1.2,165
-1.35,-1.05,132
-1.35,-0.9,109
-1.35,-0.75,94
-1.35,-0.6,94
-1.35,-0.45,99
-1.35,-0.3,99
-1.35,-0.15,97
-1.35,0.0,91
-1.35,0.15,85
-1.35,0.3,83
-1.35,0.45,86
-1.35,0.6,91
-1.35,0.75,98
-1.35,0.9,104
-1.35,1.05,114
-1.35,1.2,128
-1.35,1.35,136
-1.35,1.5,144
-1.2,-1.5,249
-1.2,-1.35,230
-1.2,-1.2,197
-1.2,-1.05,160
-1.2,-0.9,131
-1.2,-0.75,105
-1.2,-0.6,99
-1.2,-0.45,94
-1.2,-0.3,93
-1.2,-0.15,92
-1.2,0.0,88
-1.2,0.15,83
-1.2,0.3,81
-1.2,0.45,82
-1.2,0.6,87
-1.2,0.75,94
-1.2,0.9,102
-1.2,1.05,118
-1.2,1.2,138
-1.2,1.35,151
-1.2,1.5,163
-1.05,-1.5,255
-1.05,-1.35,255
-1.05,-1.2,255
-1.05,-1.05,227
-1.05,-0.9,187
-1.05,-0.75,146
-1.05,-0.6,114
-1.05,-0.45,86
-1.05,-0.3,83
-1.05,-0.15,83
-1.05,0.0,81
-1.05,0.15,78
-1.05,0.3,75
-1.05,0.45,74
-1.05,0.6,79
-1.05,0.75,92
-1.05,0.9,107
-1.05,1.05,128
-1.05,1.2,154
-1.05,1.35,176
-1.05,1.5,196
-0.9,-1.5,255
-0.9,-1.35,255
-0.9,-1.2,255
-0.9,-1.05,236
-0.9,-0.9,196
-0.9,-0.75,155
-0.9,-0.6,119
-0.9,-0.45,86
-0.9,-0.3,82
-0.9,-0.15,81
-0.9,0.0,78
-0.9,0.15,73
-0.9,0.3,69
-0.9,0.45,68
-0.9,0.6,76
-0.9,0.75,93
-0.9,0.9,112
-0.9,1.05,133
-0.9,1.2,158
-0.9,1.35,179
-0.9,1.5,199
-0.75,-1.5,255
-0.75,-1.35,255
-0.75,-1.2,255
-0.75,-1.05,232
-0.75,-0.9,199
-0.75,-0.75,169
-0.75,-0.6,139
-0.75,-0.45,111
-0.75,-0.3,103
-0.75,-0.15,101
-0.75,0.0,95
-0.75,0.15,81
-0.75,0.3,73
-0.75,0.45,71
-0.75,0.6,81
-0.75,0.75,98
-0.75,0.9,119
-0.75,1.05,135
-0.75,1.2,146
-0.75,1.35,157
-0.75,1.5,167
-0.6,-1.5,255
-0.6,-1.35,255
-0.6,-1.2,255
-0.6,-1.05,229
-0.6,-0.9,200
-0.6,-0.75,175
-0.6,-0.6,149
-0.6,-0.45,127
-0.6,-0.3,118
-0.6,-0.15,120
-0.6,0.0,121
-0.6,0.15,109
-0.6,0.3,92
-0.6,0.45,79
-0.6,0.6,83
-0.6,0.75,101
-0.6,0.9,123
-0.6,1.05,133
-0.6,1.2,136
-0.6,1.35,140
-0.6,1.5,145
-0.45,-1.5,255
-0.45,-1.35,255
-0.45,-1.2,246
-0.45,-1.05,235
-0.45,-0.9,204
-0.45,-0.75,173
-0.45,-0.6,148
-0.45,-0.45,130
-0.45,-0.3,116
-0.45,-0.15,113
-0.45,0.0,116
-0.45,0.15,127
-0.45,0.3,108
-0.45,0.45,79
-0.45,0.6,79
-0.45,0.75,96
-0.45,0.9,117
-0.45,1.05,128
-0.45,1.2,134
-0.45,1.35,139
-0.45,1.5,145
-0.3,-1.5,228
-0.3,-1.35,215
-0.3,-1.2,231
-0.3,-1.05,243
-0.3,-0.9,208
-0.3,-0.75,169
-0.3,-0.6,139
-0.3,-0.45,108
-0.3,-0.3,84
-0.3,-0.15,81
-0.3,0.0,82
-0.3,0.15,92
-0.3,0.3,85
-0.3,0.45,79
-0.3,0.6,79
-0.3,0.75,95
-0.3,0.9,104
-0.3,1.05,114
-0.3,1.2,123
-0.3,1.35,130
-0.3,1.5,138
-0.15,-1.5,207
-0.15,-1.35,198
-0.15,-1.2,210
-0.15,-1.05,219
-0.15,-0.9,200
-0.15,-0.75,175
-0.15,-0.6,136
-0.15,-0.45,97
-0.15,-0.3,69
-0.15,-0.15,81
-0.15,0.0,75
-0.15,0.15,72
-0.15,0.3,82
-0.15,0.45,86
-0.15,0.6,92
-0.15,0.75,104
-0.15,0.9,98
-0.15,1.05,101
-0.15,1.2,102
-0.15,1.35,98
-0.15,1.5,93
0.0,-1.5,182
0.0,-1.35,177
0.0,-1.2,180
0.0,-1.05,179
0.0,-0.9,183
0.0,-0.75,179
0.0,-0.6,136
0.0,-0.45,100
0.0,-0.3,82
0.0,-0.15,96
0.0,0.0,82
0.0,0.15,78
0.0,0.3,84
0.0,0.45,89
0.0,0.6,90
0.0,0.75,99
0.0,0.9,90
0.0,1.05,88
0.0,1.2,72
0.0,1.35,46
0.0,1.5,17
0.15,-1.5,157
0.15,-1.35,152
0.15,-1.2,163
0.15,-1.05,171
0.15,-0.9,168
0.15,-0.75,161
0.15,-0.6,124
0.15,-0.45,91
0.15,-0.3,82
0.15,-0.15,80
0.15,0.0,80
0.15,0.15,83
0.15,0.3,102
0.15,0.45,118
0.15,0.6,97
0.15,0.75,91
0.15,0.9,83
0.15,1.05,71
0.15,1.2,52
0.15,1.35,30
0.15,1.5,8
0.3,-1.5,121
0.3,-1.35,116
0.3,-1.2,141
0.3,-1.05,168
0.3,-0.9,145
0.3,-0.75,126
0.3,-0.6,101
0.3,-0.45,73
0.3,-0.3,73
0.3,-0.15,81
0.3,0.0,87
0.3,0.15,80
0.3,0.3,120
0.3,0.45,151
0.3,0.6,125
0.3,0.75,95
0.3,0.9,66
0.3,1.05,51
0.3,1.2,56
0.3,1.35,64
0.3,1.5,75
0.45,-1.5,116
0.45,-1.35,110
0.45,-1.2,128
0.45,-1.05,146
0.45,-0.9,124
0.45,-0.75,107
0.45,-0.6,90
0.45,-0.45,67
0.45,-0.3,67
0.45,-0.15,85
0.45,0.0,96
0.45,0.15,80
0.45,0.3,83
0.45,0.45,120
0.45,0.6,123
0.45,0.75,75
0.45,0.9,24
0.45,1.05,20
0.45,1.2,46
0.45,1.35,64
0.45,1.5,85
0.6,-1.5,116
0.6,-1.35,111
0.6,-1.2,108
0.6,-1.05,104
0.6,-0.9,95
0.6,-0.75,88
0.6,-0.6,81
0.6,-0.45,72
0.6,-0.3,70
0.6,-0.15,77
0.6,0.0,88
0.6,0.15,88
0.6,0.3,89
0.6,0.45,96
0.6,0.6,115
0.6,0.75,37
0.6,0.9,0
0.6,1.05,0
0.6,1.2,44
0.6,1.35,65
0.6,1.5,85
0.75,-1.5,116
0.75,-1.35,112
0.75,-1.2,103
0.75,-1.05,93
0.75,-0.9,87
0.75,-0.75,83
0.75,-0.6,80
0.75,-0.45,79
0.75,-0.3,79
0.75,-0.15,80
0.75,0.0,80
0.75,0.15,79
0.75,0.3,90
0.75,0.45,76
0.75,0.6,60
0.75,0.75,13
0.75,0.9,0
0.75,1.05,7
0.75,1.2,48
0.75,1.35,69
0.75,1.5,86
0.9,-1.5,111
0.9,-1.35,106
0.9,-1.2,102
0.9,-1.05,96
0.9,-0.9,88
0.9,-0.75,81
0.9,-0.6,79
0.9,-0.45,81
0.9,-0.3,81
0.9,-0.15,77
0.9,0.0,66
0.9,0.15,68
0.9,0.3,87
0.9,0.45,63
0.9,0.6,45
0.9,0.75,46
0.9,0.9,53
0.9,1.05,45
0.9,1.2,32
0.9,1.35,27
0.9,1.5,20
1.05,-1.5,104
1.05,-1.35,102
1.05,-1.2,103
1.05,-1.05,98
1.05,-0.9,88
1.05,-0.75,81
1.05,-0.6,79
1.05,-0.45,79
1.05,-0.3,81
1.05,-0.15,84
1.05,0.0,91
1.05,0.15,77
1.05,0.3,87
1.05,0.45,76
1.05,0.6,70
1.05,0.75,77
1.05,0.9,85
1.05,1.05,75
1.05,1.2,39
1.05,1.35,13
1.05,1.5,0
1.2,-1.5,104
1.2,-1.35,104
1.2,-1.2,104
1.2,-1.05,99
1.2,-0.9,92
1.2,-0.75,85
1.2,-0.6,80
1.2,-0.45,80
1.2,-0.3,79
1.2,-0.15,79
1.2,0.0,89
1.2,0.15,78
1.2,0.3,79
1.2,0.45,86
1.2,0.6,78
1.2,0.75,83
1.2,0.9,90
1.2,1.05,90
1.2,1.2,75
1.2,1.35,58
1.2,1.5,38
1.35,-1.5,104
1.35,-1.35,104
1.35,-1.2,104
1.35,-1.05,100
1.35,-0.9,95
1.35,-0.75,88
1.35,-0.6,85
1.35,-0.45,82
1.35,-0.3,79
1.35,-0.15,83
1.35,0.0,84
1.35,0.15,80
1.35,0.3,84
1.35,0.45,89
1.35,0.6,75
1.35,0.75,83
1.35,0.9,88
1.35,1.05,86
1.35,1.2,84
1.35,1.35,79
1.35,1.5,74
1.5,-1.5,104
1.5,-1.35,104
1.5,-1.2,104
1.5,-1.05,99
1.5,-0.9,99
1.5,-0.75,93
1.5,-0.6,86
1.5,-0.45,79
1.5,-0.3,79
1.5,-0.15,84
1.5,0.0,80
1.5,0.15,80
1.5,0.3,96
1.5,0.45,77
1.5,0.6,49
1.5,0.75,61
1.5,0.9,77
1.5,1.05,78
1.5,1.2,71
1.5,1.35,63
1.5,1.5,56
1.65,-1.5,104
1.65,-1.35,104
1.65,-1.2,102
1.65,-1.05,96
1.65,-0.9,99
1.65,-0.75,99
1.65,-0.6,88
1.65,-0.45,84
1.65,-0.3,82
1.65,-0.15,79
1.65,0.0,81
1.65,0.15,79
1.65,0.3,83
1.65,0.45,75
1.65,0.6,56
1.65,0.75,51
1.65,0.9,68
1.65,1.05,69
1.65,1.2,52
1.65,1.35,43
1.65,1.5,33
1.8,-1.5,104
1.8,-1.35,104
1.8,-1.2,100
1.8,-1.05,95
1.8,-0.9,99
1.8,-0.75,97
1.8,-0.6,84
1.8,-0.45,80
1.8,-0.3,74
1.8,-0.15,65
1.8,0.0,78
1.8,0.15,82
1.8,0.3,63
1.8,0.45,95
1.8,0.6,95
1.8,0.75,73
1.8,0.9,61
1.8,1.05,54
1.8,1.2,38
1.8,1.35,27
1.8,1.5,17
1.95,-1.5,92
1.95,-1.35,93
1.95,-1.2,96
1.95,-1.05,96
1.95,-0.9,95
1.95,-0.75,87
1.95,-0.6,77
1.95,-0.45,75
1.95,-0.3,78
1.95,-0.15,62
1.95,0.0,81
1.95,0.15,82
1.95,0.3,82
1.95,0.45,85
1.95,0.6,95
1.95,0.75,86
1.95,0.9,61
1.95,1.05,44
1.95,1.2,28
1.95,1.35,14
1.95,1.5,1
2.1,-1.5,89
2.1,-1.35,89
2.1,-1.2,93
2.1,-1.05,95
2.1,-0.9,92
2.1,-0.75,82
2.1,-0.6,75
2.1,-0.45,75
2.1,-0.3,95
2.1,-0.15,82
2.1,0.0,80
2.1,0.15,81
2.1,0.3,78
2.1,0.45,94
2.1,0.6,101
2.1,0.75,88
2.1,0.9,74
2.1,1.05,55
2.1,1.2,38
2.1,1.35,23
2.1,1.5,7
2.25,-1.5,92
2.25,-1.35,92
2.25,-1.2,89
2.25,-1.05,85
2.25,-0.9,88
2.25,-0.75,86
2.25,-0.6,79
2.25,-0.45,77
2.25,-0.3,88
2.25,-0.15,82
2.25,0.0,77
2.25,0.15,78
2.25,0.3,77
2.25,0.45,96
2.25,0.6,83
2.25,0.75,75
2.25,0.9,78
2.25,1.05,66
2.25,1.2,48
2.25,1.35,32
2.25,1.5,16
2.4,-1.5,92
2.4,-1.35,92
2.4,-1.2,85
2.4,-1.05,80
2.4,-0.9,85
2.4,-0.75,87
2.4,-0.6,83
2.4,-0.45,80
2.4,-0.3,79
2.4,-0.15,77
2.4,0.0,78
2.4,0.15,77
2.4,0.3,81
2.4,0.45,83
2.4,0.6,59
2.4,0.75,62
2.4,0.9,75
2.4,1.05,73
2.4,1.2,55
2.4,1.35,40
2.4,1.5,23
2.55,-1.5,91
2.55,-1.35,88
2.55,-1.2,83
2.55,-1.05,80
2.55,-0.9,82
2.55,-0.75,82
2.55,-0.6,79
2.55,-0.45,74
2.55,-0.3,71
2.55,-0.15,70
2.55,0.0,79
2.55,0.15,80
2.55,0.3,80
2.55,0.45,98
2.55,0.6,77
2.55,0.75,69
2.55,0.9,76
2.55,1.05,79
2.55,1.2,70
2.55,1.35,65
2.55,1.5,59
2.7,-1.5,88
2.7,-1.35,85
2.7,-1.2,82
2.7,-1.05,80
2.7,-0.9,78
2.7,-0.75,77
2.7,-0.6,77
2.7,-0.45,77
2.7,-0.3,76
2.7,-0.15,87
2.7,0.0,68
2.7,0.15,78
2.7,0.3,77
2.7,0.45,77
2.7,0.6,87
2.7,0.75,82
2.7,0.9,79
2.7,1.05,82
2.7,1.2,83
2.7,1.35,91
2.7,1.5,102
2.85,-1.5,82
2.85,-1.35,80
2.85,-1.2,75
2.85,-1.05,72
2.85,-0.9,73
2.85,-0.75,75
2.85,-0.6,81
2.85,-0.45,94
2.85,-0.3,100
2.85,-0.15,102
2.85,0.0,77
2.85,0.15,80
2.85,0.3,82
2.85,0.45,77
2.85,0.6,87
2.85,0.75,84
2.85,0.9,76
2.85,1.05,80
2.85,1.2,88
2.85,1.35,103
2.85,1.5,121
3.0,-1.5,72
3.0,-1.35,73
3.0,-1.2,65
3.0,-1.05,61
3.0,-0.9,68
3.0,-0.75,75
3.0,-0.6,85
3.0,-0.45,102
3.0,-0.3,103
3.0,-0.15,84
3.0,0.0,77
3.0,0.15,81
3.0,0.3,79
3.0,0.45,83
3.0,0.6,85
3.0,0.75,74
3.0,0.9,70
3.0,1.05,84
3.0,1.2,106
3.0,1.35,131
3.0,1.5,157
3.15,-1.5,72
3.15,-1.35,72
3.15,-1.2,66
3.15,-1.05,64
3.15,-0.9,71
3.15,-0.75,77
3.15,-0.6,83
3.15,-0.45,90
3.15,-0.3,92
3.15,-0.15,83
3.15,0.0,82
3.15,0.15,85
3.15,0.3,78
3.15,0.45,78
3.15,0.6,88
3.15,0.75,74
3.15,0.9,73
3.15,1.05,97
3.15,1.2,125
3.15,1.35,152
3.15,1.5,177
3.3,-1.5,75
3.3,-1.35,76
3.3,-1.2,73
3.3,-1.05,73
3.3,-0.9,77
3.3,-0.75,82
3.3,-0.6,86
3.3,-0.45,84
3.3,-0.3,83
3.3,-0.15,87
3.3,0.0,85
3.3,0.15,76
3.3,0.3,84
3.3,0.45,80
3.3,0.6,101
3.3,0.75,90
3.3,0.9,95
3.3,1.05,119
3.3,1.2,143
3.3,1.35,162
3.3,1.5,178
3.45,-1.5,77
3.45,-1.35,78
3.45,-1.2,78
3.45,-1.05,80
3.45,-0.9,82
3.45,-0.75,86
3.45,-0.6,86
3.45,-0.45,86
3.45,-0.3,84
3.45,-0.15,84
3.45,0.0,82
3.45,0.15,100
3.45,0.3,76
3.45,0.45,79
3.45,0.6,89
3.45,0.75,88
3.45,0.9,102
3.45,1.05,131
3.45,1.2,153
3.45,1.35,167
3.45,1.5,178
3.6,-1.5,67
3.6,-1.35,69
3.6,-1.2,75
3.6,-1.05,81
3.6,-0.9,83
3.6,-0.75,86
3.6,-0.6,86
3.6,-0.45,84
3.6,-0.3,82
3.6,-0.15,102
3.6,0.0,80
3.6,0.15,76
3.6,0.3,86
3.6,0.45,62
3.6,0.6,56
3.6,0.75,76
3.6,0.9,79
3.6,1.05,113
3.6,1.2,146
3.6,1.35,158
3.6,1.5,168
3.75,-1.5,57
3.75,-1.35,59
3.75,-1.2,69
3.75,-1.05,80
3.75,-0.9,83
3.75,-0.75,83
3.75,-0.6,80
3.75,-0.45,78
3.75,-0.3,91
3.75,-0.15,93
3.75,0.0,91
3.75,0.15,90
3.75,0.3,82
3.75,0.45,73
3.75,0.6,67
3.75,0.75,72
3.75,0.9,57
3.75,1.05,90
3.75,1.2,131
3.75,1.35,142
3.75,1.5,152
3.9,-1.5,62
3.9,-1.35,62
3.9,-1.2,68
3.9,-1.05,75
3.9,-0.9,76
3.9,-0.75,76
3.9,-0.6,78
3.9,-0.45,88
3.9,-0.3,85
3.9,-0.15,79
3.9,0.0,79
3.9,0.15,79
3.9,0.3,79
3.9,0.45,80
3.9,0.6,83
3.9,0.75,76
3.9,0.9,57
3.9,1.05,74
3.9,1.2,97
3.9,1.35,100
3.9,1.5,101
4.05,-1.5,74
4.05,-1.35,71
4.05,-1.2,67
4.05,-1.05,67
4.05,-0.9,68
4.05,-0.75,71
4.05,-0.6,74
4.05,-0.45,103
4.05,-0.3,139
4.05,-0.15,82
4.05,0.0,79
4.05,0.15,82
4.05,0.3,79
4.05,0.45,83
4.05,0.6,92
4.05,0.75,81
4.05,0.9,64
4.05,1.05,68
4.05,1.2,69
4.05,1.35,59
4.05,1.5,46
4.2,-1.5,82
4.2,-1.35,78
4.2,-1.2,73
4.2,-1.05,70
4.2,-0.9,73
4.2,-0.75,77
4.2,-0.6,65
4.2,-0.45,43
4.2,-0.3,100
4.2,-0.15,70
4.2,0.0,72
4.2,0.15,94
4.2,0.3,89
4.2,0.45,87
4.2,0.6,96
4.2,0.75,85
4.2,0.9,76
4.2,1.05,76
4.2,1.2,69
4.2,1.35,57
4.2,1.5,44
4.35,-1.5,92
4.35,-1.35,88
4.35,-1.2,85
4.35,-1.05,84
4.35,-0.9,87
4.35,-0.75,95
4.35,-0.6,78
4.35,-0.45,6
4.35,-0.3,41
4.35,-0.15,100
4.35,0.0,94
4.35,0.15,77
4.35,0.3,84
4.35,0.45,85
4.35,0.6,83
4.35,0.75,82
4.35,0.9,81
4.35,1.05,74
4.35,1.2,67
4.35,1.35,59
4.35,1.5,53
4.5,-1.5,94
4.5,-1.35,94
4.5,-1.2,95
4.5,-1.05,97
4.5,-0.9,104
4.5,-0.75,112
4.5,-0.6,99
4.5,-0.45,72
4.5,-0.3,73
4.5,-0.15,71
4.5,0.0,78
4.5,0.15,77
4.5,0.3,85
4.5,0.45,82
4.5,0.6,86
4.5,0.75,81
4.5,0.9,69
4.5,1.05,60
4.5,1.2,58
4.5,1.35,54
4.5,1.5,51
4.65,-1.5,82
4.65,-1.35,87
4.65,-1.2,97
4.65,-1.05,108
4.65,-0.9,118
4.65,-0.75,112
4.65,-0.6,90
4.65,-0.45,80
4.65,-0.3,80
4.65,-0.15,80
4.65,0.0,79
4.65,0.15,77
4.65,0.3,82
4.65,0.45,83
4.65,0.6,91
4.65,0.75,104
4.65,0.9,69
4.65,1.05,46
4.65,1.2,47
4.65,1.35,43
4.65,1.5,39
4.8,-1.5,77
4.8,-1.35,83
4.8,-1.2,96
4.8,-1.05,107
4.8,-0.9,110
4.8,-0.75,94
4.8,-0.6,75
4.8,-0.45,77
4.8,-0.3,93
4.8,-0.15,83
4.8,0.0,83
4.8,0.15,83
4.8,0.3,89
4.8,0.45,84
4.8,0.6,102
4.8,0.75,96
4.8,0.9,73
4.8,1.05,49
4.8,1.2,41
4.8,1.35,34
4.8,1.5,27
4.95,-1.5,74
4.95,-1.35,81
4.95,-1.2,110
4.95,-1.05,119
4.95,-0.9,97
4.95,-0.75,76
4.95,-0.6,69
4.95,-0.45,89
4.95,-0.3,84
4.95,-0.15,82
4.95,0.0,75
4.95,0.15,80
4.95,0.3,91
4.95,0.45,93
4.95,0.6,79
4.95,0.75,88
4.95,0.9,89
4.95,1.05,65
4.95,1.2,28
4.95,1.35,7
4.95,1.5,0
5.1,-1.5,72
5.1,-1.35,79
5.1,-1.2,118
5.1,-1.05,129
5.1,-0.9,88
5.1,-0.75,58
5.1,-0.6,57
5.1,-0.45,65
5.1,-0.3,66
5.1,-0.15,54
5.1,0.0,82
5.1,0.15,91
5.1,0.3,80
5.1,0.45,78
5.1,0.6,93
5.1,0.75,96
5.1,0.9,97
5.1,1.05,73
5.1,1.2,30
5.1,1.35,4
5.1,1.5,0
5.25,-1.5,89
5.25,-1.35,88
5.25,-1.2,122
5.25,-1.05,132
5.25,-0.9,89
5.25,-0.75,62
5.25,-0.6,55
5.25,-0.45,51
5.25,-0.3,83
5.25,-0.15,78
5.25,0.0,75
5.25,0.15,85
5.25,0.3,86
5.25,0.45,77
5.25,0.6,98
5.25,0.75,102
5.25,0.9,97
5.25,1.05,85
5.25,1.2,69
5.25,1.35,57
5.25,1.5,45
5.4,-1.5,106
5.4,-1.35,98
5.4,-1.2,130
5.4,-1.05,142
5.4,-0.9,103
5.4,-0.75,83
5.4,-0.6,57
5.4,-0.45,51
5.4,-0.3,91
5.4,-0.15,89
5.4,0.0,79
5.4,0.15,87
5.4,0.3,80
5.4,0.45,77
5.4,0.6,79
5.4,0.75,83
5.4,0.9,82
5.4,1.05,91
5.4,1.2,100
5.4,1.35,103
5.4,1.5,104
5.55,-1.5,137
5.55,-1.35,122
5.55,-1.2,138
5.55,-1.05,146
5.55,-0.9,113
5.55,-0.75,86
5.55,-0.6,52
5.55,-0.45,40
5.55,-0.3,74
5.55,-0.15,87
5.55,0.0,78
5.55,0.15,101
5.55,0.3,87
5.55,0.45,87
5.55,0.6,70
5.55,0.75,65
5.55,0.9,71
5.55,1.05,86
5.55,1.2,98
5.55,1.35,104
5.55,1.5,107
5.7,-1.5,219
5.7,-1.35,188
5.7,-1.2,156
5.7,-1.05,131
5.7,-0.9,116
5.7,-0.75,90
5.7,-0.6,63
5.7,-0.45,63
5.7,-0.3,68
5.7,-0.15,78
5.7,0.0,78
5.7,0.15,80
5.7,0.3,83
5.7,0.45,81
5.7,0.6,70
5.7,0.75,67
5.7,0.9,78
5.7,1.05,91
5.7,1.2,99
5.7,1.35,107
5.7,1.5,113
5.85,-1.5,211
5.85,-1.35,183
5.85,-1.2,150
5.85,-1.05,125
5.85,-0.9,114
5.85,-0.75,95
5.85,-0.6,76
5.85,-0.45,87
5.85,-0.3,85
5.85,-0.15,88
5.85,0.0,86
5.85,0.15,81
5.85,0.3,80
5.85,0.45,85
5.85,0.6,85
5.85,0.75,75
5.85,0.9,82
5.85,1.05,88
5.85,1.2,90
5.85,1.35,95
5.85,1.5,99
6.0,-1.5,108
6.0,-1.35,99
6.0,-1.2,114
6.0,-1.05,127
6.0,-0.9,115
6.0,-0.75,101
6.0,-0.6,79
6.0,-0.45,77
6.0,-0.3,98
6.0,-0.15,77
6.0,0.0,77
6.0,0.15,78
6.0,0.3,99
6.0,0.45,80
6.0,0.6,78
6.0,0.75,83
6.0,0.9,79
6.0,1.05,71
6.0,1.2,61
6.0,1.35,52
6.0,1.5,42
6.15,-1.5,67
6.15,-1.35,67
6.15,-1.2,96
6.15,-1.05,119
6.15,-0.9,107
6.15,-0.75,94
6.15,-0.6,77
6.15,-0.45,77
6.15,-0.3,79
6.15,-0.15,82
6.15,0.0,81
6.15,0.15,77
6.15,0.3,77
6.15,0.45,80
6.15,0.6,77
6.15,0.75,83
6.15,0.9,81
6.15,1.05,68
6.15,1.2,54
6.15,1.35,39
6.15,1.5,24
6.3,-1.5,82
6.3,-1.35,78
6.3,-1.2,82
6.3,-1.05,86
6.3,-0.9,85
6.3,-0.75,83
6.3,-0.6,77
6.3,-0.45,79
6.3,-0.3,82
6.3,-0.15,82
6.3,0.0,78
6.3,0.15,84
6.3,0.3,84
6.3,0.45,77
6.3,0.6,77
6.3,0.75,83
6.3,0.9,80
6.3,1.05,69
6.3,1.2,55
6.3,1.35,41
6.3,1.5,27
6.45,-1.5,96
6.45,-1.35,89
6.45,-1.2,77
6.45,-1.05,77
6.45,-0.9,77
6.45,-0.75,77
6.45,-0.6,77
6.45,-0.45,81
6.45,-0.3,81
6.45,-0.15,78
6.45,0.0,77
6.45,0.15,94
6.45,0.3,77
6.45,0.45,81
6.45,0.6,94
6.45,0.75,76
6.45,0.9,74
6.45,1.05,66
6.45,1.2,54
6.45,1.35,42
6.45,1.5,29
6.6,-1.5,107
6.6,-1.35,98
6.6,-1.2,88
6.6,-1.05,81
6.6,-0.9,82
6.6,-0.75,81
6.6,-0.6,81
6.6,-0.45,93
6.6,-0.3,78
6.6,-0.15,81
6.6,0.0,77
6.6,0.15,77
6.6,0.3,107
6.6,0.45,84
6.6,0.6,76
6.6,0.75,80
6.6,0.9,76
6.6,1.05,66
6.6,1.2,57
6.6,1.35,48
6.6,1.5,40
6.75,-1.5,116
6.75,-1.35,107
6.75,-1.2,100
6.75,-1.05,92
6.75,-0.9,92
6.75,-0.75,91
6.75,-0.6,84
6.75,-0.45,99
6.75,-0.3,82
6.75,-0.15,80
6.75,0.0,77
6.75,0.15,77
6.75,0.3,80
6.75,0.45,78
6.75,0.6,76
6.75,0.75,77
6.75,0.9,74
6.75,1.05,67
6.75,1.2,60
6.75,1.35,54
6.75,1.5,51
6.9,-1.5,108
6.9,-1.35,103
6.9,-1.2,97
6.9,-1.05,91
6.9,-0.9,99
6.9,-0.75,105
6.9,-0.6,90
6.9,-0.45,101
6.9,-0.3,110
6.9,-0.15,88
6.9,0.0,85
6.9,0.15,79
6.9,0.3,81
6.9,0.45,81
6.9,0.6,81
6.9,0.75,80
6.9,0.9,74
6.9,1.05,67
6.9,1.2,62
6.9,1.35,56
6.9,1.5,53
7.05,-1.5,84
7.05,-1.35,85
7.05,-1.2,82
7.05,-1.05,82
7.05,-0.9,99
7.05,-0.75,115
7.05,-0.6,110
7.05,-0.45,97
7.05,-0.3,83
7.05,-0.15,51
7.05,0.0,78
7.05,0.15,78
7.05,0.3,100
7.05,0.45,81
7.05,0.6,91
7.05,0.75,84
7.05,0.9,75
7.05,1.05,69
7.05,1.2,67
7.05,1.35,63
7.05,1.5,60
7.2,-1.5,79
7.2,-1.35,82
7.2,-1.2,83
7.2,-1.05,86
7.2,-0.9,102
7.2,-0.75,117
7.2,-0.6,117
7.2,-0.45,94
7.2,-0.3,78
7.2,-0.15,84
7.2,0.0,86
7.2,0.15,81
7.2,0.3,90
7.2,0.45,83
7.2,0.6,85
7.2,0.75,84
7.2,0.9,75
7.2,1.05,68
7.2,1.2,65
7.2,1.35,61
7.2,1.5,57
7.35,-1.5,71
7.35,-1.35,77
7.35,-1.2,84
7.35,-1.05,87
7.35,-0.9,98
7.35,-0.75,100
7.35,-0.6,96
7.35,-0.45,78
7.35,-0.3,82
7.35,-0.15,86
7.35,0.0,84
7.35,0.15,79
7.35,0.3,79
7.35,0.45,80
7.35,0.6,82
7.35,0.75,83
7.35,0.9,77
7.35,1.05,64
7.35,1.2,52
7.35,1.35,39
7.35,1.5,27
7.5,-1.5,70
7.5,-1.35,76
7.5,-1.2,85
7.5,-1.05,90
7.5,-0.9,91
7.5,-0.75,78
7.5,-0.6,78
7.5,-0.45,84
7.5,-0.3,78
7.5,-0.15,86
7.5,0.0,86
7.5,0.15,79
7.5,0.3,81
7.5,0.45,79
7.5,0.6,81
7.5,0.75,84
7.5,0.9,80
7.5,1.05,61
7.5,1.2,43
7.5,1.35,26
7.5,1.5,11
7.65,-1.5,71
7.65,-1.35,76
7.65,-1.2,91
7.65,-1.05,92
7.65,-0.9,92
7.65,-0.75,86
7.65,-0.6,81
7.65,-0.45,86
7.65,-0.3,86
7.65,-0.15,80
7.65,0.0,79
7.65,0.15,81
7.65,0.3,79
7.65,0.45,82
7.65,0.6,86
7.65,0.75,83
7.65,0.9,73
7.65,1.05,59
7.65,1.2,39
7.65,1.35,20
7.65,1.5,1
7.8,-1.5,71
7.8,-1.35,75
7.8,-1.2,89
7.8,-1.05,92
7.8,-0.9,91
7.8,-0.75,99
7.8,-0.6,93
7.8,-0.45,79
7.8,-0.3,83
7.8,-0.15,79
7.8,0.0,79
7.8,0.15,83
7.8,0.3,92
7.8,0.45,83
7.8,0.6,93
7.8,0.75,86
7.8,0.9,68
7.8,1.05,55
7.8,1.2,35
7.8,1.35,14
7.8,1.5,0
7.95,-1.5,94
7.95,-1.35,88
7.95,-1.2,86
7.95,-1.05,83
7.95,-0.9,83
7.95,-0.75,86
7.95,-0.6,84
7.95,-0.45,80
7.95,-0.3,79
7.95,-0.15,79
7.95,0.0,81
7.95,0.15,79
7.95,0.3,79
7.95,0.45,81
7.95,0.6,95
7.95,0.75,88
7.95,0.9,70
7.95,1.05,52
7.95,1.2,32
7.95,1.35,15
7.95,1.5,0
8.1,-1.5,116
8.1,-1.35,102
8.1,-1.2,85
8.1,-1.05,83
8.1,-0.9,83
8.1,-0.75,83
8.1,-0.6,86
8.1,-0.45,85
8.1,-0.3,86
8.1,-0.15,79
8.1,0.0,86
8.1,0.15,79
8.1,0.3,82
8.1,0.45,88
8.1,0.6,95
8.1,0.75,88
8.1,0.9,71
8.1,1.05,51
8.1,1.2,29
8.1,1.35,13
8.1,1.5,0
8.25,-1.5,110
8.25,-1.35,100
8.25,-1.2,87
8.25,-1.05,83
8.25,-0.9,83
8.25,-0.75,93
8.25,-0.6,103
8.25,-0.45,94
8.25,-0.3,79
8.25,-0.15,90
8.25,0.0,86
8.25,0.15,75
8.25,0.3,58
8.25,0.45,95
8.25,0.6,68
8.25,0.75,84
8.25,0.9,80
8.25,1.05,56
8.25,1.2,28
8.25,1.35,14
8.25,1.5,3
8.4,-1.5,99
8.4,-1.35,94
8.4,-1.2,94
8.4,-1.05,98
8.4,-0.9,84
8.4,-0.75,82
8.4,-0.6,98
8.4,-0.45,84
8.4,-0.3,80
8.4,-0.15,105
8.4,0.0,86
8.4,0.15,77
8.4,0.3,78
8.4,0.45,86
8.4,0.6,81
8.4,0.75,84
8.4,0.9,83
8.4,1.05,62
8.4,1.2,35
8.4,1.35,28
8.4,1.5,24
8.55,-1.5,94
8.55,-1.35,94
8.55,-1.2,102
8.55,-1.05,112
8.55,-0.9,91
8.55,-0.75,81
8.55,-0.6,81
8.55,-0.45,80
8.55,-0.3,80
8.55,-0.15,83
8.55,0.0,84
8.55,0.15,81
8.55,0.3,83
8.55,0.45,79
8.55,0.6,86
8.55,0.75,76
8.55,0.9,68
8.55,1.05,58
8.55,1.2,47
8.55,1.35,48
8.55,1.5,51
8.7,-1.5,94
8.7,-1.35,94
8.7,-1.2,113
8.7,-1.05,121
8.7,-0.9,106
8.7,-0.75,86
8.7,-0.6,83
8.7,-0.45,81
8.7,-0.3,80
8.7,-0.15,80
8.7,0.0,85
8.7,0.15,80
8.7,0.3,81
8.7,0.45,76
8.7,0.6,73
8.7,0.75,60
8.7,0.9,58
8.7,1.05,64
8.7,1.2,85
8.7,1.35,102
8.7,1.5,121
8.85,-1.5,94
8.85,-1.35,94
8.85,-1.2,114
8.85,-1.05,121
8.85,-0.9,105
8.85,-0.75,92
8.85,-0.6,94
8.85,-0.45,94
8.85,-0.3,87
8.85,-0.15,80
8.85,0.0,80
8.85,0.15,85
8.85,0.3,85
8.85,0.45,79
8.85,0.6,79
8.85,0.75,60
8.85,0.9,58
8.85,1.05,71
8.85,1.2,97
8.85,1.35,119
8.85,1.5,142
9.0,-1.5,120
9.0,-1.35,117
9.0,-1.2,121
9.0,-1.05,117
9.0,-0.9,100
9.0,-0.75,94
9.0,-0.6,94
9.0,-0.45,94
9.0,-0.3,82
9.0,-0.15,93
9.0,0.0,112
9.0,0.15,79
9.0,0.3,79
9.0,0.45,79
9.0,0.6,81
9.0,0.75,73
9.0,0.9,71
9.0,1.05,67
9.0,1.2,62
9.0,1.35,65
9.0,1.5,68
9.15,-1.5,134
9.15,-1.35,126
9.15,-1.2,123
9.15,-1.05,116
9.15,-0.9,100
9.15,-0.75,90
9.15,-0.6,85
9.15,-0.45,81
9.15,-0.3,81
9.15,-0.15,82
9.15,0.0,80
9.15,0.15,86
9.15,0.3,82
9.15,0.45,84
9.15,0.6,84
9.15,0.75,91
9.15,0.9,92
9.15,1.05,71
9.15,1.2,37
9.15,1.35,23
9.15,1.5,11
9.3,-1.5,119
9.3,-1.35,114
9.3,-1.2,109
9.3,-1.05,103
9.3,-0.9,98
9.3,-0.75,92
9.3,-0.6,82
9.3,-0.45,78
9.3,-0.3,81
9.3,-0.15,90
9.3,0.0,79
9.3,0.15,88
9.3,0.3,81
9.3,0.45,81
9.3,0.6,95
9.3,0.75,107
9.3,0.9,102
9.3,1.05,77
9.3,1.2,42
9.3,1.35,23
9.3,1.5,8
9.45,-1.5,110
9.45,-1.35,107
9.45,-1.2,95
9.45,-1.05,93
9.45,-0.9,96
9.45,-0.75,98
9.45,-0.6,86
9.45,-0.45,81
9.45,-0.3,78
9.45,-0.15,79
9.45,0.0,79
9.45,0.15,81
9.45,0.3,101
9.45,0.45,81
9.45,0.6,97
9.45,0.75,110
9.45,0.9,90
9.45,1.05,68
9.45,1.2,43
9.45,1.35,23
9.45,1.5,7
9.6,-1.5,107
9.6,-1.35,104
9.6,-1.2,95
9.6,-1.05,93
9.6,-0.9,96
9.6,-0.75,98
9.6,-0.6,83
9.6,-0.45,76
9.6,-0.3,81
9.6,-0.15,78
9.6,0.0,80
9.6,0.15,79
9.6,0.3,85
9.6,0.45,81
9.6,0.6,85
9.6,0.75,92
9.6,0.9,77
9.6,1.05,60
9.6,1.2,41
9.6,1.35,25
9.6,1.5,11
9.75,-1.5,100
9.75,-1.35,98
9.75,-1.2,95
9.75,-1.05,93
9.75,-0.9,97
9.75,-0.75,96
9.75,-0.6,80
9.75,-0.45,69
9.75,-0.3,86
9.75,-0.15,111
9.75,0.0,80
9.75,0.15,79
9.75,0.3,81
9.75,0.45,85
9.75,0.6,88
9.75,0.75,70
9.75,0.9,57
9.75,1.05,46
9.75,1.2,37
9.75,1.35,25
9.75,1.5,15
9.9,-1.5,98
9.9,-1.35,95
9.9,-1.2,93
9.9,-1.05,92
9.9,-0.9,93
9.9,-0.75,90
9.9,-0.6,76
9.9,-0.45,78
9.9,-0.3,94
9.9,-0.15,81
9.9,0.0,78
9.9,0.15,81
9.9,0.3,79
9.9,0.45,83
9.9,0.6,88
9.9,0.75,69
9.9,0.9,48
9.9,1.05,36
9.9,1.2,32
9.9,1.35,24
9.9,1.5,18
10.05,-1.5,97
10.05,-1.35,93
10.05,-1.2,89
10.05,-1.05,86
10.05,-0.9,83
10.05,-0.75,79
10.05,-0.6,76
10.05,-0.45,79
10.05,-0.3,78
10.05,-0.15,81
10.05,0.0,69
10.05,0.15,80
10.05,0.3,79
10.05,0.45,79
10.05,0.6,86
10.05,0.75,75
10.05,0.9,51
10.05,1.05,39
10.05,1.2,36
10.05,1.35,33
10.05,1.5,32
10.2,-1.5,96
10.2,-1.35,91
10.2,-1.2,86
10.2,-1.05,82
10.2,-0.9,79
10.2,-0.75,78
10.2,-0.6,76
10.2,-0.45,76
10.2,-0.3,77
10.2,-0.15,75
10.2,0.0,65
10.2,0.15,81
10.2,0.3,79
10.2,0.45,79
10.2,0.6,87
10.2,0.75,81
10.2,0.9,60
10.2,1.05,48
10.2,1.2,42
10.2,1.35,40
10.2,1.5,40
10.35,-1.5,88
10.35,-1.35,84
10.35,-1.2,81
10.35,-1.05,78
10.35,-0.9,77
10.35,-0.75,77
10.35,-0.6,81
10.35,-0.45,84
10.35,-0.3,94
10.35,-0.15,91
10.35,0.0,71
10.35,0.15,81
10.35,0.3,92
10.35,0.45,95
10.35,0.6,95
10.35,0.75,90
10.35,0.9,83
10.35,1.05,64
10.35,1.2,44
10.35,1.35,38
10.35,1.5,34
10.5,-1.5,88
10.5,-1.35,85
10.5,-1.2,83
10.5,-1.05,81
10.5,-0.9,78
10.5,-0.75,77
10.5,-0.6,82
10.5,-0.45,88
10.5,-0.3,88
10.5,-0.15,83
10.5,0.0,79
10.5,0.15,87
10.5,0.3,90
10.5,0.45,85
10.5,0.6,94
10.5,0.75,96
10.5,0.9,97
10.5,1.05,76
10.5,1.2,47
10.5,1.35,38
10.5,1.5,31
10.65,-1.5,103
10.65,-1.35,97
10.65,-1.2,92
10.65,-1.05,87
10.65,-0.9,83
10.65,-0.75,82
10.65,-0.6,82
10.65,-0.45,82
10.65,-0.3,82
10.65,-0.15,79
10.65,0.0,81
10.65,0.15,88
10.65,0.3,81
10.65,0.45,80
10.65,0.6,89
10.65,0.75,98
10.65,0.9,102
10.65,1.05,90
10.65,1.2,73
10.65,1.35,69
10.65,1.5,66
10.8,-1.5,122
10.8,-1.35,113
10.8,-1.2,104
10.8,-1.05,96
10.8,-0.9,90
10.8,-0.75,88
10.8,-0.6,85
10.8,-0.45,82
10.8,-0.3,83
10.8,-0.15,79
10.8,0.0,83
10.8,0.15,85
10.8,0.3,81
10.8,0.45,80
10.8,0.6,91
10.8,0.75,101
10.8,0.9,108
10.8,1.05,103
10.8,1.2,96
10.8,1.35,96
10.8,1.5,96
10.95,-1.5,122
10.95,-1.35,115
10.95,-1.2,111
10.95,-1.05,103
10.95,-0.9,95
10.95,-0.75,89
10.95,-0.6,86
10.95,-0.45,85
10.95,-0.3,82
10.95,-0.15,68
10.95,0.0,58
10.95,0.15,58
10.95,0.3,69
10.95,0.45,83
10.95,0.6,92
10.95,0.75,97
10.95,0.9,101
10.95,1.05,97
10.95,1.2,91
10.95,1.35,90
10.95,1.5,90
11.1,-1.5,102
11.1,-1.35,102
11.1,-1.2,108
11.1,-1.05,108
11.1,-0.9,99
11.1,-0.75,88
11.1,-0.6,82
11.1,-0.45,80
11.1,-0.3,79
11.1,-0.15,60
11.1,0.0,29
11.1,0.15,31
11.1,0.3,66
11.1,0.45,88
11.1,0.6,89
11.1,0.75,85
11.1,0.9,79
11.1,1.05,76
11.1,1.2,73
11.1,1.35,67
11.1,1.5,61
11.25,-1.5,96
11.25,-1.35,99
11.25,-1.2,112
11.25,-1.05,119
11.25,-0.9,107
11.25,-0.75,91
11.25,-0.6,80
11.25,-0.45,79
11.25,-0.3,78
11.25,-0.15,79
11.25,0.0,68
11.25,0.15,63
11.25,0.3,81
11.25,0.45,89
11.25,0.6,90
11.25,0.75,86
11.25,0.9,77
11.25,1.05,70
11.25,1.2,64
11.25,1.35,56
11.25,1.5,47
11.4,-1.5,92
11.4,-1.35,94
11.4,-1.2,112
11.4,-1.05,127
11.4,-0.9,112
11.4,-0.75,97
11.4,-0.6,93
11.4,-0.45,85
11.4,-0.3,80
11.4,-0.15,99
11.4,0.0,105
11.4,0.15,81
11.4,0.3,80
11.4,0.45,91
11.4,0.6,95
11.4,0.75,88
11.4,0.9,78
11.4,1.05,67
11.4,1.2,56
11.4,1.35,44
11.4,1.5,32
11.55,-1.5,90
11.55,-1.35,93
11.55,-1.2,108
11.55,-1.05,120
11.55,-0.9,108
11.55,-0.75,97
11.55,-0.6,95
11.55,-0.45,81
11.55,-0.3,80
11.55,-0.15,95
11.55,0.0,90
11.55,0.15,80
11.55,0.3,98
11.55,0.45,100
11.55,0.6,99
11.55,0.75,92
11.55,0.9,80
11.55,1.05,67
11.55,1.2,53
11.55,1.35,39
11.55,1.5,25
11.7,-1.5,113
11.7,-1.35,111
11.7,-1.2,105
11.7,-1.05,99
11.7,-0.9,93
11.7,-0.75,83
11.7,-0.6,81
11.7,-0.45,78
11.7,-0.3,80
11.7,-0.15,90
11.7,0.0,84
11.7,0.15,84
11.7,0.3,101
11.7,0.45,91
11.7,0.6,89
11.7,0.75,87
11.7,0.9,76
11.7,1.05,66
11.7,1.2,57
11.7,1.35,44
11.7,1.5,32
11.85,-1.5,125
11.85,-1.35,117
11.85,-1.2,99
11.85,-1.05,82
11.85,-0.9,79
11.85,-0.75,72
11.85,-0.6,75
11.85,-0.45,82
11.85,-0.3,78
11.85,-0.15,84
11.85,0.0,85
11.85,0.15,86
11.85,0.3,97
11.85,0.45,80
11.85,0.6,68
11.85,0.75,69
11.85,0.9,63
11.85,1.05,62
11.85,1.2,61
11.85,1.35,52
11.85,1.5,43
12.0,-1.5,106
12.0,-1.35,101
12.0,-1.2,89
12.0,-1.05,76
12.0,-0.9,71
12.0,-0.75,70
12.0,-0.6,78
12.0,-0.45,92
12.0,-0.3,81
12.0,-0.15,86
12.0,0.0,90
12.0,0.15,77
12.0,0.3,81
12.0,0.45,72
12.0,0.6,59
12.0,0.75,57
12.0,0.9,55
12.0,1.05,59
12.0,1.2,62
12.0,1.35,55
12.0,1.5,47
12.15,-1.5,87
12.15,-1.35,85
12.15,-1.2,81
12.15,-1.05,75
12.15,-0.9,71
12.15,-0.75,74
12.15,-0.6,79
12.15,-0.45,81
12.15,-0.3,81
12.15,-0.15,82
12.15,0.0,95
12.15,0.15,78
12.15,0.3,71
12.15,0.45,63
12.15,0.6,55
12.15,0.75,53
12.15,0.9,55
12.15,1.05,61
12.15,1.2,63
12.15,1.35,61
12.15,1.5,56
12.3,-1.5,80
12.3,-1.35,79
12.3,-1.2,76
12.3,-1.05,74
12.3,-0.9,74
12.3,-0.75,78
12.3,-0.6,82
12.3,-0.45,85
12.3,-0.3,91
12.3,-0.15,78
12.3,0.0,87
12.3,0.15,79
12.3,0.3,70
12.3,0.45,63
12.3,0.6,57
12.3,0.75,55
12.3,0.9,57
12.3,1.05,61
12.3,1.2,63
12.3,1.35,61
12.3,1.5,58
12.45,-1.5,75
12.45,-1.35,75
12.45,-1.2,74
12.45,-1.05,74
12.45,-0.9,75
12.45,-0.75,79
12.45,-0.6,83
12.45,-0.45,94
12.45,-0.3,96
12.45,-0.15,78
12.45,0.0,79
12.45,0.15,80
12.45,0.3,73
12.45,0.45,69
12.45,0.6,66
12.45,0.75,69
12.45,0.9,71
12.45,1.05,66
12.45,1.2,60
12.45,1.35,60
12.45,1.5,58
12.6,-1.5,75
12.6,-1.35,76
12.6,-1.2,75
12.6,-1.05,75
12.6,-0.9,78
12.6,-0.75,80
12.6,-0.6,83
12.6,-0.45,85
12.6,-0.3,85
12.6,-0.15,80
12.6,0.0,78
12.6,0.15,79
12.6,0.3,76
12.6,0.45,75
12.6,0.6,74
12.6,0.75,75
12.6,0.9,75
12.6,1.05,68
12.6,1.2,65
12.6,1.35,65
12.6,1.5,65
12.75,-1.5,75
12.75,-1.35,75
12.75,-1.2,76
12.75,-1.05,78
12.75,-0.9,81
12.75,-0.75,81
12.75,-0.6,80
12.75,-0.45,80
12.75,-0.3,80
12.75,-0.15,81
12.75,0.0,79
12.75,0.15,77
12.75,0.3,77
12.75,0.45,77
12.75,0.6,77
12.75,0.75,75
12.75,0.9,71
12.75,1.05,69
12.75,1.2,72
12.75,1.35,73
12.75,1.5,73
12.9,-1.5,76
12.9,-1.35,76
12.9,-1.2,76
12.9,-1.05,77
12.9,-0.9,81
12.9,-0.75,81
12.9,-0.6,80
12.9,-0.45,80
12.9,-0.3,80
12.9,-0.15,81
12.9,0.0,79
12.9,0.15,74
12.9,0.3,72
12.9,0.45,71
12.9,0.6,72
12.9,0.75,79
12.9,0.9,79
12.9,1.05,74
12.9,1.2,73
12.9,1.35,73
12.9,1.5,73
13.05,-1.5,76
13.05,-1.35,76
13.05,-1.2,76
13.05,-1.05,76
13.05,-0.9,79
13.05,-0.75,81
13.05,-0.6,81
13.05,-0.45,80
13.05,-0.3,80
13.05,-0.15,81
13.05,0.0,80
13.05,0.15,74
13.05,0.3,71
13.05,0.45,65
13.05,0.6,67
13.05,0.75,84
13.05,0.9,89
13.05,1.05,79
13.05,1.2,73
13.05,1.35,73
13.05,1.5,73
