-3.0,-1.5,150
-3.0,-1.35,150
-3.0,-1.2,147
-3.0,-1.05,145
-3.0,-0.9,145
-3.0,-0.75,145
-3.0,-0.6,126
-3.0,-0.45,118
-3.0,-0.3,119
-3.0,-0.15,119
-3.0,0.0,120
-3.0,0.15,121
-3.0,0.3,122
-3.0,0.45,127
-3.0,0.6,132
-3.0,0.75,137
-3.0,0.9,140
-3.0,1.05,143
-3.0,1.2,145
-3.0,1.35,146
-3.0,1.5,146
-2.85,-1.5,157
-2.85,-1.35,163
-2.85,-1.2,153
-2.85,-1.05,144
-2.85,-0.9,145
-2.85,-0.75,145
-2.85,-0.6,130
-2.85,-0.45,125
-2.85,-0.3,126
-2.85,-0.15,128
-2.85,0.0,130
-2.85,0.15,132
-2.85,0.3,133
-2.85,0.45,137
-2.85,0.6,141
-2.85,0.75,145
-2.85,0.9,147
-2.85,1.05,149
-2.85,1.2,150
-2.85,1.35,150
-2.85,1.5,149
-2.7,-1.5,161
-2.7,-1.35,170
-2.7,-1.2,157
-2.7,-1.05,144
-2.7,-0.9,144
-2.7,-0.75,144
-2.7,-0.6,135
-2.7,-0.45,132
-2.7,-0.3,134
-2.7,-0.15,137
-2.7,0.0,140
-2.7,0.15,144
-2.7,0.3,146
-2.7,0.45,149
-2.7,0.6,151
-2.7,0.75,152
-2.7,0.9,153
-2.7,1.05,153
-2.7,1.2,153
-2.7,1.35,152
-2.7,1.5,151
-2.55,-1.5,158
-2.55,-1.35,170
-2.55,-1.2,168
-2.55,-1.05,162
-2.55,-0.9,149
-2.55,-0.75,145
-2.55,-0.6,142
-2.55,-0.45,141
-2.55,-0.3,142
-2.55,-0.15,145
-2.55,0.0,151
-2.55,0.15,156
-2.55,0.3,158
-2.55,0.45,159
-2.55,0.6,158
-2.55,0.75,156
-2.55,0.9,156
-2.55,1.05,155
-2.55,1.2,155
-2.55,1.35,155
-2.55,1.5,155
-2.4,-1.5,146
-2.4,-1.35,160
-2.4,-1.2,175
-2.4,-1.05,183
-2.4,-0.9,156
-2.4,-0.75,146
-2.4,-0.6,146
-2.4,-0.45,146
-2.4,-0.3,147
-2.4,-0.15,152
-2.4,0.0,160
-2.4,0.15,163
-2.4,0.3,163
-2.4,0.45,163
-2.4,0.6,158
-2.4,0.75,155
-2.4,0.9,154
-2.4,1.05,154
-2.4,1.2,155
-2.4,1.35,155
-2.4,1.5,155
-2.25,-1.5,105
-2.25,-1.35,130
-2.25,-1.2,146
-2.25,-1.05,162
-2.25,-0.9,161
-2.25,-0.75,150
-2.25,-0.6,146
-2.25,-0.45,149
-2.25,-0.3,147
-2.25,-0.15,154
-2.25,0.0,163
-2.25,0.15,163
-2.25,0.3,163
-2.25,0.45,161
-2.25,0.6,152
-2.25,0.75,149
-2.25,0.9,149
-2.25,1.05,150
-2.25,1.2,154
-2.25,1.35,155
-2.25,1.5,155
-2.1,-1.5,50
-2.1,-1.35,95
-2.1,-1.2,112
-2.1,-1.05,133
-2.1,-0.9,158
-2.1,-0.75,148
-2.1,-0.6,146
-2.1,-0.45,151
-2.1,-0.3,158
-2.1,-0.15,172
-2.1,0.0,162
-2.1,0.15,163
-2.1,0.3,163
-2.1,0.45,154
-2.1,0.6,141
-2.1,0.75,140
-2.1,0.9,146
-2.1,1.05,148
-2.1,1.2,149
-2.1,1.35,152
-2.1,1.5,154
-1.95,-1.5,103
-1.95,-1.35,125
-1.95,-1.2,124
-1.95,-1.05,129
-1.95,-0.9,135
-1.95,-0.75,136
-1.95,-0.6,138
-1.95,-0.45,147
-1.95,-0.3,186
-1.95,-0.15,186
-1.95,0.0,157
-1.95,0.15,147
-1.95,0.3,136
-1.95,0.45,135
-1.95,0.6,133
-1.95,0.75,134
-1.95,0.9,141
-1.95,1.05,144
-1.95,1.2,146
-1.95,1.35,148
-1.95,1.5,150
-1.8,-1.5,196
-1.8,-1.35,177
-1.8,-1.2,139
-1.8,-1.05,142
-1.8,-0.9,132
-1.8,-0.75,149
-1.8,-0.6,173
-1.8,-0.45,160
-1.8,-0.3,186
-1.8,-0.15,139
-1.8,0.0,82
-1.8,0.15,74
-1.8,0.3,95
-1.8,0.45,118
-1.8,0.6,134
-1.8,0.75,136
-1.8,0.9,137
-1.8,1.05,140
-1.8,1.2,143
-1.8,1.35,144
-1.8,1.5,145
-1.65,-1.5,164
-1.65,-1.35,153
-1.65,-1.2,123
-1.65,-1.05,133
-1.65,-0.9,166
-1.65,-0.75,224
-1.65,-0.6,255
-1.65,-0.45,233
-1.65,-0.3,112
-1.65,-0.15,23
-1.65,0.0,0
-1.65,0.15,12
-1.65,0.3,65
-1.65,0.45,108
-1.65,0.6,134
-1.65,0.75,135
-1.65,0.9,135
-1.65,1.05,137
-1.65,1.2,141
-1.65,1.35,141
-1.65,1.5,141
-1.5,-1.5,145
-1.5,-1.35,145
-1.5,-1.2,140
-1.5,-1.05,142
-1.5,-0.9,196
-1.5,-0.75,255
-1.5,-0.6,255
-1.5,-0.45,255
-1.5,-0.3,234
-1.5,-0.15,49
-1.5,0.0,0
-1.5,0.15,0
-1.5,0.3,70
-1.5,0.45,119
-1.5,0.6,139
-1.5,0.75,137
-1.5,0.9,134
-1.5,1.05,135
-1.5,1.2,139
-1.5,1.35,139
-1.5,1.5,137
-1.35,-1.5,145
-1.35,-1.35,146
-1.35,-1.2,144
-1.35,-1.05,145
-1.35,-0.9,181
-1.35,-0.75,255
-1.35,-0.6,255
-1.35,-0.45,255
-1.35,-0.3,255
-1.35,-0.15,148
-1.35,0.0,66
-1.35,0.15,55
-1.35,0.3,90
-1.35,0.45,127
-1.35,0.6,145
-1.35,0.75,141
-1.35,0.9,136
-1.35,1.05,133
-1.35,1.2,135
-1.35,1.35,132
-1.35,1.5,130
-1.2,-1.5,145
-1.2,-1.35,147
-1.2,-1.2,150
-1.2,-1.05,154
-1.2,-0.9,178
-1.2,-0.75,199
-1.2,-0.6,196
-1.2,-0.45,180
-1.2,-0.3,165
-1.2,-0.15,163
-1.2,0.0,140
-1.2,0.15,125
-1.2,0.3,126
-1.2,0.45,138
-1.2,0.6,148
-1.2,0.75,144
-1.2,0.9,136
-1.2,1.05,131
-1.2,1.2,128
-1.2,1.35,123
-1.2,1.5,119
-1.05,-1.5,146
-1.05,-1.35,146
-1.05,-1.2,149
-1.05,-1.05,155
-1.05,-0.9,162
-1.05,-0.75,151
-1.05,-0.6,128
-1.05,-0.45,119
-1.05,-0.3,129
-1.05,-0.15,157
-1.05,0.0,173
-1.05,0.15,164
-1.05,0.3,155
-1.05,0.45,152
-1.05,0.6,149
-1.05,0.75,144
-1.05,0.9,137
-1.05,1.05,132
-1.05,1.2,130
-1.05,1.35,126
-1.05,1.5,122
-0.9,-1.5,148
-0.9,-1.35,146
-0.9,-1.2,146
-0.9,-1.05,152
-0.9,-0.9,161
-0.9,-0.75,161
-0.9,-0.6,148
-0.9,-0.45,143
-0.9,-0.3,147
-0.9,-0.15,151
-0.9,0.0,172
-0.9,0.15,169
-0.9,0.3,158
-0.9,0.45,152
-0.9,0.6,148
-0.9,0.75,142
-0.9,0.9,135
-0.9,1.05,131
-0.9,1.2,132
-0.9,1.35,131
-0.9,1.5,129
-0.75,-1.5,151
-0.75,-1.35,146
-0.75,-1.2,141
-0.75,-1.05,144
-0.75,-0.9,159
-0.75,-0.75,161
-0.75,-0.6,142
-0.75,-0.45,137
-0.75,-0.3,144
-0.75,-0.15,149
-0.75,0.0,167
-0.75,0.15,169
-0.75,0.3,160
-0.75,0.45,153
-0.75,0.6,150
-0.75,0.75,141
-0.75,0.9,132
-0.75,1.05,121
-0.75,1.2,103
-0.75,1.35,91
-0.75,1.5,80
-0.6,-1.5,153
-0.6,-1.35,144
-0.6,-1.2,135
-0.6,-1.05,134
-0.6,-0.9,146
-0.6,-0.75,156
-0.6,-0.6,138
-0.6,-0.45,131
-0.6,-0.3,136
-0.6,-0.15,147
-0.6,0.0,161
-0.6,0.15,169
-0.6,0.3,169
-0.6,0.45,163
-0.6,0.6,145
-0.6,0.75,134
-0.6,0.9,130
-0.6,1.05,104
-0.6,1.2,35
-0.6,1.35,0
-0.6,1.5,0
-0.45,-1.5,154
-0.45,-1.35,144
-0.45,-1.2,133
-0.45,-1.05,129
-0.45,-0.9,137
-0.45,-0.75,152
-0.45,-0.6,157
-0.45,-0.45,146
-0.45,-0.3,142
-0.45,-0.15,148
-0.45,0.0,160
-0.45,0.15,169
-0.45,0.3,169
-0.45,0.45,162
-0.45,0.6,139
-0.45,0.75,119
-0.45,0.9,104
-0.45,1.05,78
-0.45,1.2,31
-0.45,1.35,5
-0.45,1.5,0
-0.3,-1.5,157
-0.3,-1.35,151
-0.3,-1.2,136
-0.3,-1.05,129
-0.3,-0.9,136
-0.3,-0.75,151
-0.3,-0.6,164
-0.3,-0.45,164
-0.3,-0.3,158
-0.3,-0.15,152
-0.3,0.0,152
-0.3,0.15,158
-0.3,0.3,160
-0.3,0.45,150
-0.3,0.6,122
-0.3,0.75,75
-0.3,0.9,20
-0.3,1.05,8
-0.3,1.2,62
-0.3,1.35,70
-0.3,1.5,84
-0.15,-1.5,155
-0.15,-1.35,150
-0.15,-1.2,139
-0.15,-1.05,136
-0.15,-0.9,144
-0.15,-0.75,149
-0.15,-0.6,152
-0.15,-0.45,157
-0.15,-0.3,155
-0.15,-0.15,150
-0.15,0.0,148
-0.15,0.15,147
-0.15,0.3,157
-0.15,0.45,143
-0.15,0.6,95
-0.15,0.75,38
-0.15,0.9,5
-0.15,1.05,5
-0.15,1.2,65
-0.15,1.35,83
-0.15,1.5,103
0.0,-1.5,140
0.0,-1.35,139
0.0,-1.2,138
0.0,-1.05,144
0.0,-0.9,156
0.0,-0.75,151
0.0,-0.6,146
0.0,-0.45,146
0.0,-0.3,146
0.0,-0.15,145
0.0,0.0,144
0.0,0.15,143
0.0,0.3,156
0.0,0.45,130
0.0,0.6,58
0.0,0.75,5
0.0,0.9,49
0.0,1.05,70
0.0,1.2,90
0.0,1.35,110
0.0,1.5,128
0.15,-1.5,139
0.15,-1.35,141
0.15,-1.2,145
0.15,-1.05,152
0.15,-0.9,161
0.15,-0.75,156
0.15,-0.6,150
0.15,-0.45,148
0.15,-0.3,152
0.15,-0.15,147
0.15,0.0,140
0.15,0.15,145
0.15,0.3,168
0.15,0.45,126
0.15,0.6,43
0.15,0.75,0
0.15,0.9,63
0.15,1.05,92
0.15,1.2,110
0.15,1.35,129
0.15,1.5,145
0.3,-1.5,141
0.3,-1.35,144
0.3,-1.2,151
0.3,-1.05,159
0.3,-0.9,161
0.3,-0.75,157
0.3,-0.6,156
0.3,-0.45,156
0.3,-0.3,154
0.3,-0.15,149
0.3,0.0,143
0.3,0.15,148
0.3,0.3,181
0.3,0.45,151
0.3,0.6,87
0.3,0.75,69
0.3,0.9,96
0.3,1.05,121
0.3,1.2,142
0.3,1.35,157
0.3,1.5,170
0.45,-1.5,146
0.45,-1.35,150
0.45,-1.2,154
0.45,-1.05,159
0.45,-0.9,161
0.45,-0.75,155
0.45,-0.6,153
0.45,-0.45,149
0.45,-0.3,145
0.45,-0.15,145
0.45,0.0,151
0.45,0.15,151
0.45,0.3,153
0.45,0.45,147
0.45,0.6,129
0.45,0.75,122
0.45,0.9,132
0.45,1.05,145
0.45,1.2,158
0.45,1.35,165
0.45,1.5,170
0.6,-1.5,148
0.6,-1.35,157
0.6,-1.2,162
0.6,-1.05,161
0.6,-0.9,156
0.6,-0.75,150
0.6,-0.6,150
0.6,-0.45,153
0.6,-0.3,148
0.6,-0.15,149
0.6,0.0,150
0.6,0.15,150
0.6,0.3,139
0.6,0.45,135
0.6,0.6,136
0.6,0.75,149
0.6,0.9,157
0.6,1.05,157
0.6,1.2,163
0.6,1.35,158
0.6,1.5,154
0.75,-1.5,149
0.75,-1.35,159
0.75,-1.2,165
0.75,-1.05,163
0.75,-0.9,152
0.75,-0.75,147
0.75,-0.6,147
0.75,-0.45,161
0.75,-0.3,163
0.75,-0.15,155
0.75,0.0,150
0.75,0.15,149
0.75,0.3,140
0.75,0.45,131
0.75,0.6,133
0.75,0.75,145
0.75,0.9,152
0.75,1.05,156
0.75,1.2,162
0.75,1.35,159
0.75,1.5,154
0.9,-1.5,146
0.9,-1.35,154
0.9,-1.2,160
0.9,-1.05,159
0.9,-0.9,151
0.9,-0.75,147
0.9,-0.6,147
0.9,-0.45,155
0.9,-0.3,162
0.9,-0.15,153
0.9,0.0,149
0.9,0.15,147
0.9,0.3,139
0.9,0.45,126
0.9,0.6,130
0.9,0.75,140
0.9,0.9,147
0.9,1.05,147
0.9,1.2,155
0.9,1.35,154
0.9,1.5,154
1.05,-1.5,144
1.05,-1.35,148
1.05,-1.2,148
1.05,-1.05,146
1.05,-0.9,145
1.05,-0.75,148
1.05,-0.6,147
1.05,-0.45,151
1.05,-0.3,153
1.05,-0.15,148
1.05,0.0,148
1.05,0.15,148
1.05,0.3,151
1.05,0.45,139
1.05,0.6,146
1.05,0.75,163
1.05,0.9,171
1.05,1.05,149
1.05,1.2,151
1.05,1.35,154
1.05,1.5,154
1.2,-1.5,148
1.2,-1.35,144
1.2,-1.2,143
1.2,-1.05,144
1.2,-0.9,146
1.2,-0.75,149
1.2,-0.6,147
1.2,-0.45,149
1.2,-0.3,153
1.2,-0.15,148
1.2,0.0,150
1.2,0.15,152
1.2,0.3,152
1.2,0.45,156
1.2,0.6,190
1.2,0.75,223
1.2,0.9,183
1.2,1.05,147
1.2,1.2,152
1.2,1.35,159
1.2,1.5,168
1.35,-1.5,147
1.35,-1.35,143
1.35,-1.2,143
1.35,-1.05,144
1.35,-0.9,147
1.35,-0.75,149
1.35,-0.6,147
1.35,-0.45,153
1.35,-0.3,149
1.35,-0.15,149
1.35,0.0,149
1.35,0.15,147
1.35,0.3,125
1.35,0.45,143
1.35,0.6,164
1.35,0.75,200
1.35,0.9,171
1.35,1.05,143
1.35,1.2,148
1.35,1.35,152
1.35,1.5,157
1.5,-1.5,143
1.5,-1.35,143
1.5,-1.2,145
1.5,-1.05,145
1.5,-0.9,146
1.5,-0.75,150
1.5,-0.6,149
1.5,-0.45,151
1.5,-0.3,149
1.5,-0.15,149
1.5,0.0,149
1.5,0.15,149
1.5,0.3,170
1.5,0.45,72
1.5,0.6,80
1.5,0.75,131
1.5,0.9,150
1.5,1.05,139
1.5,1.2,122
1.5,1.35,107
1.5,1.5,94
1.65,-1.5,130
1.65,-1.35,137
1.65,-1.2,146
1.65,-1.05,148
1.65,-0.9,147
1.65,-0.75,150
1.65,-0.6,148
1.65,-0.45,148
1.65,-0.3,148
1.65,-0.15,147
1.65,0.0,149
1.65,0.15,155
1.65,0.3,142
1.65,0.45,57
1.65,0.6,53
1.65,0.75,106
1.65,0.9,136
1.65,1.05,136
1.65,1.2,119
1.65,1.35,104
1.65,1.5,89
1.8,-1.5,69
1.8,-1.35,97
1.8,-1.2,138
1.8,-1.05,151
1.8,-0.9,150
1.8,-0.75,148
1.8,-0.6,147
1.8,-0.45,148
1.8,-0.3,147
1.8,-0.15,147
1.8,0.0,147
1.8,0.15,153
1.8,0.3,151
1.8,0.45,135
1.8,0.6,117
1.8,0.75,151
1.8,0.9,122
1.8,1.05,127
1.8,1.2,140
1.8,1.35,137
1.8,1.5,133
1.95,-1.5,57
1.95,-1.35,86
1.95,-1.2,135
1.95,-1.05,158
1.95,-0.9,159
1.95,-0.75,153
1.95,-0.6,148
1.95,-0.45,147
1.95,-0.3,149
1.95,-0.15,149
1.95,0.0,147
1.95,0.15,146
1.95,0.3,144
1.95,0.45,147
1.95,0.6,164
1.95,0.75,186
1.95,0.9,136
1.95,1.05,132
1.95,1.2,141
1.95,1.35,141
1.95,1.5,141
2.1,-1.5,89
2.1,-1.35,138
2.1,-1.2,169
2.1,-1.05,179
2.1,-0.9,163
2.1,-0.75,158
2.1,-0.6,148
2.1,-0.45,149
2.1,-0.3,152
2.1,-0.15,143
2.1,0.0,149
2.1,0.15,155
2.1,0.3,146
2.1,0.45,150
2.1,0.6,159
2.1,0.75,165
2.1,0.9,162
2.1,1.05,159
2.1,1.2,127
2.1,1.35,122
2.1,1.5,122
2.25,-1.5,94
2.25,-1.35,166
2.25,-1.2,203
2.25,-1.05,200
2.25,-0.9,157
2.25,-0.75,157
2.25,-0.6,150
2.25,-0.45,152
2.25,-0.3,147
2.25,-0.15,128
2.25,0.0,142
2.25,0.15,161
2.25,0.3,146
2.25,0.45,148
2.25,0.6,151
2.25,0.75,146
2.25,0.9,145
2.25,1.05,150
2.25,1.2,131
2.25,1.35,127
2.25,1.5,127
2.4,-1.5,116
2.4,-1.35,176
2.4,-1.2,224
2.4,-1.05,231
2.4,-0.9,168
2.4,-0.75,146
2.4,-0.6,156
2.4,-0.45,155
2.4,-0.3,148
2.4,-0.15,140
2.4,0.0,145
2.4,0.15,146
2.4,0.3,152
2.4,0.45,187
2.4,0.6,175
2.4,0.75,144
2.4,0.9,142
2.4,1.05,142
2.4,1.2,139
2.4,1.35,139
2.4,1.5,140
2.55,-1.5,144
2.55,-1.35,188
2.55,-1.2,210
2.55,-1.05,226
2.55,-0.9,182
2.55,-0.75,146
2.55,-0.6,146
2.55,-0.45,147
2.55,-0.3,156
2.55,-0.15,145
2.55,0.0,152
2.55,0.15,152
2.55,0.3,161
2.55,0.45,221
2.55,0.6,207
2.55,0.75,166
2.55,0.9,145
2.55,1.05,144
2.55,1.2,143
2.55,1.35,143
2.55,1.5,143
2.7,-1.5,127
2.7,-1.35,158
2.7,-1.2,176
2.7,-1.05,144
2.7,-0.9,121
2.7,-0.75,168
2.7,-0.6,163
2.7,-0.45,161
2.7,-0.3,145
2.7,-0.15,145
2.7,0.0,147
2.7,0.15,91
2.7,0.3,43
2.7,0.45,161
2.7,0.6,207
2.7,0.75,179
2.7,0.9,150
2.7,1.05,147
2.7,1.2,141
2.7,1.35,139
2.7,1.5,136
2.85,-1.5,111
2.85,-1.35,129
2.85,-1.2,147
2.85,-1.05,100
2.85,-0.9,90
2.85,-0.75,137
2.85,-0.6,144
2.85,-0.45,145
2.85,-0.3,158
2.85,-0.15,147
2.85,0.0,172
2.85,0.15,58
2.85,0.3,10
2.85,0.45,132
2.85,0.6,204
2.85,0.75,185
2.85,0.9,155
2.85,1.05,150
2.85,1.2,140
2.85,1.35,135
2.85,1.5,131
3.0,-1.5,121
3.0,-1.35,130
3.0,-1.2,100
3.0,-1.05,100
3.0,-0.9,136
3.0,-0.75,158
3.0,-0.6,150
3.0,-0.45,158
3.0,-0.3,148
3.0,-0.15,130
3.0,0.0,142
3.0,0.15,144
3.0,0.3,126
3.0,0.45,149
3.0,0.6,239
3.0,0.75,255
3.0,0.9,157
3.0,1.05,147
3.0,1.2,141
3.0,1.35,135
3.0,1.5,129
3.15,-1.5,126
3.15,-1.35,134
3.15,-1.2,120
3.15,-1.05,149
3.15,-0.9,168
3.15,-0.75,157
3.15,-0.6,158
3.15,-0.45,146
3.15,-0.3,146
3.15,-0.15,147
3.15,0.0,151
3.15,0.15,139
3.15,0.3,147
3.15,0.45,184
3.15,0.6,252
3.15,0.75,255
3.15,0.9,155
3.15,1.05,144
3.15,1.2,141
3.15,1.35,135
3.15,1.5,128
3.3,-1.5,116
3.3,-1.35,131
3.3,-1.2,144
3.3,-1.05,156
3.3,-0.9,152
3.3,-0.75,148
3.3,-0.6,146
3.3,-0.45,151
3.3,-0.3,152
3.3,-0.15,150
3.3,0.0,144
3.3,0.15,151
3.3,0.3,167
3.3,0.45,189
3.3,0.6,194
3.3,0.75,199
3.3,0.9,157
3.3,1.05,150
3.3,1.2,140
3.3,1.35,135
3.3,1.5,129
3.45,-1.5,107
3.45,-1.35,124
3.45,-1.2,143
3.45,-1.05,156
3.45,-0.9,153
3.45,-0.75,146
3.45,-0.6,147
3.45,-0.45,152
3.45,-0.3,143
3.45,-0.15,152
3.45,0.0,152
3.45,0.15,147
3.45,0.3,175
3.45,0.45,185
3.45,0.6,162
3.45,0.75,163
3.45,0.9,155
3.45,1.05,150
3.45,1.2,140
3.45,1.35,135
3.45,1.5,131
3.6,-1.5,102
3.6,-1.35,116
3.6,-1.2,133
3.6,-1.05,150
3.6,-0.9,152
3.6,-0.75,145
3.6,-0.6,152
3.6,-0.45,147
3.6,-0.3,152
3.6,-0.15,142
3.6,0.0,144
3.6,0.15,134
3.6,0.3,153
3.6,0.45,162
3.6,0.6,156
3.6,0.75,157
3.6,0.9,141
3.6,1.05,138
3.6,1.2,139
3.6,1.35,137
3.6,1.5,137
3.75,-1.5,94
3.75,-1.35,104
3.75,-1.2,120
3.75,-1.05,136
3.75,-0.9,145
3.75,-0.75,152
3.75,-0.6,152
3.75,-0.45,147
3.75,-0.3,142
3.75,-0.15,146
3.75,0.0,151
3.75,0.15,154
3.75,0.3,155
3.75,0.45,147
3.75,0.6,152
3.75,0.75,155
3.75,0.9,138
3.75,1.05,132
3.75,1.2,131
3.75,1.35,131
3.75,1.5,132
3.9,-1.5,98
3.9,-1.35,103
3.9,-1.2,112
3.9,-1.05,125
3.9,-0.9,139
3.9,-0.75,149
3.9,-0.6,147
3.9,-0.45,152
3.9,-0.3,135
3.9,-0.15,152
3.9,0.0,144
3.9,0.15,150
3.9,0.3,147
3.9,0.45,148
3.9,0.6,161
3.9,0.75,162
3.9,0.9,132
3.9,1.05,118
3.9,1.2,98
3.9,1.35,87
3.9,1.5,78
4.05,-1.5,108
4.05,-1.35,110
4.05,-1.2,113
4.05,-1.05,122
4.05,-0.9,140
4.05,-0.75,150
4.05,-0.6,147
4.05,-0.45,153
4.05,-0.3,157
4.05,-0.15,144
4.05,0.0,154
4.05,0.15,147
4.05,0.3,148
4.05,0.45,152
4.05,0.6,176
4.05,0.75,170
4.05,0.9,121
4.05,1.05,105
4.05,1.2,76
4.05,1.35,58
4.05,1.5,41
4.2,-1.5,114
4.2,-1.35,121
4.2,-1.2,124
4.2,-1.05,132
4.2,-0.9,151
4.2,-0.75,162
4.2,-0.6,156
4.2,-0.45,150
4.2,-0.3,157
4.2,-0.15,157
4.2,0.0,158
4.2,0.15,147
4.2,0.3,147
4.2,0.45,159
4.2,0.6,166
4.2,0.75,150
4.2,0.9,110
4.2,1.05,93
4.2,1.2,69
4.2,1.35,52
4.2,1.5,36
4.35,-1.5,120
4.35,-1.35,134
4.35,-1.2,141
4.35,-1.05,148
4.35,-0.9,158
4.35,-0.75,149
4.35,-0.6,149
4.35,-0.45,151
4.35,-0.3,148
4.35,-0.15,148
4.35,0.0,148
4.35,0.15,161
4.35,0.3,148
4.35,0.45,156
4.35,0.6,148
4.35,0.75,129
4.35,0.9,100
4.35,1.05,82
4.35,1.2,63
4.35,1.35,46
4.35,1.5,30
4.5,-1.5,125
4.5,-1.35,140
4.5,-1.2,152
4.5,-1.05,158
4.5,-0.9,156
4.5,-0.75,149
4.5,-0.6,149
4.5,-0.45,151
4.5,-0.3,151
4.5,-0.15,148
4.5,0.0,149
4.5,0.15,169
4.5,0.3,160
4.5,0.45,152
4.5,0.6,142
4.5,0.75,123
4.5,0.9,88
4.5,1.05,70
4.5,1.2,60
4.5,1.35,44
4.5,1.5,29
4.65,-1.5,129
4.65,-1.35,139
4.65,-1.2,141
4.65,-1.05,149
4.65,-0.9,150
4.65,-0.75,149
4.65,-0.6,149
4.65,-0.45,150
4.65,-0.3,151
4.65,-0.15,147
4.65,0.0,147
4.65,0.15,134
4.65,0.3,143
4.65,0.45,158
4.65,0.6,141
4.65,0.75,117
4.65,0.9,83
4.65,1.05,64
4.65,1.2,59
4.65,1.35,44
4.65,1.5,29
4.8,-1.5,125
4.8,-1.35,129
4.8,-1.2,122
4.8,-1.05,133
4.8,-0.9,151
4.8,-0.75,155
4.8,-0.6,159
4.8,-0.45,149
4.8,-0.3,151
4.8,-0.15,149
4.8,0.0,147
4.8,0.15,147
4.8,0.3,154
4.8,0.45,158
4.8,0.6,141
4.8,0.75,115
4.8,0.9,91
4.8,1.05,68
4.8,1.2,50
4.8,1.35,30
4.8,1.5,12
4.95,-1.5,125
4.95,-1.35,124
4.95,-1.2,112
4.95,-1.05,117
4.95,-0.9,134
4.95,-0.75,157
4.95,-0.6,159
4.95,-0.45,149
4.95,-0.3,149
4.95,-0.15,147
4.95,0.0,147
4.95,0.15,156
4.95,0.3,156
4.95,0.45,141
4.95,0.6,133
4.95,0.75,115
4.95,0.9,95
4.95,1.05,70
4.95,1.2,43
4.95,1.35,21
4.95,1.5,0
5.1,-1.5,137
5.1,-1.35,133
5.1,-1.2,122
5.1,-1.05,121
5.1,-0.9,134
5.1,-0.75,150
5.1,-0.6,168
5.1,-0.45,149
5.1,-0.3,181
5.1,-0.15,147
5.1,0.0,151
5.1,0.15,156
5.1,0.3,151
5.1,0.45,138
5.1,0.6,142
5.1,0.75,132
5.1,0.9,108
5.1,1.05,86
5.1,1.2,54
5.1,1.35,34
5.1,1.5,15
5.25,-1.5,151
5.25,-1.35,149
5.25,-1.2,143
5.25,-1.05,143
5.25,-0.9,148
5.25,-0.75,162
5.25,-0.6,240
5.25,-0.45,193
5.25,-0.3,183
5.25,-0.15,156
5.25,0.0,147
5.25,0.15,147
5.25,0.3,149
5.25,0.45,155
5.25,0.6,160
5.25,0.75,153
5.25,0.9,121
5.25,1.05,101
5.25,1.2,64
5.25,1.35,46
5.25,1.5,29
5.4,-1.5,172
5.4,-1.35,166
5.4,-1.2,155
5.4,-1.05,155
5.4,-0.9,146
5.4,-0.75,158
5.4,-0.6,221
5.4,-0.45,186
5.4,-0.3,157
5.4,-0.15,147
5.4,0.0,154
5.4,0.15,148
5.4,0.3,156
5.4,0.45,156
5.4,0.6,157
5.4,0.75,144
5.4,0.9,108
5.4,1.05,96
5.4,1.2,87
5.4,1.35,74
5.4,1.5,62
5.55,-1.5,184
5.55,-1.35,172
5.55,-1.2,131
5.55,-1.05,155
5.55,-0.9,153
5.55,-0.75,162
5.55,-0.6,221
5.55,-0.45,195
5.55,-0.3,149
5.55,-0.15,155
5.55,0.0,147
5.55,0.15,151
5.55,0.3,151
5.55,0.45,145
5.55,0.6,139
5.55,0.75,122
5.55,0.9,90
5.55,1.05,87
5.55,1.2,110
5.55,1.35,104
5.55,1.5,98
5.7,-1.5,174
5.7,-1.35,165
5.7,-1.2,132
5.7,-1.05,139
5.7,-0.9,154
5.7,-0.75,156
5.7,-0.6,204
5.7,-0.45,169
5.7,-0.3,149
5.7,-0.15,155
5.7,0.0,147
5.7,0.15,148
5.7,0.3,151
5.7,0.45,140
5.7,0.6,124
5.7,0.75,105
5.7,0.9,79
5.7,1.05,78
5.7,1.2,101
5.7,1.35,94
5.7,1.5,87
5.85,-1.5,161
5.85,-1.35,158
5.85,-1.2,254
5.85,-1.05,247
5.85,-0.9,162
5.85,-0.75,134
5.85,-0.6,107
5.85,-0.45,152
5.85,-0.3,150
5.85,-0.15,152
5.85,0.0,147
5.85,0.15,149
5.85,0.3,148
5.85,0.45,128
5.85,0.6,104
5.85,0.75,81
5.85,0.9,66
5.85,1.05,69
5.85,1.2,91
5.85,1.35,82
5.85,1.5,73
6.0,-1.5,182
6.0,-1.35,185
6.0,-1.2,255
6.0,-1.05,255
6.0,-0.9,184
6.0,-0.75,102
6.0,-0.6,107
6.0,-0.45,130
6.0,-0.3,169
6.0,-0.15,147
6.0,0.0,149
6.0,0.15,149
6.0,0.3,139
6.0,0.45,120
6.0,0.6,90
6.0,0.75,68
6.0,0.9,53
6.0,1.05,66
6.0,1.2,103
6.0,1.35,98
6.0,1.5,91
6.15,-1.5,213
6.15,-1.35,219
6.15,-1.2,255
6.15,-1.05,246
6.15,-0.9,211
6.15,-0.75,182
6.15,-0.6,147
6.15,-0.45,107
6.15,-0.3,151
6.15,-0.15,147
6.15,0.0,158
6.15,0.15,147
6.15,0.3,135
6.15,0.45,121
6.15,0.6,84
6.15,0.75,62
6.15,0.9,46
6.15,1.05,69
6.15,1.2,123
6.15,1.35,122
6.15,1.5,119
6.3,-1.5,169
6.3,-1.35,169
6.3,-1.2,130
6.3,-1.05,140
6.3,-0.9,168
6.3,-0.75,159
6.3,-0.6,190
6.3,-0.45,154
6.3,-0.3,152
6.3,-0.15,148
6.3,0.0,149
6.3,0.15,146
6.3,0.3,135
6.3,0.45,115
6.3,0.6,81
6.3,0.75,73
6.3,0.9,86
6.3,1.05,98
6.3,1.2,124
6.3,1.35,122
6.3,1.5,120
6.45,-1.5,123
6.45,-1.35,127
6.45,-1.2,31
6.45,-1.05,59
6.45,-0.9,133
6.45,-0.75,145
6.45,-0.6,137
6.45,-0.45,165
6.45,-0.3,159
6.45,-0.15,147
6.45,0.0,136
6.45,0.15,150
6.45,0.3,136
6.45,0.45,106
6.45,0.6,86
6.45,0.75,98
6.45,0.9,155
6.45,1.05,147
6.45,1.2,128
6.45,1.35,126
6.45,1.5,124
6.6,-1.5,123
6.6,-1.35,124
6.6,-1.2,65
6.6,-1.05,75
6.6,-0.9,131
6.6,-0.75,144
6.6,-0.6,129
6.6,-0.45,179
6.6,-0.3,122
6.6,-0.15,154
6.6,0.0,150
6.6,0.15,150
6.6,0.3,143
6.6,0.45,110
6.6,0.6,90
6.6,0.75,91
6.6,0.9,119
6.6,1.05,124
6.6,1.2,135
6.6,1.35,134
6.6,1.5,132
6.75,-1.5,123
6.75,-1.35,123
6.75,-1.2,100
6.75,-1.05,106
6.75,-0.9,130
6.75,-0.75,139
6.75,-0.6,119
6.75,-0.45,151
6.75,-0.3,144
6.75,-0.15,143
6.75,0.0,149
6.75,0.15,150
6.75,0.3,149
6.75,0.45,121
6.75,0.6,100
6.75,0.75,82
6.75,0.9,59
6.75,1.05,82
6.75,1.2,135
6.75,1.35,134
6.75,1.5,131
6.9,-1.5,123
6.9,-1.35,125
6.9,-1.2,117
6.9,-1.05,130
6.9,-0.9,147
6.9,-0.75,158
6.9,-0.6,141
6.9,-0.45,158
6.9,-0.3,157
6.9,-0.15,146
6.9,0.0,146
6.9,0.15,148
6.9,0.3,144
6.9,0.45,134
6.9,0.6,112
6.9,0.75,90
6.9,0.9,68
6.9,1.05,84
6.9,1.2,128
6.9,1.35,123
6.9,1.5,118
7.05,-1.5,123
7.05,-1.35,123
7.05,-1.2,129
7.05,-1.05,148
7.05,-0.9,158
7.05,-0.75,152
7.05,-0.6,176
7.05,-0.45,141
7.05,-0.3,141
7.05,-0.15,141
7.05,0.0,146
7.05,0.15,159
7.05,0.3,154
7.05,0.45,146
7.05,0.6,119
7.05,0.75,93
7.05,0.9,86
7.05,1.05,92
7.05,1.2,117
7.05,1.35,109
7.05,1.5,102
7.2,-1.5,123
7.2,-1.35,124
7.2,-1.2,127
7.2,-1.05,143
7.2,-0.9,154
7.2,-0.75,149
7.2,-0.6,161
7.2,-0.45,150
7.2,-0.3,144
7.2,-0.15,149
7.2,0.0,149
7.2,0.15,152
7.2,0.3,161
7.2,0.45,154
7.2,0.6,133
7.2,0.75,113
7.2,0.9,97
7.2,1.05,98
7.2,1.2,116
7.2,1.35,108
7.2,1.5,101
7.35,-1.5,129
7.35,-1.35,128
7.35,-1.2,132
7.35,-1.05,138
7.35,-0.9,139
7.35,-0.75,148
7.35,-0.6,163
7.35,-0.45,144
7.35,-0.3,149
7.35,-0.15,149
7.35,0.0,141
7.35,0.15,155
7.35,0.3,155
7.35,0.45,145
7.35,0.6,146
7.35,0.75,139
7.35,0.9,103
7.35,1.05,98
7.35,1.2,112
7.35,1.35,104
7.35,1.5,95
7.5,-1.5,142
7.5,-1.35,136
7.5,-1.2,138
7.5,-1.05,147
7.5,-0.9,154
7.5,-0.75,154
7.5,-0.6,169
7.5,-0.45,147
7.5,-0.3,152
7.5,-0.15,149
7.5,0.0,149
7.5,0.15,154
7.5,0.3,146
7.5,0.45,145
7.5,0.6,145
7.5,0.75,142
7.5,0.9,118
7.5,1.05,112
7.5,1.2,118
7.5,1.35,112
7.5,1.5,105
7.65,-1.5,167
7.65,-1.35,157
7.65,-1.2,148
7.65,-1.05,164
7.65,-0.9,176
7.65,-0.75,144
7.65,-0.6,171
7.65,-0.45,147
7.65,-0.3,147
7.65,-0.15,152
7.65,0.0,152
7.65,0.15,150
7.65,0.3,145
7.65,0.45,145
7.65,0.6,147
7.65,0.75,144
7.65,0.9,138
7.65,1.05,136
7.65,1.2,134
7.65,1.35,133
7.65,1.5,132
7.8,-1.5,153
7.8,-1.35,152
7.8,-1.2,162
7.8,-1.05,180
7.8,-0.9,180
7.8,-0.75,160
7.8,-0.6,152
7.8,-0.45,158
7.8,-0.3,147
7.8,-0.15,147
7.8,0.0,149
7.8,0.15,157
7.8,0.3,153
7.8,0.45,152
7.8,0.6,151
7.8,0.75,146
7.8,0.9,141
7.8,1.05,140
7.8,1.2,140
7.8,1.35,140
7.8,1.5,141
7.95,-1.5,79
7.95,-1.35,101
7.95,-1.2,160
7.95,-1.05,186
7.95,-0.9,166
7.95,-0.75,158
7.95,-0.6,146
7.95,-0.45,149
7.95,-0.3,147
7.95,-0.15,147
7.95,0.0,149
7.95,0.15,152
7.95,0.3,160
7.95,0.45,155
7.95,0.6,148
7.95,0.75,143
7.95,0.9,142
7.95,1.05,144
7.95,1.2,146
7.95,1.35,149
7.95,1.5,152
8.1,-1.5,69
8.1,-1.35,95
8.1,-1.2,147
8.1,-1.05,170
8.1,-0.9,166
8.1,-0.75,147
8.1,-0.6,146
8.1,-0.45,147
8.1,-0.3,159
8.1,-0.15,153
8.1,0.0,147
8.1,0.15,148
8.1,0.3,150
8.1,0.45,151
8.1,0.6,146
8.1,0.75,143
8.1,0.9,143
8.1,1.05,144
8.1,1.2,145
8.1,1.35,147
8.1,1.5,149
8.25,-1.5,57
8.25,-1.35,87
8.25,-1.2,119
8.25,-1.05,142
8.25,-0.9,163
8.25,-0.75,152
8.25,-0.6,149
8.25,-0.45,137
8.25,-0.3,153
8.25,-0.15,153
8.25,0.0,148
8.25,0.15,150
8.25,0.3,146
8.25,0.45,146
8.25,0.6,146
8.25,0.75,145
8.25,0.9,144
8.25,1.05,142
8.25,1.2,138
8.25,1.35,137
8.25,1.5,135
8.4,-1.5,29
8.4,-1.35,55
8.4,-1.2,75
8.4,-1.05,100
8.4,-0.9,136
8.4,-0.75,151
8.4,-0.6,150
8.4,-0.45,145
8.4,-0.3,144
8.4,-0.15,148
8.4,0.0,148
8.4,0.15,149
8.4,0.3,146
8.4,0.45,147
8.4,0.6,148
8.4,0.75,148
8.4,0.9,147
8.4,1.05,145
8.4,1.2,140
8.4,1.35,137
8.4,1.5,135
8.55,-1.5,32
8.55,-1.35,49
8.55,-1.2,39
8.55,-1.05,57
8.55,-0.9,91
8.55,-0.75,143
8.55,-0.6,159
8.55,-0.45,159
8.55,-0.3,150
8.55,-0.15,150
8.55,0.0,150
8.55,0.15,150
8.55,0.3,150
8.55,0.45,151
8.55,0.6,153
8.55,0.75,153
8.55,0.9,147
8.55,1.05,146
8.55,1.2,149
8.55,1.35,148
8.55,1.5,147
8.7,-1.5,41
8.7,-1.35,53
8.7,-1.2,31
8.7,-1.05,42
8.7,-0.9,70
8.7,-0.75,114
8.7,-0.6,143
8.7,-0.45,161
8.7,-0.3,146
8.7,-0.15,150
8.7,0.0,147
8.7,0.15,148
8.7,0.3,151
8.7,0.45,155
8.7,0.6,158
8.7,0.75,158
8.7,0.9,149
8.7,1.05,149
8.7,1.2,155
8.7,1.35,155
8.7,1.5,155
8.85,-1.5,124
8.85,-1.35,119
8.85,-1.2,90
8.85,-1.05,91
8.85,-0.9,90
8.85,-0.75,140
8.85,-0.6,149
8.85,-0.45,152
8.85,-0.3,146
8.85,-0.15,151
8.85,0.0,148
8.85,0.15,147
8.85,0.3,149
8.85,0.45,156
8.85,0.6,160
8.85,0.75,160
8.85,0.9,157
8.85,1.05,157
8.85,1.2,156
8.85,1.35,159
8.85,1.5,161
9.0,-1.5,137
9.0,-1.35,142
9.0,-1.2,116
9.0,-1.05,120
9.0,-0.9,112
9.0,-0.75,135
9.0,-0.6,149
9.0,-0.45,146
9.0,-0.3,152
9.0,-0.15,148
9.0,0.0,147
9.0,0.15,147
9.0,0.3,151
9.0,0.45,153
9.0,0.6,155
9.0,0.75,158
9.0,0.9,160
9.0,1.05,160
9.0,1.2,158
9.0,1.35,160
9.0,1.5,163
9.15,-1.5,15
9.15,-1.35,61
9.15,-1.2,104
9.15,-1.05,146
9.15,-0.9,194
9.15,-0.75,172
9.15,-0.6,149
9.15,-0.45,144
9.15,-0.3,154
9.15,-0.15,145
9.15,0.0,150
9.15,0.15,147
9.15,0.3,151
9.15,0.45,151
9.15,0.6,151
9.15,0.75,152
9.15,0.9,158
9.15,1.05,161
9.15,1.2,160
9.15,1.35,163
9.15,1.5,165
9.3,-1.5,0
9.3,-1.35,43
9.3,-1.2,105
9.3,-1.05,159
9.3,-0.9,221
9.3,-0.75,166
9.3,-0.6,114
9.3,-0.45,154
9.3,-0.3,138
9.3,-0.15,135
9.3,0.0,152
9.3,0.15,152
9.3,0.3,155
9.3,0.45,151
9.3,0.6,151
9.3,0.75,151
9.3,0.9,156
9.3,1.05,161
9.3,1.2,164
9.3,1.35,168
9.3,1.5,171
9.45,-1.5,0
9.45,-1.35,49
9.45,-1.2,118
9.45,-1.05,160
9.45,-0.9,186
9.45,-0.75,171
9.45,-0.6,132
9.45,-0.45,148
9.45,-0.3,154
9.45,-0.15,138
9.45,0.0,145
9.45,0.15,151
9.45,0.3,155
9.45,0.45,155
9.45,0.6,152
9.45,0.75,155
9.45,0.9,159
9.45,1.05,163
9.45,1.2,170
9.45,1.35,176
9.45,1.5,178
9.6,-1.5,3
9.6,-1.35,44
9.6,-1.2,97
9.6,-1.05,127
9.6,-0.9,149
9.6,-0.75,163
9.6,-0.6,139
9.6,-0.45,145
9.6,-0.3,154
9.6,-0.15,154
9.6,0.0,150
9.6,0.15,148
9.6,0.3,151
9.6,0.45,153
9.6,0.6,155
9.6,0.75,159
9.6,0.9,164
9.6,1.05,167
9.6,1.2,173
9.6,1.35,178
9.6,1.5,178
9.75,-1.5,54
9.75,-1.35,70
9.75,-1.2,86
9.75,-1.05,105
9.75,-0.9,137
9.75,-0.75,162
9.75,-0.6,157
9.75,-0.45,150
9.75,-0.3,147
9.75,-0.15,154
9.75,0.0,149
9.75,0.15,148
9.75,0.3,148
9.75,0.45,150
9.75,0.6,155
9.75,0.75,161
9.75,0.9,167
9.75,1.05,171
9.75,1.2,173
9.75,1.35,176
9.75,1.5,178
9.9,-1.5,60
9.9,-1.35,71
9.9,-1.2,88
9.9,-1.05,108
9.9,-0.9,140
9.9,-0.75,149
9.9,-0.6,149
9.9,-0.45,154
9.9,-0.3,154
9.9,-0.15,147
9.9,0.0,154
9.9,0.15,148
9.9,0.3,148
9.9,0.45,149
9.9,0.6,154
9.9,0.75,161
9.9,0.9,169
9.9,1.05,174
9.9,1.2,175
9.9,1.35,178
9.9,1.5,180
10.05,-1.5,62
10.05,-1.35,74
10.05,-1.2,102
10.05,-1.05,123
10.05,-0.9,154
10.05,-0.75,158
10.05,-0.6,151
10.05,-0.45,152
10.05,-0.3,147
10.05,-0.15,147
10.05,0.0,149
10.05,0.15,149
10.05,0.3,148
10.05,0.45,150
10.05,0.6,156
10.05,0.75,163
10.05,0.9,170
10.05,1.05,175
10.05,1.2,178
10.05,1.35,181
10.05,1.5,184
10.2,-1.5,75
10.2,-1.35,88
10.2,-1.2,119
10.2,-1.05,139
10.2,-0.9,159
10.2,-0.75,159
10.2,-0.6,154
10.2,-0.45,147
10.2,-0.3,152
10.2,-0.15,147
10.2,0.0,149
10.2,0.15,153
10.2,0.3,152
10.2,0.45,153
10.2,0.6,159
10.2,0.75,165
10.2,0.9,171
10.2,1.05,175
10.2,1.2,178
10.2,1.35,181
10.2,1.5,184
10.35,-1.5,101
10.35,-1.35,113
10.35,-1.2,147
10.35,-1.05,160
10.35,-0.9,148
10.35,-0.75,153
10.35,-0.6,158
10.35,-0.45,147
10.35,-0.3,149
10.35,-0.15,150
10.35,0.0,147
10.35,0.15,152
10.35,0.3,154
10.35,0.45,157
10.35,0.6,162
10.35,0.75,167
10.35,0.9,169
10.35,1.05,173
10.35,1.2,178
10.35,1.35,182
10.35,1.5,185
10.5,-1.5,122
10.5,-1.35,131
10.5,-1.2,154
10.5,-1.05,160
10.5,-0.9,148
10.5,-0.75,152
10.5,-0.6,151
10.5,-0.45,153
10.5,-0.3,153
10.5,-0.15,134
10.5,0.0,145
10.5,0.15,152
10.5,0.3,156
10.5,0.45,160
10.5,0.6,164
10.5,0.75,168
10.5,0.9,168
10.5,1.05,171
10.5,1.2,178
10.5,1.35,181
10.5,1.5,183
10.65,-1.5,160
10.65,-1.35,160
10.65,-1.2,162
10.65,-1.05,161
10.65,-0.9,156
10.65,-0.75,154
10.65,-0.6,152
10.65,-0.45,143
10.65,-0.3,151
10.65,-0.15,140
10.65,0.0,158
10.65,0.15,155
10.65,0.3,154
10.65,0.45,156
10.65,0.6,162
10.65,0.75,165
10.65,0.9,170
10.65,1.05,172
10.65,1.2,176
10.65,1.35,177
10.65,1.5,179
10.8,-1.5,160
10.8,-1.35,158
10.8,-1.2,161
10.8,-1.05,161
10.8,-0.9,155
10.8,-0.75,148
10.8,-0.6,147
10.8,-0.45,168
10.8,-0.3,143
10.8,-0.15,144
10.8,0.0,169
10.8,0.15,160
10.8,0.3,154
10.8,0.45,154
10.8,0.6,161
10.8,0.75,164
10.8,0.9,169
10.8,1.05,172
10.8,1.2,174
10.8,1.35,175
10.8,1.5,176
10.95,-1.5,69
10.95,-1.35,94
10.95,-1.2,138
10.95,-1.05,153
10.95,-0.9,152
10.95,-0.75,150
10.95,-0.6,160
10.95,-0.45,195
10.95,-0.3,151
10.95,-0.15,155
10.95,0.0,170
10.95,0.15,160
10.95,0.3,155
10.95,0.45,157
10.95,0.6,161
10.95,0.75,164
10.95,0.9,164
10.95,1.05,167
10.95,1.2,171
10.95,1.35,173
10.95,1.5,174
11.1,-1.5,22
11.1,-1.35,59
11.1,-1.2,121
11.1,-1.05,144
11.1,-0.9,149
11.1,-0.75,157
11.1,-0.6,166
11.1,-0.45,168
11.1,-0.3,148
11.1,-0.15,150
11.1,0.0,159
11.1,0.15,154
11.1,0.3,153
11.1,0.45,155
11.1,0.6,159
11.1,0.75,163
11.1,0.9,161
11.1,1.05,163
11.1,1.2,168
11.1,1.35,169
11.1,1.5,171
11.25,-1.5,87
11.25,-1.35,99
11.25,-1.2,93
11.25,-1.05,114
11.25,-0.9,138
11.25,-0.75,156
11.25,-0.6,165
11.25,-0.45,146
11.25,-0.3,146
11.25,-0.15,157
11.25,0.0,159
11.25,0.15,153
11.25,0.3,146
11.25,0.45,150
11.25,0.6,155
11.25,0.75,161
11.25,0.9,163
11.25,1.05,165
11.25,1.2,165
11.25,1.35,167
11.25,1.5,169
11.4,-1.5,133
11.4,-1.35,133
11.4,-1.2,85
11.4,-1.05,104
11.4,-0.9,147
11.4,-0.75,183
11.4,-0.6,179
11.4,-0.45,158
11.4,-0.3,146
11.4,-0.15,155
11.4,0.0,159
11.4,0.15,152
11.4,0.3,144
11.4,0.45,145
11.4,0.6,151
11.4,0.75,157
11.4,0.9,163
11.4,1.05,165
11.4,1.2,164
11.4,1.35,166
11.4,1.5,169
11.55,-1.5,130
11.55,-1.35,134
11.55,-1.2,108
11.55,-1.05,123
11.55,-0.9,167
11.55,-0.75,169
11.55,-0.6,151
11.55,-0.45,137
11.55,-0.3,144
11.55,-0.15,145
11.55,0.0,146
11.55,0.15,143
11.55,0.3,140
11.55,0.45,140
11.55,0.6,146
11.55,0.75,153
11.55,0.9,159
11.55,1.05,162
11.55,1.2,162
11.55,1.35,165
11.55,1.5,168
11.7,-1.5,130
11.7,-1.35,139
11.7,-1.2,136
11.7,-1.05,142
11.7,-0.9,140
11.7,-0.75,126
11.7,-0.6,166
11.7,-0.45,169
11.7,-0.3,149
11.7,-0.15,146
11.7,0.0,143
11.7,0.15,143
11.7,0.3,139
11.7,0.45,137
11.7,0.6,143
11.7,0.75,149
11.7,0.9,156
11.7,1.05,159
11.7,1.2,159
11.7,1.35,161
11.7,1.5,164
11.85,-1.5,85
11.85,-1.35,110
11.85,-1.2,191
11.85,-1.05,191
11.85,-0.9,128
11.85,-0.75,136
11.85,-0.6,173
11.85,-0.45,185
11.85,-0.3,163
11.85,-0.15,151
11.85,0.0,153
11.85,0.15,149
11.85,0.3,142
11.85,0.45,139
11.85,0.6,140
11.85,0.75,144
11.85,0.9,149
11.85,1.05,153
11.85,1.2,155
11.85,1.35,157
11.85,1.5,160
12.0,-1.5,61
12.0,-1.35,96
12.0,-1.2,206
12.0,-1.05,206
12.0,-0.9,149
12.0,-0.75,156
12.0,-0.6,157
12.0,-0.45,162
12.0,-0.3,150
12.0,-0.15,150
12.0,0.0,154
12.0,0.15,153
12.0,0.3,145
12.0,0.45,142
12.0,0.6,139
12.0,0.75,140
12.0,0.9,145
12.0,1.05,149
12.0,1.2,152
12.0,1.35,154
12.0,1.5,157
12.15,-1.5,179
12.15,-1.35,183
12.15,-1.2,182
12.15,-1.05,173
12.15,-0.9,159
12.15,-0.75,159
12.15,-0.6,147
12.15,-0.45,152
12.15,-0.3,150
12.15,-0.15,154
12.15,0.0,154
12.15,0.15,154
12.15,0.3,144
12.15,0.45,139
12.15,0.6,139
12.15,0.75,140
12.15,0.9,146
12.15,1.05,147
12.15,1.2,149
12.15,1.35,152
12.15,1.5,155
12.3,-1.5,239
12.3,-1.35,230
12.3,-1.2,165
12.3,-1.05,154
12.3,-0.9,154
12.3,-0.75,153
12.3,-0.6,146
12.3,-0.45,148
12.3,-0.3,148
12.3,-0.15,154
12.3,0.0,154
12.3,0.15,152
12.3,0.3,144
12.3,0.45,140
12.3,0.6,139
12.3,0.75,140
12.3,0.9,147
12.3,1.05,147
12.3,1.2,147
12.3,1.35,150
12.3,1.5,153
12.45,-1.5,182
12.45,-1.35,195
12.45,-1.2,176
12.45,-1.05,167
12.45,-0.9,161
12.45,-0.75,152
12.45,-0.6,149
12.45,-0.45,145
12.45,-0.3,146
12.45,-0.15,153
12.45,0.0,154
12.45,0.15,151
12.45,0.3,147
12.45,0.45,142
12.45,0.6,139
12.45,0.75,139
12.45,0.9,141
12.45,1.05,143
12.45,1.2,147
12.45,1.35,148
12.45,1.5,150
12.6,-1.5,156
12.6,-1.35,182
12.6,-1.2,200
12.6,-1.05,202
12.6,-0.9,171
12.6,-0.75,139
12.6,-0.6,152
12.6,-0.45,145
12.6,-0.3,131
12.6,-0.15,139
12.6,0.0,154
12.6,0.15,153
12.6,0.3,149
12.6,0.45,145
12.6,0.6,141
12.6,0.75,139
12.6,0.9,139
12.6,1.05,142
12.6,1.2,147
12.6,1.35,147
12.6,1.5,148
12.75,-1.5,156
12.75,-1.35,184
12.75,-1.2,206
12.75,-1.05,209
12.75,-0.9,175
12.75,-0.75,130
12.75,-0.6,147
12.75,-0.45,144
12.75,-0.3,143
12.75,-0.15,129
12.75,0.0,146
12.75,0.15,156
12.75,0.3,153
12.75,0.45,148
12.75,0.6,144
12.75,0.75,141
12.75,0.9,140
12.75,1.05,141
12.75,1.2,143
12.75,1.35,144
12.75,1.5,145
12.9,-1.5,151
12.9,-1.35,181
12.9,-1.2,204
12.9,-1.05,211
12.9,-0.9,197
12.9,-0.75,156
12.9,-0.6,158
12.9,-0.45,141
12.9,-0.3,169
12.9,-0.15,172
12.9,0.0,164
12.9,0.15,167
12.9,0.3,158
12.9,0.45,151
12.9,0.6,147
12.9,0.75,144
12.9,0.9,142
12.9,1.05,142
12.9,1.2,143
12.9,1.35,144
12.9,1.5,145
13.05,-1.5,144
13.05,-1.35,173
13.05,-1.2,195
13.05,-1.05,203
13.05,-0.9,202
13.05,-0.75,163
13.05,-0.6,150
13.05,-0.45,130
13.05,-0.3,150
13.05,-0.15,183
13.05,0.0,187
13.05,0.15,182
13.05,0.3,161
13.05,0.45,154
13.05,0.6,149
13.05,0.75,147
13.05,0.9,145
13.05,1.05,145
13.05,1.2,145
13.05,1.35,145
13.05,1.5,145
