-3.0,-1.5,83
-3.0,-1.35,83
-3.0,-1.2,83
-3.0,-1.05,83
-3.0,-0.9,83
-3.0,-0.75,83
-3.0,-0.6,83
-3.0,-0.45,83
-3.0,-0.3,83
-3.0,-0.15,83
-3.0,0.0,83
-3.0,0.15,83
-3.0,0.3,83
-3.0,0.45,83
-3.0,0.6,83
-3.0,0.75,83
-3.0,0.9,83
-3.0,1.05,83
-3.0,1.2,83
-3.0,1.35,82
-3.0,1.5,81
-2.85,-1.5,83
-2.85,-1.35,83
-2.85,-1.2,83
-2.85,-1.05,83
-2.85,-0.9,83
-2.85,-0.75,83
-2.85,-0.6,83
-2.85,-0.45,83
-2.85,-0.3,83
-2.85,-0.15,83
-2.85,0.0,83
-2.85,0.15,83
-2.85,0.3,83
-2.85,0.45,83
-2.85,0.6,83
-2.85,0.75,84
-2.85,0.9,84
-2.85,1.05,83
-2.85,1.2,83
-2.85,1.35,82
-2.85,1.5,81
-2.7,-1.5,83
-2.7,-1.35,83
-2.7,-1.2,83
-2.7,-1.05,83
-2.7,-0.9,83
-2.7,-0.75,83
-2.7,-0.6,83
-2.7,-0.45,83
-2.7,-0.3,83
-2.7,-0.15,83
-2.7,0.0,83
-2.7,0.15,84
-2.7,0.3,84
-2.7,0.45,85
-2.7,0.6,85
-2.7,0.75,86
-2.7,0.9,86
-2.7,1.05,85
-2.7,1.2,83
-2.7,1.35,82
-2.7,1.5,81
-2.55,-1.5,83
-2.55,-1.35,83
-2.55,-1.2,83
-2.55,-1.05,83
-2.55,-0.9,83
-2.55,-0.75,83
-2.55,-0.6,83
-2.55,-0.45,83
-2.55,-0.3,83
-2.55,-0.15,83
-2.55,0.0,84
-2.55,0.15,86
-2.55,0.3,86
-2.55,0.45,87
-2.55,0.6,87
-2.55,0.75,87
-2.55,0.9,86
-2.55,1.05,85
-2.55,1.2,83
-2.55,1.35,82
-2.55,1.5,81
-2.4,-1.5,84
-2.4,-1.35,83
-2.4,-1.2,83
-2.4,-1.05,83
-2.4,-0.9,83
-2.4,-0.75,83
-2.4,-0.6,83
-2.4,-0.45,83
-2.4,-0.3,83
-2.4,-0.15,84
-2.4,0.0,86
-2.4,0.15,87
-2.4,0.3,88
-2.4,0.45,89
-2.4,0.6,89
-2.4,0.75,88
-2.4,0.9,86
-2.4,1.05,84
-2.4,1.2,83
-2.4,1.35,82
-2.4,1.5,81
-2.25,-1.5,84
-2.25,-1.35,83
-2.25,-1.2,83
-2.25,-1.05,83
-2.25,-0.9,83
-2.25,-0.75,83
-2.25,-0.6,83
-2.25,-0.45,83
-2.25,-0.3,84
-2.25,-0.15,86
-2.25,0.0,87
-2.25,0.15,89
-2.25,0.3,89
-2.25,0.45,89
-2.25,0.6,89
-2.25,0.75,89
-2.25,0.9,86
-2.25,1.05,84
-2.25,1.2,83
-2.25,1.35,81
-2.25,1.5,80
-2.1,-1.5,84
-2.1,-1.35,84
-2.1,-1.2,83
-2.1,-1.05,83
-2.1,-0.9,83
-2.1,-0.75,83
-2.1,-0.6,83
-2.1,-0.45,83
-2.1,-0.3,84
-2.1,-0.15,86
-2.1,0.0,88
-2.1,0.15,89
-2.1,0.3,89
-2.1,0.45,89
-2.1,0.6,89
-2.1,0.75,87
-2.1,0.9,85
-2.1,1.05,84
-2.1,1.2,82
-2.1,1.35,81
-2.1,1.5,79
-1.95,-1.5,85
-1.95,-1.35,84
-1.95,-1.2,83
-1.95,-1.05,83
-1.95,-0.9,83
-1.95,-0.75,83
-1.95,-0.6,83
-1.95,-0.45,83
-1.95,-0.3,85
-1.95,-0.15,87
-1.95,0.0,89
-1.95,0.15,89
-1.95,0.3,89
-1.95,0.45,89
-1.95,0.6,89
-1.95,0.75,87
-1.95,0.9,85
-1.95,1.05,83
-1.95,1.2,81
-1.95,1.35,80
-1.95,1.5,78
-1.8,-1.5,86
-1.8,-1.35,84
-1.8,-1.2,83
-1.8,-1.05,83
-1.8,-0.9,83
-1.8,-0.75,83
-1.8,-0.6,83
-1.8,-0.45,83
-1.8,-0.3,85
-1.8,-0.15,87
-1.8,0.0,89
-1.8,0.15,89
-1.8,0.3,89
-1.8,0.45,89
-1.8,0.6,88
-1.8,0.75,86
-1.8,0.9,84
-1.8,1.05,82
-1.8,1.2,80
-1.8,1.35,78
-1.8,1.5,77
-1.65,-1.5,86
-1.65,-1.35,85
-1.65,-1.2,83
-1.65,-1.05,83
-1.65,-0.9,83
-1.65,-0.75,83
-1.65,-0.6,83
-1.65,-0.45,83
-1.65,-0.3,85
-1.65,-0.15,87
-1.65,0.0,89
-1.65,0.15,89
-1.65,0.3,89
-1.65,0.45,89
-1.65,0.6,87
-1.65,0.75,85
-1.65,0.9,83
-1.65,1.05,81
-1.65,1.2,79
-1.65,1.35,78
-1.65,1.5,76
-1.5,-1.5,87
-1.5,-1.35,85
-1.5,-1.2,84
-1.5,-1.05,83
-1.5,-0.9,83
-1.5,-0.75,83
-1.5,-0.6,83
-1.5,-0.45,84
-1.5,-0.3,86
-1.5,-0.15,88
-1.5,0.0,89
-1.5,0.15,89
-1.5,0.3,89
-1.5,0.45,88
-1.5,0.6,85
-1.5,0.75,83
-1.5,0.9,81
-1.5,1.05,80
-1.5,1.2,79
-1.5,1.35,77
-1.5,1.5,76
-1.35,-1.5,87
-1.35,-1.35,86
-1.35,-1.2,84
-1.35,-1.05,83
-1.35,-0.9,83
-1.35,-0.75,83
-1.35,-0.6,83
-1.35,-0.45,84
-1.35,-0.3,87
-1.35,-0.15,89
-1.35,0.0,89
-1.35,0.15,89
-1.35,0.3,89
-1.35,0.45,87
-1.35,0.6,84
-1.35,0.75,82
-1.35,0.9,82
-1.35,1.05,79
-1.35,1.2,75
-1.35,1.35,74
-1.35,1.5,72
-1.2,-1.5,88
-1.2,-1.35,86
-1.2,-1.2,85
-1.2,-1.05,83
-1.2,-0.9,83
-1.2,-0.75,83
-1.2,-0.6,83
-1.2,-0.45,85
-1.2,-0.3,87
-1.2,-0.15,89
-1.2,0.0,89
-1.2,0.15,88
-1.2,0.3,86
-1.2,0.45,84
-1.2,0.6,83
-1.2,0.75,82
-1.2,0.9,87
-1.2,1.05,82
-1.2,1.2,72
-1.2,1.35,70
-1.2,1.5,70
-1.05,-1.5,89
-1.05,-1.35,87
-1.05,-1.2,85
-1.05,-1.05,83
-1.05,-0.9,83
-1.05,-0.75,83
-1.05,-0.6,83
-1.05,-0.45,85
-1.05,-0.3,88
-1.05,-0.15,89
-1.05,0.0,89
-1.05,0.15,88
-1.05,0.3,85
-1.05,0.45,82
-1.05,0.6,82
-1.05,0.75,82
-1.05,0.9,83
-1.05,1.05,90
-1.05,1.2,104
-1.05,1.35,109
-1.05,1.5,114
-0.9,-1.5,89
-0.9,-1.35,88
-0.9,-1.2,86
-0.9,-1.05,84
-0.9,-0.9,83
-0.9,-0.75,83
-0.9,-0.6,83
-0.9,-0.45,85
-0.9,-0.3,88
-0.9,-0.15,90
-0.9,0.0,89
-0.9,0.15,86
-0.9,0.3,83
-0.9,0.45,82
-0.9,0.6,82
-0.9,0.75,82
-0.9,0.9,82
-0.9,1.05,108
-0.9,1.2,171
-0.9,1.35,189
-0.9,1.5,206
-0.75,-1.5,90
-0.75,-1.35,89
-0.75,-1.2,87
-0.75,-1.05,85
-0.75,-0.9,83
-0.75,-0.75,83
-0.75,-0.6,83
-0.75,-0.45,87
-0.75,-0.3,90
-0.75,-0.15,92
-0.75,0.0,90
-0.75,0.15,86
-0.75,0.3,82
-0.75,0.45,82
-0.75,0.6,82
-0.75,0.75,83
-0.75,0.9,97
-0.75,1.05,130
-0.75,1.2,191
-0.75,1.35,211
-0.75,1.5,230
-0.6,-1.5,90
-0.6,-1.35,89
-0.6,-1.2,89
-0.6,-1.05,86
-0.6,-0.9,83
-0.6,-0.75,83
-0.6,-0.6,83
-0.6,-0.45,87
-0.6,-0.3,92
-0.6,-0.15,93
-0.6,0.0,90
-0.6,0.15,85
-0.6,0.3,82
-0.6,0.45,82
-0.6,0.6,82
-0.6,0.75,93
-0.6,0.9,144
-0.6,1.05,176
-0.6,1.2,215
-0.6,1.35,237
-0.6,1.5,255
-0.45,-1.5,92
-0.45,-1.35,90
-0.45,-1.2,90
-0.45,-1.05,87
-0.45,-0.9,85
-0.45,-0.75,83
-0.45,-0.6,84
-0.45,-0.45,88
-0.45,-0.3,91
-0.45,-0.15,91
-0.45,0.0,87
-0.45,0.15,82
-0.45,0.3,82
-0.45,0.45,82
-0.45,0.6,87
-0.45,0.75,109
-0.45,0.9,160
-0.45,1.05,184
-0.45,1.2,202
-0.45,1.35,219
-0.45,1.5,234
-0.3,-1.5,94
-0.3,-1.35,92
-0.3,-1.2,90
-0.3,-1.05,88
-0.3,-0.9,86
-0.3,-0.75,84
-0.3,-0.6,85
-0.3,-0.45,87
-0.3,-0.3,90
-0.3,-0.15,89
-0.3,0.0,84
-0.3,0.15,82
-0.3,0.3,82
-0.3,0.45,84
-0.3,0.6,115
-0.3,0.75,144
-0.3,0.9,181
-0.3,1.05,184
-0.3,1.2,156
-0.3,1.35,158
-0.3,1.5,159
-0.15,-1.5,97
-0.15,-1.35,94
-0.15,-1.2,91
-0.15,-1.05,88
-0.15,-0.9,86
-0.15,-0.75,85
-0.15,-0.6,85
-0.15,-0.45,87
-0.15,-0.3,88
-0.15,-0.15,86
-0.15,0.0,82
-0.15,0.15,82
-0.15,0.3,85
-0.15,0.45,94
-0.15,0.6,128
-0.15,0.75,156
-0.15,0.9,179
-0.15,1.05,183
-0.15,1.2,164
-0.15,1.35,164
-0.15,1.5,164
0.0,-1.5,105
0.0,-1.35,99
0.0,-1.2,92
0.0,-1.05,88
0.0,-0.9,85
0.0,-0.75,83
0.0,-0.6,84
0.0,-0.45,87
0.0,-0.3,87
0.0,-0.15,84
0.0,0.0,83
0.0,0.15,85
0.0,0.3,97
0.0,0.45,116
0.0,0.6,141
0.0,0.75,162
0.0,0.9,156
0.0,1.05,168
0.0,1.2,189
0.0,1.35,193
0.0,1.5,196
0.15,-1.5,104
0.15,-1.35,99
0.15,-1.2,92
0.15,-1.05,88
0.15,-0.9,84
0.15,-0.75,82
0.15,-0.6,82
0.15,-0.45,85
0.15,-0.3,85
0.15,-0.15,82
0.15,0.0,81
0.15,0.15,79
0.15,0.3,91
0.15,0.45,120
0.15,0.6,148
0.15,0.75,162
0.15,0.9,156
0.15,1.05,164
0.15,1.2,180
0.15,1.35,182
0.15,1.5,184
0.3,-1.5,88
0.3,-1.35,88
0.3,-1.2,93
0.3,-1.05,92
0.3,-0.9,87
0.3,-0.75,83
0.3,-0.6,82
0.3,-0.45,82
0.3,-0.3,83
0.3,-0.15,82
0.3,0.0,81
0.3,0.15,72
0.3,0.3,86
0.3,0.45,123
0.3,0.6,143
0.3,0.75,154
0.3,0.9,161
0.3,1.05,162
0.3,1.2,157
0.3,1.35,156
0.3,1.5,156
0.45,-1.5,83
0.45,-1.35,83
0.45,-1.2,92
0.45,-1.05,93
0.45,-0.9,91
0.45,-0.75,86
0.45,-0.6,82
0.45,-0.45,82
0.45,-0.3,82
0.45,-0.15,87
0.45,0.0,87
0.45,0.15,79
0.45,0.3,95
0.45,0.45,126
0.45,0.6,133
0.45,0.75,138
0.45,0.9,145
0.45,1.05,145
0.45,1.2,140
0.45,1.35,140
0.45,1.5,139
0.6,-1.5,80
0.6,-1.35,80
0.6,-1.2,80
0.6,-1.05,84
0.6,-0.9,90
0.6,-0.75,88
0.6,-0.6,86
0.6,-0.45,84
0.6,-0.3,85
0.6,-0.15,90
0.6,0.0,90
0.6,0.15,89
0.6,0.3,99
0.6,0.45,113
0.6,0.6,116
0.6,0.75,117
0.6,0.9,120
0.6,1.05,121
0.6,1.2,122
0.6,1.35,123
0.6,1.5,124
0.75,-1.5,80
0.75,-1.35,80
0.75,-1.2,80
0.75,-1.05,81
0.75,-0.9,92
0.75,-0.75,92
0.75,-0.6,93
0.75,-0.45,90
0.75,-0.3,90
0.75,-0.15,90
0.75,0.0,81
0.75,0.15,83
0.75,0.3,87
0.75,0.45,93
0.75,0.6,95
0.75,0.75,95
0.75,0.9,98
0.75,1.05,100
0.75,1.2,103
0.75,1.35,105
0.75,1.5,107
0.9,-1.5,84
0.9,-1.35,83
0.9,-1.2,80
0.9,-1.05,80
0.9,-0.9,85
0.9,-0.75,91
0.9,-0.6,98
0.9,-0.45,90
0.9,-0.3,82
0.9,-0.15,81
0.9,0.0,81
0.9,0.15,81
0.9,0.3,82
0.9,0.45,82
0.9,0.6,77
0.9,0.75,76
0.9,0.9,78
0.9,1.05,81
0.9,1.2,85
0.9,1.35,88
0.9,1.5,91
1.05,-1.5,84
1.05,-1.35,84
1.05,-1.2,80
1.05,-1.05,80
1.05,-0.9,85
1.05,-0.75,92
1.05,-0.6,99
1.05,-0.45,92
1.05,-0.3,84
1.05,-0.15,81
1.05,0.0,81
1.05,0.15,83
1.05,0.3,85
1.05,0.45,82
1.05,0.6,70
1.05,0.75,65
1.05,0.9,64
1.05,1.05,67
1.05,1.2,72
1.05,1.35,77
1.05,1.5,82
1.2,-1.5,84
1.2,-1.35,83
1.2,-1.2,80
1.2,-1.05,80
1.2,-0.9,86
1.2,-0.75,94
1.2,-0.6,93
1.2,-0.45,85
1.2,-0.3,82
1.2,-0.15,81
1.2,0.0,84
1.2,0.15,89
1.2,0.3,93
1.2,0.45,91
1.2,0.6,79
1.2,0.75,76
1.2,0.9,76
1.2,1.05,72
1.2,1.2,75
1.2,1.35,83
1.2,1.5,91
1.35,-1.5,84
1.35,-1.35,82
1.35,-1.2,79
1.35,-1.05,77
1.35,-0.9,80
1.35,-0.75,88
1.35,-0.6,87
1.35,-0.45,81
1.35,-0.3,81
1.35,-0.15,81
1.35,0.0,84
1.35,0.15,90
1.35,0.3,93
1.35,0.45,93
1.35,0.6,86
1.35,0.75,84
1.35,0.9,83
1.35,1.05,77
1.35,1.2,77
1.35,1.35,83
1.35,1.5,90
1.5,-1.5,84
1.5,-1.35,82
1.5,-1.2,80
1.5,-1.05,76
1.5,-0.9,76
1.5,-0.75,80
1.5,-0.6,82
1.5,-0.45,83
1.5,-0.3,90
1.5,-0.15,88
1.5,0.0,75
1.5,0.15,79
1.5,0.3,90
1.5,0.45,93
1.5,0.6,93
1.5,0.75,93
1.5,0.9,84
1.5,1.05,82
1.5,1.2,82
1.5,1.35,82
1.5,1.5,82
1.65,-1.5,84
1.65,-1.35,84
1.65,-1.2,84
1.65,-1.05,79
1.65,-0.9,76
1.65,-0.75,77
1.65,-0.6,81
1.65,-0.45,90
1.65,-0.3,92
1.65,-0.15,86
1.65,0.0,74
1.65,0.15,75
1.65,0.3,83
1.65,0.45,93
1.65,0.6,93
1.65,0.75,93
1.65,0.9,86
1.65,1.05,86
1.65,1.2,87
1.65,1.35,86
1.65,1.5,85
1.8,-1.5,85
1.8,-1.35,86
1.8,-1.2,86
1.8,-1.05,82
1.8,-0.9,76
1.8,-0.75,76
1.8,-0.6,83
1.8,-0.45,87
1.8,-0.3,89
1.8,-0.15,95
1.8,0.0,88
1.8,0.15,81
1.8,0.3,77
1.8,0.45,80
1.8,0.6,92
1.8,0.75,93
1.8,0.9,89
1.8,1.05,93
1.8,1.2,101
1.8,1.35,101
1.8,1.5,102
1.95,-1.5,87
1.95,-1.35,86
1.95,-1.2,85
1.95,-1.05,81
1.95,-0.9,76
1.95,-0.75,76
1.95,-0.6,83
1.95,-0.45,89
1.95,-0.3,87
1.95,-0.15,84
1.95,0.0,81
1.95,0.15,82
1.95,0.3,83
1.95,0.45,84
1.95,0.6,91
1.95,0.75,93
1.95,0.9,91
1.95,1.05,96
1.95,1.2,105
1.95,1.35,106
1.95,1.5,107
2.1,-1.5,90
2.1,-1.35,87
2.1,-1.2,78
2.1,-1.05,74
2.1,-0.9,75
2.1,-0.75,81
2.1,-0.6,84
2.1,-0.45,83
2.1,-0.3,83
2.1,-0.15,84
2.1,0.0,83
2.1,0.15,83
2.1,0.3,88
2.1,0.45,90
2.1,0.6,90
2.1,0.75,94
2.1,0.9,104
2.1,1.05,104
2.1,1.2,98
2.1,1.35,99
2.1,1.5,99
2.25,-1.5,88
2.25,-1.35,84
2.25,-1.2,72
2.25,-1.05,69
2.25,-0.9,73
2.25,-0.75,84
2.25,-0.6,84
2.25,-0.45,83
2.25,-0.3,83
2.25,-0.15,85
2.25,0.0,83
2.25,0.15,84
2.25,0.3,90
2.25,0.45,91
2.25,0.6,91
2.25,0.75,93
2.25,0.9,104
2.25,1.05,103
2.25,1.2,93
2.25,1.35,94
2.25,1.5,95
2.4,-1.5,84
2.4,-1.35,79
2.4,-1.2,65
2.4,-1.05,63
2.4,-0.9,68
2.4,-0.75,77
2.4,-0.6,84
2.4,-0.45,84
2.4,-0.3,82
2.4,-0.15,82
2.4,0.0,85
2.4,0.15,83
2.4,0.3,89
2.4,0.45,91
2.4,0.6,90
2.4,0.75,92
2.4,0.9,91
2.4,1.05,92
2.4,1.2,92
2.4,1.35,94
2.4,1.5,95
2.55,-1.5,82
2.55,-1.35,78
2.55,-1.2,65
2.55,-1.05,62
2.55,-0.9,63
2.55,-0.75,71
2.55,-0.6,81
2.55,-0.45,82
2.55,-0.3,84
2.55,-0.15,85
2.55,0.0,83
2.55,0.15,85
2.55,0.3,89
2.55,0.45,89
2.55,0.6,86
2.55,0.75,88
2.55,0.9,84
2.55,1.05,86
2.55,1.2,89
2.55,1.35,92
2.55,1.5,95
2.7,-1.5,75
2.7,-1.35,75
2.7,-1.2,72
2.7,-1.05,67
2.7,-0.9,63
2.7,-0.75,76
2.7,-0.6,98
2.7,-0.45,82
2.7,-0.3,82
2.7,-0.15,82
2.7,0.0,83
2.7,0.15,82
2.7,0.3,82
2.7,0.45,82
2.7,0.6,82
2.7,0.75,82
2.7,0.9,82
2.7,1.05,83
2.7,1.2,85
2.7,1.35,87
2.7,1.5,90
2.85,-1.5,75
2.85,-1.35,75
2.85,-1.2,77
2.85,-1.05,74
2.85,-0.9,68
2.85,-0.75,89
2.85,-0.6,134
2.85,-0.45,88
2.85,-0.3,82
2.85,-0.15,82
2.85,0.0,85
2.85,0.15,85
2.85,0.3,82
2.85,0.45,82
2.85,0.6,82
2.85,0.75,82
2.85,0.9,82
2.85,1.05,82
2.85,1.2,82
2.85,1.35,84
2.85,1.5,86
3.0,-1.5,84
3.0,-1.35,81
3.0,-1.2,80
3.0,-1.05,80
3.0,-0.9,82
3.0,-0.75,98
3.0,-0.6,134
3.0,-0.45,109
3.0,-0.3,84
3.0,-0.15,83
3.0,0.0,84
3.0,0.15,96
3.0,0.3,82
3.0,0.45,86
3.0,0.6,82
3.0,0.75,82
3.0,0.9,82
3.0,1.05,82
3.0,1.2,82
3.0,1.35,82
3.0,1.5,82
3.15,-1.5,91
3.15,-1.35,88
3.15,-1.2,84
3.15,-1.05,82
3.15,-0.9,82
3.15,-0.75,89
3.15,-0.6,103
3.15,-0.45,83
3.15,-0.3,88
3.15,-0.15,84
3.15,0.0,82
3.15,0.15,82
3.15,0.3,85
3.15,0.45,94
3.15,0.6,86
3.15,0.75,84
3.15,0.9,82
3.15,1.05,82
3.15,1.2,82
3.15,1.35,82
3.15,1.5,82
3.3,-1.5,91
3.3,-1.35,90
3.3,-1.2,89
3.3,-1.05,85
3.3,-0.9,82
3.3,-0.75,83
3.3,-0.6,93
3.3,-0.45,99
3.3,-0.3,82
3.3,-0.15,84
3.3,0.0,82
3.3,0.15,84
3.3,0.3,89
3.3,0.45,95
3.3,0.6,92
3.3,0.75,90
3.3,0.9,88
3.3,1.05,85
3.3,1.2,83
3.3,1.35,82
3.3,1.5,82
3.45,-1.5,93
3.45,-1.35,95
3.45,-1.2,98
3.45,-1.05,94
3.45,-0.9,83
3.45,-0.75,82
3.45,-0.6,88
3.45,-0.45,86
3.45,-0.3,84
3.45,-0.15,82
3.45,0.0,83
3.45,0.15,86
3.45,0.3,91
3.45,0.45,100
3.45,0.6,98
3.45,0.75,95
3.45,0.9,93
3.45,1.05,90
3.45,1.2,85
3.45,1.35,83
3.45,1.5,82
3.6,-1.5,134
3.6,-1.35,129
3.6,-1.2,117
3.6,-1.05,106
3.6,-0.9,93
3.6,-0.75,82
3.6,-0.6,85
3.6,-0.45,88
3.6,-0.3,82
3.6,-0.15,86
3.6,0.0,84
3.6,0.15,83
3.6,0.3,100
3.6,0.45,109
3.6,0.6,104
3.6,0.75,102
3.6,0.9,96
3.6,1.05,90
3.6,1.2,83
3.6,1.35,82
3.6,1.5,82
3.75,-1.5,141
3.75,-1.35,131
3.75,-1.2,112
3.75,-1.05,100
3.75,-0.9,88
3.75,-0.75,82
3.75,-0.6,82
3.75,-0.45,82
3.75,-0.3,82
3.75,-0.15,84
3.75,0.0,87
3.75,0.15,97
3.75,0.3,113
3.75,0.45,113
3.75,0.6,102
3.75,0.75,102
3.75,0.9,96
3.75,1.05,89
3.75,1.2,80
3.75,1.35,80
3.75,1.5,80
3.9,-1.5,117
3.9,-1.35,108
3.9,-1.2,94
3.9,-1.05,87
3.9,-0.9,83
3.9,-0.75,82
3.9,-0.6,82
3.9,-0.45,82
3.9,-0.3,86
3.9,-0.15,86
3.9,0.0,83
3.9,0.15,87
3.9,0.3,99
3.9,0.45,102
3.9,0.6,93
3.9,0.75,95
3.9,0.9,94
3.9,1.05,88
3.9,1.2,74
3.9,1.35,72
3.9,1.5,70
4.05,-1.5,101
4.05,-1.35,92
4.05,-1.2,82
4.05,-1.05,81
4.05,-0.9,82
4.05,-0.75,82
4.05,-0.6,83
4.05,-0.45,86
4.05,-0.3,86
4.05,-0.15,86
4.05,0.0,86
4.05,0.15,83
4.05,0.3,82
4.05,0.45,86
4.05,0.6,86
4.05,0.75,89
4.05,0.9,91
4.05,1.05,87
4.05,1.2,70
4.05,1.35,66
4.05,1.5,62
4.2,-1.5,85
4.2,-1.35,81
4.2,-1.2,81
4.2,-1.05,81
4.2,-0.9,84
4.2,-0.75,82
4.2,-0.6,82
4.2,-0.45,82
4.2,-0.3,82
4.2,-0.15,84
4.2,0.0,81
4.2,0.15,82
4.2,0.3,78
4.2,0.45,79
4.2,0.6,83
4.2,0.75,83
4.2,0.9,75
4.2,1.05,72
4.2,1.2,71
4.2,1.35,68
4.2,1.5,64
4.35,-1.5,81
4.35,-1.35,81
4.35,-1.2,81
4.35,-1.05,81
4.35,-0.9,88
4.35,-0.75,92
4.35,-0.6,95
4.35,-0.45,82
4.35,-0.3,86
4.35,-0.15,82
4.35,0.0,76
4.35,0.15,78
4.35,0.3,70
4.35,0.45,79
4.35,0.6,83
4.35,0.75,78
4.35,0.9,58
4.35,1.05,55
4.35,1.2,71
4.35,1.35,68
4.35,1.5,65
4.5,-1.5,81
4.5,-1.35,81
4.5,-1.2,81
4.5,-1.05,81
4.5,-0.9,88
4.5,-0.75,85
4.5,-0.6,84
4.5,-0.45,86
4.5,-0.3,82
4.5,-0.15,82
4.5,0.0,83
4.5,0.15,74
4.5,0.3,65
4.5,0.45,83
4.5,0.6,76
4.5,0.75,62
4.5,0.9,46
4.5,1.05,49
4.5,1.2,72
4.5,1.35,70
4.5,1.5,68
4.65,-1.5,81
4.65,-1.35,81
4.65,-1.2,81
4.65,-1.05,81
4.65,-0.9,81
4.65,-0.75,81
4.65,-0.6,89
4.65,-0.45,87
4.65,-0.3,86
4.65,-0.15,83
4.65,0.0,84
4.65,0.15,73
4.65,0.3,74
4.65,0.45,81
4.65,0.6,58
4.65,0.75,38
4.65,0.9,31
4.65,1.05,41
4.65,1.2,72
4.65,1.35,72
4.65,1.5,72
4.8,-1.5,81
4.8,-1.35,81
4.8,-1.2,81
4.8,-1.05,81
4.8,-0.9,83
4.8,-0.75,84
4.8,-0.6,88
4.8,-0.45,89
4.8,-0.3,106
4.8,-0.15,84
4.8,0.0,84
4.8,0.15,84
4.8,0.3,84
4.8,0.45,78
4.8,0.6,41
4.8,0.75,20
4.8,0.9,10
4.8,1.05,28
4.8,1.2,72
4.8,1.35,72
4.8,1.5,72
4.95,-1.5,81
4.95,-1.35,81
4.95,-1.2,81
4.95,-1.05,81
4.95,-0.9,83
4.95,-0.75,85
4.95,-0.6,84
4.95,-0.45,98
4.95,-0.3,96
4.95,-0.15,77
4.95,0.0,83
4.95,0.15,79
4.95,0.3,71
4.95,0.45,63
4.95,0.6,26
4.95,0.75,7
4.95,0.9,0
4.95,1.05,22
4.95,1.2,72
4.95,1.35,72
4.95,1.5,72
5.1,-1.5,81
5.1,-1.35,81
5.1,-1.2,81
5.1,-1.05,81
5.1,-0.9,81
5.1,-0.75,88
5.1,-0.6,123
5.1,-0.45,94
5.1,-0.3,63
5.1,-0.15,77
5.1,0.0,84
5.1,0.15,83
5.1,0.3,72
5.1,0.45,43
5.1,0.6,17
5.1,0.75,4
5.1,0.9,2
5.1,1.05,15
5.1,1.2,60
5.1,1.35,66
5.1,1.5,72
5.25,-1.5,81
5.25,-1.35,81
5.25,-1.2,81
5.25,-1.05,81
5.25,-0.9,81
5.25,-0.75,95
5.25,-0.6,180
5.25,-0.45,149
5.25,-0.3,96
5.25,-0.15,81
5.25,0.0,84
5.25,0.15,84
5.25,0.3,77
5.25,0.45,45
5.25,0.6,28
5.25,0.75,17
5.25,0.9,12
5.25,1.05,13
5.25,1.2,57
5.25,1.35,68
5.25,1.5,80
5.4,-1.5,81
5.4,-1.35,81
5.4,-1.2,81
5.4,-1.05,81
5.4,-0.9,86
5.4,-0.75,108
5.4,-0.6,202
5.4,-0.45,143
5.4,-0.3,102
5.4,-0.15,84
5.4,0.0,84
5.4,0.15,79
5.4,0.3,74
5.4,0.45,61
5.4,0.6,51
5.4,0.75,36
5.4,0.9,37
5.4,1.05,39
5.4,1.2,64
5.4,1.35,72
5.4,1.5,80
5.55,-1.5,81
5.55,-1.35,81
5.55,-1.2,81
5.55,-1.05,81
5.55,-0.9,87
5.55,-0.75,103
5.55,-0.6,191
5.55,-0.45,120
5.55,-0.3,100
5.55,-0.15,84
5.55,0.0,84
5.55,0.15,80
5.55,0.3,82
5.55,0.45,74
5.55,0.6,66
5.55,0.75,48
5.55,0.9,76
5.55,1.05,78
5.55,1.2,68
5.55,1.35,70
5.55,1.5,73
5.7,-1.5,81
5.7,-1.35,80
5.7,-1.2,73
5.7,-1.05,72
5.7,-0.9,77
5.7,-0.75,90
5.7,-0.6,157
5.7,-0.45,106
5.7,-0.3,84
5.7,-0.15,84
5.7,0.0,84
5.7,0.15,80
5.7,0.3,89
5.7,0.45,86
5.7,0.6,68
5.7,0.75,68
5.7,0.9,88
5.7,1.05,84
5.7,1.2,69
5.7,1.35,68
5.7,1.5,67
5.85,-1.5,73
5.85,-1.35,65
5.85,-1.2,51
5.85,-1.05,52
5.85,-0.9,68
5.85,-0.75,79
5.85,-0.6,133
5.85,-0.45,99
5.85,-0.3,85
5.85,-0.15,84
5.85,0.0,101
5.85,0.15,89
5.85,0.3,80
5.85,0.45,80
5.85,0.6,96
5.85,0.75,110
5.85,0.9,94
5.85,1.05,80
5.85,1.2,61
5.85,1.35,55
5.85,1.5,51
6.0,-1.5,42
6.0,-1.35,40
6.0,-1.2,39
6.0,-1.05,47
6.0,-0.9,69
6.0,-0.75,87
6.0,-0.6,96
6.0,-0.45,84
6.0,-0.3,85
6.0,-0.15,85
6.0,0.0,85
6.0,0.15,80
6.0,0.3,80
6.0,0.45,87
6.0,0.6,128
6.0,0.75,141
6.0,0.9,103
6.0,1.05,87
6.0,1.2,60
6.0,1.35,50
6.0,1.5,41
6.15,-1.5,0
6.15,-1.35,0
6.15,-1.2,30
6.15,-1.05,50
6.15,-0.9,70
6.15,-0.75,74
6.15,-0.6,41
6.15,-0.45,89
6.15,-0.3,87
6.15,-0.15,83
6.15,0.0,83
6.15,0.15,90
6.15,0.3,102
6.15,0.45,105
6.15,0.6,153
6.15,0.75,157
6.15,0.9,96
6.15,1.05,84
6.15,1.2,56
6.15,1.35,42
6.15,1.5,28
6.3,-1.5,18
6.3,-1.35,24
6.3,-1.2,26
6.3,-1.05,43
6.3,-0.9,68
6.3,-0.75,74
6.3,-0.6,32
6.3,-0.45,46
6.3,-0.3,86
6.3,-0.15,83
6.3,0.0,84
6.3,0.15,88
6.3,0.3,105
6.3,0.45,108
6.3,0.6,124
6.3,0.75,126
6.3,0.9,108
6.3,1.05,100
6.3,1.2,75
6.3,1.35,67
6.3,1.5,60
6.45,-1.5,79
6.45,-1.35,79
6.45,-1.2,13
6.45,-1.05,1
6.45,-0.9,35
6.45,-0.75,55
6.45,-0.6,55
6.45,-0.45,98
6.45,-0.3,84
6.45,-0.15,83
6.45,0.0,83
6.45,0.15,83
6.45,0.3,88
6.45,0.45,90
6.45,0.6,74
6.45,0.75,82
6.45,0.9,116
6.45,1.05,115
6.45,1.2,98
6.45,1.35,100
6.45,1.5,102
6.6,-1.5,75
6.6,-1.35,77
6.6,-1.2,22
6.6,-1.05,0
6.6,-0.9,22
6.6,-0.75,42
6.6,-0.6,77
6.6,-0.45,87
6.6,-0.3,83
6.6,-0.15,84
6.6,0.0,83
6.6,0.15,83
6.6,0.3,83
6.6,0.45,83
6.6,0.6,82
6.6,0.75,85
6.6,0.9,96
6.6,1.05,103
6.6,1.2,112
6.6,1.35,119
6.6,1.5,125
6.75,-1.5,70
6.75,-1.35,70
6.75,-1.2,49
6.75,-1.05,31
6.75,-0.9,39
6.75,-0.75,67
6.75,-0.6,83
6.75,-0.45,82
6.75,-0.3,82
6.75,-0.15,84
6.75,0.0,83
6.75,0.15,92
6.75,0.3,99
6.75,0.45,91
6.75,0.6,89
6.75,0.75,88
6.75,0.9,85
6.75,1.05,96
6.75,1.2,125
6.75,1.35,137
6.75,1.5,150
6.9,-1.5,76
6.9,-1.35,78
6.9,-1.2,71
6.9,-1.05,65
6.9,-0.9,66
6.9,-0.75,85
6.9,-0.6,74
6.9,-0.45,81
6.9,-0.3,84
6.9,-0.15,84
6.9,0.0,86
6.9,0.15,84
6.9,0.3,95
6.9,0.45,90
6.9,0.6,85
6.9,0.75,86
6.9,0.9,89
6.9,1.05,95
6.9,1.2,105
6.9,1.35,113
6.9,1.5,121
7.05,-1.5,87
7.05,-1.35,86
7.05,-1.2,83
7.05,-1.05,81
7.05,-0.9,79
7.05,-0.75,86
7.05,-0.6,98
7.05,-0.45,78
7.05,-0.3,83
7.05,-0.15,83
7.05,0.0,83
7.05,0.15,85
7.05,0.3,81
7.05,0.45,66
7.05,0.6,82
7.05,0.75,86
7.05,0.9,90
7.05,1.05,92
7.05,1.2,91
7.05,1.35,91
7.05,1.5,92
7.2,-1.5,87
7.2,-1.35,85
7.2,-1.2,83
7.2,-1.05,82
7.2,-0.9,82
7.2,-0.75,86
7.2,-0.6,106
7.2,-0.45,85
7.2,-0.3,85
7.2,-0.15,83
7.2,0.0,83
7.2,0.15,100
7.2,0.3,80
7.2,0.45,58
7.2,0.6,78
7.2,0.75,83
7.2,0.9,87
7.2,1.05,91
7.2,1.2,97
7.2,1.35,101
7.2,1.5,106
7.35,-1.5,88
7.35,-1.35,87
7.35,-1.2,85
7.35,-1.05,85
7.35,-0.9,86
7.35,-0.75,83
7.35,-0.6,90
7.35,-0.45,86
7.35,-0.3,83
7.35,-0.15,96
7.35,0.0,83
7.35,0.15,85
7.35,0.3,78
7.35,0.45,73
7.35,0.6,78
7.35,0.75,79
7.35,0.9,86
7.35,1.05,94
7.35,1.2,112
7.35,1.35,121
7.35,1.5,131
7.5,-1.5,96
7.5,-1.35,91
7.5,-1.2,87
7.5,-1.05,85
7.5,-0.9,84
7.5,-0.75,78
7.5,-0.6,66
7.5,-0.45,84
7.5,-0.3,83
7.5,-0.15,89
7.5,0.0,83
7.5,0.15,84
7.5,0.3,81
7.5,0.45,82
7.5,0.6,80
7.5,0.75,80
7.5,0.9,87
7.5,1.05,95
7.5,1.2,109
7.5,1.35,115
7.5,1.5,121
7.65,-1.5,116
7.65,-1.35,106
7.65,-1.2,99
7.65,-1.05,91
7.65,-0.9,82
7.65,-0.75,79
7.65,-0.6,83
7.65,-0.45,80
7.65,-0.3,83
7.65,-0.15,87
7.65,0.0,86
7.65,0.15,83
7.65,0.3,82
7.65,0.45,81
7.65,0.6,81
7.65,0.75,83
7.65,0.9,89
7.65,1.05,94
7.65,1.2,100
7.65,1.35,100
7.65,1.5,100
7.8,-1.5,127
7.8,-1.35,117
7.8,-1.2,115
7.8,-1.05,107
7.8,-0.9,90
7.8,-0.75,79
7.8,-0.6,108
7.8,-0.45,83
7.8,-0.3,82
7.8,-0.15,82
7.8,0.0,80
7.8,0.15,83
7.8,0.3,82
7.8,0.45,81
7.8,0.6,83
7.8,0.75,88
7.8,0.9,95
7.8,1.05,102
7.8,1.2,109
7.8,1.35,107
7.8,1.5,103
7.95,-1.5,136
7.95,-1.35,129
7.95,-1.2,134
7.95,-1.05,126
7.95,-0.9,110
7.95,-0.75,90
7.95,-0.6,105
7.95,-0.45,82
7.95,-0.3,81
7.95,-0.15,80
7.95,0.0,80
7.95,0.15,82
7.95,0.3,83
7.95,0.45,85
7.95,0.6,93
7.95,0.75,98
7.95,0.9,103
7.95,1.05,116
7.95,1.2,137
7.95,1.35,132
7.95,1.5,123
8.1,-1.5,136
8.1,-1.35,136
8.1,-1.2,156
8.1,-1.05,145
8.1,-0.9,115
8.1,-0.75,85
8.1,-0.6,91
8.1,-0.45,81
8.1,-0.3,80
8.1,-0.15,80
8.1,0.0,85
8.1,0.15,88
8.1,0.3,90
8.1,0.45,93
8.1,0.6,105
8.1,0.75,114
8.1,0.9,120
8.1,1.05,138
8.1,1.2,168
8.1,1.35,165
8.1,1.5,158
8.25,-1.5,130
8.25,-1.35,129
8.25,-1.2,189
8.25,-1.05,187
8.25,-0.9,161
8.25,-0.75,100
8.25,-0.6,85
8.25,-0.45,85
8.25,-0.3,79
8.25,-0.15,82
8.25,0.0,80
8.25,0.15,81
8.25,0.3,91
8.25,0.45,109
8.25,0.6,122
8.25,0.75,140
8.25,0.9,166
8.25,1.05,186
8.25,1.2,228
8.25,1.35,235
8.25,1.5,240
8.4,-1.5,130
8.4,-1.35,128
8.4,-1.2,183
8.4,-1.05,192
8.4,-0.9,205
8.4,-0.75,127
8.4,-0.6,86
8.4,-0.45,79
8.4,-0.3,84
8.4,-0.15,86
8.4,0.0,110
8.4,0.15,84
8.4,0.3,89
8.4,0.45,120
8.4,0.6,136
8.4,0.75,162
8.4,0.9,200
8.4,1.05,216
8.4,1.2,247
8.4,1.35,255
8.4,1.5,255
8.55,-1.5,127
8.55,-1.35,120
8.55,-1.2,150
8.55,-1.05,166
8.55,-0.9,153
8.55,-0.75,107
8.55,-0.6,74
8.55,-0.45,86
8.55,-0.3,81
8.55,-0.15,75
8.55,0.0,97
8.55,0.15,76
8.55,0.3,101
8.55,0.45,150
8.55,0.6,182
8.55,0.75,210
8.55,0.9,254
8.55,1.05,255
8.55,1.2,239
8.55,1.35,249
8.55,1.5,255
8.7,-1.5,111
8.7,-1.35,108
8.7,-1.2,132
8.7,-1.05,136
8.7,-0.9,107
8.7,-0.75,85
8.7,-0.6,72
8.7,-0.45,84
8.7,-0.3,82
8.7,-0.15,78
8.7,0.0,72
8.7,0.15,84
8.7,0.3,115
8.7,0.45,143
8.7,0.6,174
8.7,0.75,204
8.7,0.9,255
8.7,1.05,255
8.7,1.2,239
8.7,1.35,245
8.7,1.5,255
8.85,-1.5,58
8.85,-1.35,70
8.85,-1.2,127
8.85,-1.05,115
8.85,-0.9,84
8.85,-0.75,92
8.85,-0.6,91
8.85,-0.45,100
8.85,-0.3,88
8.85,-0.15,86
8.85,0.0,96
8.85,0.15,101
8.85,0.3,64
8.85,0.45,110
8.85,0.6,152
8.85,0.75,187
8.85,0.9,234
8.85,1.05,247
8.85,1.2,244
8.85,1.35,255
8.85,1.5,255
9.0,-1.5,13
9.0,-1.35,27
9.0,-1.2,57
9.0,-1.05,49
9.0,-0.9,59
9.0,-0.75,92
9.0,-0.6,84
9.0,-0.45,83
9.0,-0.3,88
9.0,-0.15,72
9.0,0.0,64
9.0,0.15,64
9.0,0.3,55
9.0,0.45,95
9.0,0.6,111
9.0,0.75,146
9.0,0.9,206
9.0,1.05,226
9.0,1.2,230
9.0,1.35,252
9.0,1.5,255
9.15,-1.5,49
9.15,-1.35,53
9.15,-1.2,0
9.15,-1.05,0
9.15,-0.9,39
9.15,-0.75,71
9.15,-0.6,85
9.15,-0.45,83
9.15,-0.3,84
9.15,-0.15,72
9.15,0.0,84
9.15,0.15,86
9.15,0.3,98
9.15,0.45,98
9.15,0.6,60
9.15,0.75,80
9.15,0.9,179
9.15,1.05,203
9.15,1.2,210
9.15,1.35,234
9.15,1.5,255
9.3,-1.5,65
9.3,-1.35,67
9.3,-1.2,13
9.3,-1.05,12
9.3,-0.9,41
9.3,-0.75,85
9.3,-0.6,72
9.3,-0.45,90
9.3,-0.3,81
9.3,-0.15,86
9.3,0.0,88
9.3,0.15,83
9.3,0.3,89
9.3,0.45,89
9.3,0.6,71
9.3,0.75,76
9.3,0.9,135
9.3,1.05,163
9.3,1.2,190
9.3,1.35,216
9.3,1.5,243
9.45,-1.5,65
9.45,-1.35,68
9.45,-1.2,41
9.45,-1.05,35
9.45,-0.9,42
9.45,-0.75,82
9.45,-0.6,76
9.45,-0.45,92
9.45,-0.3,95
9.45,-0.15,88
9.45,0.0,88
9.45,0.15,84
9.45,0.3,82
9.45,0.45,81
9.45,0.6,81
9.45,0.75,79
9.45,0.9,66
9.45,1.05,91
9.45,1.2,168
9.45,1.35,195
9.45,1.5,222
9.6,-1.5,69
9.6,-1.35,72
9.6,-1.2,60
9.6,-1.05,55
9.6,-0.9,47
9.6,-0.75,71
9.6,-0.6,87
9.6,-0.45,79
9.6,-0.3,79
9.6,-0.15,86
9.6,0.0,87
9.6,0.15,80
9.6,0.3,80
9.6,0.45,80
9.6,0.6,80
9.6,0.75,80
9.6,0.9,63
9.6,1.05,79
9.6,1.2,147
9.6,1.35,171
9.6,1.5,195
9.75,-1.5,77
9.75,-1.35,77
9.75,-1.2,75
9.75,-1.05,81
9.75,-0.9,79
9.75,-0.75,87
9.75,-0.6,76
9.75,-0.45,87
9.75,-0.3,87
9.75,-0.15,87
9.75,0.0,81
9.75,0.15,80
9.75,0.3,80
9.75,0.45,80
9.75,0.6,82
9.75,0.75,83
9.75,0.9,82
9.75,1.05,89
9.75,1.2,107
9.75,1.35,116
9.75,1.5,125
9.9,-1.5,72
9.9,-1.35,75
9.9,-1.2,82
9.9,-1.05,95
9.9,-0.9,95
9.9,-0.75,87
9.9,-0.6,81
9.9,-0.45,85
9.9,-0.3,87
9.9,-0.15,81
9.9,0.0,85
9.9,0.15,89
9.9,0.3,81
9.9,0.45,81
9.9,0.6,83
9.9,0.75,84
9.9,0.9,88
9.9,1.05,93
9.9,1.2,99
9.9,1.35,104
9.9,1.5,109
10.05,-1.5,52
10.05,-1.35,70
10.05,-1.2,78
10.05,-1.05,78
10.05,-0.9,77
10.05,-0.75,79
10.05,-0.6,81
10.05,-0.45,65
10.05,-0.3,89
10.05,-0.15,88
10.05,0.0,92
10.05,0.15,82
10.05,0.3,83
10.05,0.45,83
10.05,0.6,84
10.05,0.75,86
10.05,0.9,87
10.05,1.05,94
10.05,1.2,102
10.05,1.35,107
10.05,1.5,109
10.2,-1.5,47
10.2,-1.35,64
10.2,-1.2,75
10.2,-1.05,75
10.2,-0.9,77
10.2,-0.75,82
10.2,-0.6,83
10.2,-0.45,83
10.2,-0.3,94
10.2,-0.15,95
10.2,0.0,86
10.2,0.15,82
10.2,0.3,83
10.2,0.45,82
10.2,0.6,86
10.2,0.75,89
10.2,0.9,91
10.2,1.05,97
10.2,1.2,102
10.2,1.35,106
10.2,1.5,109
10.35,-1.5,47
10.35,-1.35,59
10.35,-1.2,70
10.35,-1.05,78
10.35,-0.9,83
10.35,-0.75,86
10.35,-0.6,86
10.35,-0.45,82
10.35,-0.3,89
10.35,-0.15,87
10.35,0.0,83
10.35,0.15,83
10.35,0.3,82
10.35,0.45,82
10.35,0.6,89
10.35,0.75,96
10.35,0.9,97
10.35,1.05,95
10.35,1.2,78
10.35,1.35,73
10.35,1.5,68
10.5,-1.5,39
10.5,-1.35,49
10.5,-1.2,58
10.5,-1.05,68
10.5,-0.9,74
10.5,-0.75,76
10.5,-0.6,86
10.5,-0.45,86
10.5,-0.3,82
10.5,-0.15,82
10.5,0.0,82
10.5,0.15,82
10.5,0.3,83
10.5,0.45,89
10.5,0.6,97
10.5,0.75,97
10.5,0.9,97
10.5,1.05,95
10.5,1.2,67
10.5,1.35,58
10.5,1.5,50
10.65,-1.5,0
10.65,-1.35,10
10.65,-1.2,32
10.65,-1.05,43
10.65,-0.9,40
10.65,-0.75,59
10.65,-0.6,82
10.65,-0.45,82
10.65,-0.3,82
10.65,-0.15,82
10.65,0.0,84
10.65,0.15,82
10.65,0.3,86
10.65,0.45,95
10.65,0.6,97
10.65,0.75,95
10.65,0.9,90
10.65,1.05,80
10.65,1.2,64
10.65,1.35,55
10.65,1.5,47
10.8,-1.5,0
10.8,-1.35,0
10.8,-1.2,8
10.8,-1.05,26
10.8,-0.9,33
10.8,-0.75,65
10.8,-0.6,85
10.8,-0.45,87
10.8,-0.3,85
10.8,-0.15,82
10.8,0.0,87
10.8,0.15,83
10.8,0.3,86
10.8,0.45,91
10.8,0.6,92
10.8,0.75,87
10.8,0.9,79
10.8,1.05,70
10.8,1.2,62
10.8,1.35,53
10.8,1.5,45
10.95,-1.5,1
10.95,-1.35,2
10.95,-1.2,0
10.95,-1.05,0
10.95,-0.9,42
10.95,-0.75,85
10.95,-0.6,98
10.95,-0.45,83
10.95,-0.3,87
10.95,-0.15,87
10.95,0.0,85
10.95,0.15,81
10.95,0.3,82
10.95,0.45,83
10.95,0.6,84
10.95,0.75,80
10.95,0.9,72
10.95,1.05,68
10.95,1.2,69
10.95,1.35,64
10.95,1.5,60
11.1,-1.5,35
11.1,-1.35,24
11.1,-1.2,0
11.1,-1.05,0
11.1,-0.9,45
11.1,-0.75,85
11.1,-0.6,88
11.1,-0.45,83
11.1,-0.3,83
11.1,-0.15,84
11.1,0.0,81
11.1,0.15,81
11.1,0.3,79
11.1,0.45,74
11.1,0.6,74
11.1,0.75,71
11.1,0.9,65
11.1,1.05,65
11.1,1.2,69
11.1,1.35,69
11.1,1.5,67
11.25,-1.5,23
11.25,-1.35,20
11.25,-1.2,6
11.25,-1.05,19
11.25,-0.9,46
11.25,-0.75,75
11.25,-0.6,88
11.25,-0.45,84
11.25,-0.3,83
11.25,-0.15,83
11.25,0.0,85
11.25,0.15,88
11.25,0.3,80
11.25,0.45,67
11.25,0.6,58
11.25,0.75,56
11.25,0.9,66
11.25,1.05,67
11.25,1.2,69
11.25,1.35,69
11.25,1.5,69
11.4,-1.5,35
11.4,-1.35,36
11.4,-1.2,46
11.4,-1.05,50
11.4,-0.9,52
11.4,-0.75,65
11.4,-0.6,88
11.4,-0.45,83
11.4,-0.3,83
11.4,-0.15,83
11.4,0.0,92
11.4,0.15,97
11.4,0.3,86
11.4,0.45,70
11.4,0.6,57
11.4,0.75,53
11.4,0.9,66
11.4,1.05,68
11.4,1.2,66
11.4,1.35,67
11.4,1.5,68
11.55,-1.5,73
11.55,-1.35,73
11.55,-1.2,67
11.55,-1.05,63
11.55,-0.9,69
11.55,-0.75,71
11.55,-0.6,80
11.55,-0.45,88
11.55,-0.3,100
11.55,-0.15,101
11.55,0.0,98
11.55,0.15,96
11.55,0.3,87
11.55,0.45,75
11.55,0.6,62
11.55,0.75,53
11.55,0.9,54
11.55,1.05,52
11.55,1.2,47
11.55,1.35,43
11.55,1.5,38
11.7,-1.5,105
11.7,-1.35,106
11.7,-1.2,97
11.7,-1.05,93
11.7,-0.9,90
11.7,-0.75,86
11.7,-0.6,72
11.7,-0.45,99
11.7,-0.3,119
11.7,-0.15,107
11.7,0.0,90
11.7,0.15,88
11.7,0.3,87
11.7,0.45,80
11.7,0.6,68
11.7,0.75,58
11.7,0.9,53
11.7,1.05,48
11.7,1.2,42
11.7,1.35,34
11.7,1.5,27
11.85,-1.5,114
11.85,-1.35,119
11.85,-1.2,128
11.85,-1.05,124
11.85,-0.9,109
11.85,-0.75,90
11.85,-0.6,74
11.85,-0.45,100
11.85,-0.3,93
11.85,-0.15,76
11.85,0.0,70
11.85,0.15,78
11.85,0.3,88
11.85,0.45,87
11.85,0.6,76
11.85,0.75,67
11.85,0.9,62
11.85,1.05,55
11.85,1.2,48
11.85,1.35,41
11.85,1.5,33
12.0,-1.5,117
12.0,-1.35,124
12.0,-1.2,144
12.0,-1.05,142
12.0,-0.9,125
12.0,-0.75,102
12.0,-0.6,83
12.0,-0.45,81
12.0,-0.3,61
12.0,-0.15,46
12.0,0.0,50
12.0,0.15,71
12.0,0.3,88
12.0,0.45,88
12.0,0.6,82
12.0,0.75,73
12.0,0.9,69
12.0,1.05,61
12.0,1.2,54
12.0,1.35,46
12.0,1.5,39
12.15,-1.5,118
12.15,-1.35,118
12.15,-1.2,130
12.15,-1.05,134
12.15,-0.9,100
12.15,-0.75,96
12.15,-0.6,93
12.15,-0.45,79
12.15,-0.3,56
12.15,-0.15,42
12.15,0.0,46
12.15,0.15,69
12.15,0.3,88
12.15,0.45,88
12.15,0.6,83
12.15,0.75,77
12.15,0.9,74
12.15,1.05,69
12.15,1.2,65
12.15,1.35,61
12.15,1.5,57
12.3,-1.5,106
12.3,-1.35,104
12.3,-1.2,106
12.3,-1.05,109
12.3,-0.9,86
12.3,-0.75,104
12.3,-0.6,112
12.3,-0.45,98
12.3,-0.3,69
12.3,-0.15,52
12.3,0.0,51
12.3,0.15,69
12.3,0.3,87
12.3,0.45,87
12.3,0.6,82
12.3,0.75,78
12.3,0.9,76
12.3,1.05,74
12.3,1.2,72
12.3,1.35,71
12.3,1.5,69
12.45,-1.5,99
12.45,-1.35,100
12.45,-1.2,90
12.45,-1.05,85
12.45,-0.9,85
12.45,-0.75,98
12.45,-0.6,105
12.45,-0.45,98
12.45,-0.3,79
12.45,-0.15,71
12.45,0.0,69
12.45,0.15,75
12.45,0.3,82
12.45,0.45,83
12.45,0.6,81
12.45,0.75,79
12.45,0.9,77
12.45,1.05,76
12.45,1.2,74
12.45,1.35,73
12.45,1.5,72
12.6,-1.5,92
12.6,-1.35,94
12.6,-1.2,82
12.6,-1.05,76
12.6,-0.9,81
12.6,-0.75,85
12.6,-0.6,90
12.6,-0.45,89
12.6,-0.3,84
12.6,-0.15,84
12.6,0.0,83
12.6,0.15,83
12.6,0.3,81
12.6,0.45,81
12.6,0.6,81
12.6,0.75,79
12.6,0.9,79
12.6,1.05,78
12.6,1.2,77
12.6,1.35,76
12.6,1.5,75
12.75,-1.5,80
12.75,-1.35,81
12.75,-1.2,78
12.75,-1.05,77
12.75,-0.9,80
12.75,-0.75,82
12.75,-0.6,85
12.75,-0.45,83
12.75,-0.3,82
12.75,-0.15,84
12.75,0.0,84
12.75,0.15,83
12.75,0.3,81
12.75,0.45,81
12.75,0.6,81
12.75,0.75,80
12.75,0.9,80
12.75,1.05,79
12.75,1.2,79
12.75,1.35,78
12.75,1.5,77
12.9,-1.5,79
12.9,-1.35,79
12.9,-1.2,80
12.9,-1.05,81
12.9,-0.9,84
12.9,-0.75,87
12.9,-0.6,86
12.9,-0.45,81
12.9,-0.3,81
12.9,-0.15,81
12.9,0.0,82
12.9,0.15,82
12.9,0.3,81
12.9,0.45,81
12.9,0.6,81
12.9,0.75,81
12.9,0.9,81
12.9,1.05,81
12.9,1.2,81
12.9,1.35,80
12.9,1.5,80
13.05,-1.5,83
13.05,-1.35,84
13.05,-1.2,86
13.05,-1.05,89
13.05,-0.9,92
13.05,-0.75,94
13.05,-0.6,91
13.05,-0.45,84
13.05,-0.3,81
13.05,-0.15,81
13.05,0.0,81
13.05,0.15,81
13.05,0.3,81
13.05,0.45,81
13.05,0.6,81
13.05,0.75,81
13.05,0.9,81
13.05,1.05,81
13.05,1.2,81
13.05,1.35,81
13.05,1.5,81
