-3.0,-1.5,8
-3.0,-1.35,8
-3.0,-1.2,8
-3.0,-1.05,8
-3.0,-0.9,8
-3.0,-0.75,8
-3.0,-0.6,8
-3.0,-0.45,8
-3.0,-0.3,8
-3.0,-0.15,8
-3.0,0.0,8
-3.0,0.15,8
-3.0,0.3,8
-3.0,0.45,8
-3.0,0.6,8
-3.0,0.75,8
-3.0,0.9,8
-3.0,1.05,8
-3.0,1.2,8
-3.0,1.35,8
-3.0,1.5,8
-2.85,-1.5,8
-2.85,-1.35,8
-2.85,-1.2,8
-2.85,-1.05,8
-2.85,-0.9,8
-2.85,-0.75,8
-2.85,-0.6,8
-2.85,-0.45,8
-2.85,-0.3,8
-2.85,-0.15,8
-2.85,0.0,8
-2.85,0.15,8
-2.85,0.3,8
-2.85,0.45,8
-2.85,0.6,8
-2.85,0.75,8
-2.85,0.9,8
-2.85,1.05,8
-2.85,1.2,8
-2.85,1.35,8
-2.85,1.5,8
-2.7,-1.5,8
-2.7,-1.35,8
-2.7,-1.2,8
-2.7,-1.05,8
-2.7,-0.9,8
-2.7,-0.75,8
-2.7,-0.6,8
-2.7,-0.45,8
-2.7,-0.3,8
-2.7,-0.15,8
-2.7,0.0,8
-2.7,0.15,8
-2.7,0.3,8
-2.7,0.45,8
-2.7,0.6,8
-2.7,0.75,8
-2.7,0.9,8
-2.7,1.05,8
-2.7,1.2,8
-2.7,1.35,8
-2.7,1.5,8
-2.55,-1.5,8
-2.55,-1.35,8
-2.55,-1.2,8
-2.55,-1.05,8
-2.55,-0.9,8
-2.55,-0.75,8
-2.55,-0.6,8
-2.55,-0.45,8
-2.55,-0.3,8
-2.55,-0.15,8
-2.55,0.0,8
-2.55,0.15,8
-2.55,0.3,8
-2.55,0.45,8
-2.55,0.6,8
-2.55,0.75,8
-2.55,0.9,8
-2.55,1.05,8
-2.55,1.2,8
-2.55,1.35,8
-2.55,1.5,8
-2.4,-1.5,8
-2.4,-1.35,8
-2.4,-1.2,8
-2.4,-1.05,8
-2.4,-0.9,8
-2.4,-0.75,8
-2.4,-0.6,8
-2.4,-0.45,8
-2.4,-0.3,8
-2.4,-0.15,8
-2.4,0.0,8
-2.4,0.15,8
-2.4,0.3,8
-2.4,0.45,8
-2.4,0.6,8
-2.4,0.75,8
-2.4,0.9,8
-2.4,1.05,8
-2.4,1.2,8
-2.4,1.35,8
-2.4,1.5,8
-2.25,-1.5,8
-2.25,-1.35,8
-2.25,-1.2,8
-2.25,-1.05,8
-2.25,-0.9,8
-2.25,-0.75,8
-2.25,-0.6,8
-2.25,-0.45,8
-2.25,-0.3,8
-2.25,-0.15,8
-2.25,0.0,8
-2.25,0.15,8
-2.25,0.3,8
-2.25,0.45,8
-2.25,0.6,8
-2.25,0.75,8
-2.25,0.9,8
-2.25,1.05,8
-2.25,1.2,8
-2.25,1.35,8
-2.25,1.5,8
-2.1,-1.5,8
-2.1,-1.35,8
-2.1,-1.2,8
-2.1,-1.05,8
-2.1,-0.9,8
-2.1,-0.75,8
-2.1,-0.6,8
-2.1,-0.45,8
-2.1,-0.3,8
-2.1,-0.15,8
-2.1,0.0,8
-2.1,0.15,8
-2.1,0.3,8
-2.1,0.45,8
-2.1,0.6,8
-2.1,0.75,8
-2.1,0.9,8
-2.1,1.05,8
-2.1,1.2,8
-2.1,1.35,8
-2.1,1.5,8
-1.95,-1.5,8
-1.95,-1.35,8
-1.95,-1.2,8
-1.95,-1.05,8
-1.95,-0.9,8
-1.95,-0.75,8
-1.95,-0.6,8
-1.95,-0.45,8
-1.95,-0.3,8
-1.95,-0.15,8
-1.95,0.0,8
-1.95,0.15,8
-1.95,0.3,8
-1.95,0.45,8
-1.95,0.6,8
-1.95,0.75,8
-1.95,0.9,8
-1.95,1.05,8
-1.95,1.2,8
-1.95,1.35,8
-1.95,1.5,8
-1.8,-1.5,8
-1.8,-1.35,8
-1.8,-1.2,8
-1.8,-1.05,8
-1.8,-0.9,8
-1.8,-0.75,8
-1.8,-0.6,8
-1.8,-0.45,8
-1.8,-0.3,8
-1.8,-0.15,8
-1.8,0.0,8
-1.8,0.15,8
-1.8,0.3,8
-1.8,0.45,8
-1.8,0.6,8
-1.8,0.75,8
-1.8,0.9,8
-1.8,1.05,8
-1.8,1.2,8
-1.8,1.35,8
-1.8,1.5,8
-1.65,-1.5,8
-1.65,-1.35,8
-1.65,-1.2,8
-1.65,-1.05,8
-1.65,-0.9,8
-1.65,-0.75,8
-1.65,-0.6,8
-1.65,-0.45,8
-1.65,-0.3,8
-1.65,-0.15,8
-1.65,0.0,8
-1.65,0.15,8
-1.65,0.3,8
-1.65,0.45,8
-1.65,0.6,8
-1.65,0.75,8
-1.65,0.9,8
-1.65,1.05,8
-1.65,1.2,8
-1.65,1.35,8
-1.65,1.5,8
-1.5,-1.5,8
-1.5,-1.35,8
-1.5,-1.2,8
-1.5,-1.05,8
-1.5,-0.9,8
-1.5,-0.75,8
-1.5,-0.6,8
-1.5,-0.45,8
-1.5,-0.3,8
-1.5,-0.15,8
-1.5,0.0,8
-1.5,0.15,8
-1.5,0.3,8
-1.5,0.45,8
-1.5,0.6,8
-1.5,0.75,8
-1.5,0.9,8
-1.5,1.05,8
-1.5,1.2,8
-1.5,1.35,8
-1.5,1.5,8
-1.35,-1.5,8
-1.35,-1.35,8
-1.35,-1.2,8
-1.35,-1.05,8
-1.35,-0.9,8
-1.35,-0.75,8
-1.35,-0.6,8
-1.35,-0.45,8
-1.35,-0.3,8
-1.35,-0.15,8
-1.35,0.0,8
-1.35,0.15,8
-1.35,0.3,8
-1.35,0.45,8
-1.35,0.6,8
-1.35,0.75,8
-1.35,0.9,8
-1.35,1.05,8
-1.35,1.2,8
-1.35,1.35,8
-1.35,1.5,8
-1.2,-1.5,8
-1.2,-1.35,8
-1.2,-1.2,8
-1.2,-1.05,8
-1.2,-0.9,8
-1.2,-0.75,8
-1.2,-0.6,8
-1.2,-0.45,8
-1.2,-0.3,8
-1.2,-0.15,8
-1.2,0.0,8
-1.2,0.15,8
-1.2,0.3,8
-1.2,0.45,8
-1.2,0.6,8
-1.2,0.75,8
-1.2,0.9,8
-1.2,1.05,8
-1.2,1.2,8
-1.2,1.35,8
-1.2,1.5,8
-1.05,-1.5,8
-1.05,-1.35,8
-1.05,-1.2,8
-1.05,-1.05,8
-1.05,-0.9,8
-1.05,-0.75,8
-1.05,-0.6,8
-1.05,-0.45,8
-1.05,-0.3,8
-1.05,-0.15,8
-1.05,0.0,8
-1.05,0.15,8
-1.05,0.3,8
-1.05,0.45,8
-1.05,0.6,8
-1.05,0.75,8
-1.05,0.9,8
-1.05,1.05,8
-1.05,1.2,8
-1.05,1.35,8
-1.05,1.5,8
-0.9,-1.5,8
-0.9,-1.35,8
-0.9,-1.2,8
-0.9,-1.05,8
-0.9,-0.9,8
-0.9,-0.75,8
-0.9,-0.6,8
-0.9,-0.45,8
-0.9,-0.3,8
-0.9,-0.15,8
-0.9,0.0,8
-0.9,0.15,8
-0.9,0.3,8
-0.9,0.45,8
-0.9,0.6,8
-0.9,0.75,8
-0.9,0.9,8
-0.9,1.05,8
-0.9,1.2,8
-0.9,1.35,8
-0.9,1.5,8
-0.75,-1.5,8
-0.75,-1.35,8
-0.75,-1.2,8
-0.75,-1.05,8
-0.75,-0.9,8
-0.75,-0.75,8
-0.75,-0.6,8
-0.75,-0.45,8
-0.75,-0.3,8
-0.75,-0.15,8
-0.75,0.0,8
-0.75,0.15,8
-0.75,0.3,8
-0.75,0.45,8
-0.75,0.6,8
-0.75,0.75,8
-0.75,0.9,8
-0.75,1.05,8
-0.75,1.2,8
-0.75,1.35,8
-0.75,1.5,8
-0.6,-1.5,8
-0.6,-1.35,8
-0.6,-1.2,8
-0.6,-1.05,8
-0.6,-0.9,8
-0.6,-0.75,8
-0.6,-0.6,8
-0.6,-0.45,8
-0.6,-0.3,8
-0.6,-0.15,8
-0.6,0.0,8
-0.6,0.15,8
-0.6,0.3,8
-0.6,0.45,8
-0.6,0.6,8
-0.6,0.75,8
-0.6,0.9,8
-0.6,1.05,8
-0.6,1.2,8
-0.6,1.35,8
-0.6,1.5,8
-0.45,-1.5,8
-0.45,-1.35,8
-0.45,-1.2,8
-0.45,-1.05,8
-0.45,-0.9,8
-0.45,-0.75,8
-0.45,-0.6,8
-0.45,-0.45,8
-0.45,-0.3,8
-0.45,-0.15,8
-0.45,0.0,8
-0.45,0.15,8
-0.45,0.3,8
-0.45,0.45,8
-0.45,0.6,8
-0.45,0.75,8
-0.45,0.9,8
-0.45,1.05,8
-0.45,1.2,8
-0.45,1.35,8
-0.45,1.5,8
-0.3,-1.5,8
-0.3,-1.35,8
-0.3,-1.2,8
-0.3,-1.05,8
-0.3,-0.9,8
-0.3,-0.75,8
-0.3,-0.6,8
-0.3,-0.45,8
-0.3,-0.3,8
-0.3,-0.15,8
-0.3,0.0,8
-0.3,0.15,8
-0.3,0.3,8
-0.3,0.45,8
-0.3,0.6,8
-0.3,0.75,8
-0.3,0.9,8
-0.3,1.05,8
-0.3,1.2,8
-0.3,1.35,8
-0.3,1.5,8
-0.15,-1.5,8
-0.15,-1.35,8
-0.15,-1.2,8
-0.15,-1.05,8
-0.15,-0.9,8
-0.15,-0.75,8
-0.15,-0.6,8
-0.15,-0.45,8
-0.15,-0.3,8
-0.15,-0.15,8
-0.15,0.0,8
-0.15,0.15,8
-0.15,0.3,8
-0.15,0.45,8
-0.15,0.6,8
-0.15,0.75,8
-0.15,0.9,8
-0.15,1.05,7
-0.15,1.2,4
-0.15,1.35,5
-0.15,1.5,5
0.0,-1.5,8
0.0,-1.35,8
0.0,-1.2,8
0.0,-1.05,8
0.0,-0.9,8
0.0,-0.75,8
0.0,-0.6,8
0.0,-0.45,8
0.0,-0.3,8
0.0,-0.15,8
0.0,0.0,8
0.0,0.15,8
0.0,0.3,8
0.0,0.45,8
0.0,0.6,8
0.0,0.75,8
0.0,0.9,8
0.0,1.05,2
0.0,1.2,0
0.0,1.35,0
0.0,1.5,0
0.15,-1.5,8
0.15,-1.35,8
0.15,-1.2,8
0.15,-1.05,8
0.15,-0.9,8
0.15,-0.75,8
0.15,-0.6,8
0.15,-0.45,8
0.15,-0.3,8
0.15,-0.15,8
0.15,0.0,8
0.15,0.15,8
0.15,0.3,8
0.15,0.45,8
0.15,0.6,8
0.15,0.75,8
0.15,0.9,8
0.15,1.05,3
0.15,1.2,0
0.15,1.35,0
0.15,1.5,0
0.3,-1.5,8
0.3,-1.35,8
0.3,-1.2,8
0.3,-1.05,8
0.3,-0.9,8
0.3,-0.75,8
0.3,-0.6,8
0.3,-0.45,8
0.3,-0.3,8
0.3,-0.15,8
0.3,0.0,8
0.3,0.15,8
0.3,0.3,8
0.3,0.45,8
0.3,0.6,8
0.3,0.75,6
0.3,0.9,3
0.3,1.05,2
0.3,1.2,2
0.3,1.35,1
0.3,1.5,0
0.45,-1.5,8
0.45,-1.35,8
0.45,-1.2,8
0.45,-1.05,8
0.45,-0.9,8
0.45,-0.75,8
0.45,-0.6,8
0.45,-0.45,8
0.45,-0.3,8
0.45,-0.15,8
0.45,0.0,8
0.45,0.15,8
0.45,0.3,8
0.45,0.45,8
0.45,0.6,8
0.45,0.75,7
0.45,0.9,4
0.45,1.05,4
0.45,1.2,4
0.45,1.35,3
0.45,1.5,3
0.6,-1.5,8
0.6,-1.35,8
0.6,-1.2,8
0.6,-1.05,8
0.6,-0.9,8
0.6,-0.75,8
0.6,-0.6,8
0.6,-0.45,8
0.6,-0.3,8
0.6,-0.15,8
0.6,0.0,8
0.6,0.15,8
0.6,0.3,8
0.6,0.45,8
0.6,0.6,8
0.6,0.75,7
0.6,0.9,6
0.6,1.05,7
0.6,1.2,7
0.6,1.35,7
0.6,1.5,7
0.75,-1.5,8
0.75,-1.35,8
0.75,-1.2,8
0.75,-1.05,8
0.75,-0.9,8
0.75,-0.75,8
0.75,-0.6,8
0.75,-0.45,8
0.75,-0.3,8
0.75,-0.15,8
0.75,0.0,8
0.75,0.15,8
0.75,0.3,8
0.75,0.45,8
0.75,0.6,8
0.75,0.75,8
0.75,0.9,7
0.75,1.05,8
0.75,1.2,8
0.75,1.35,8
0.75,1.5,8
0.9,-1.5,8
0.9,-1.35,8
0.9,-1.2,8
0.9,-1.05,8
0.9,-0.9,8
0.9,-0.75,8
0.9,-0.6,8
0.9,-0.45,8
0.9,-0.3,8
0.9,-0.15,8
0.9,0.0,8
0.9,0.15,8
0.9,0.3,8
0.9,0.45,8
0.9,0.6,8
0.9,0.75,8
0.9,0.9,8
0.9,1.05,8
0.9,1.2,8
0.9,1.35,8
0.9,1.5,8
1.05,-1.5,8
1.05,-1.35,8
1.05,-1.2,8
1.05,-1.05,8
1.05,-0.9,8
1.05,-0.75,8
1.05,-0.6,8
1.05,-0.45,8
1.05,-0.3,8
1.05,-0.15,8
1.05,0.0,8
1.05,0.15,8
1.05,0.3,8
1.05,0.45,8
1.05,0.6,8
1.05,0.75,8
1.05,0.9,8
1.05,1.05,8
1.05,1.2,8
1.05,1.35,8
1.05,1.5,8
1.2,-1.5,8
1.2,-1.35,8
1.2,-1.2,8
1.2,-1.05,8
1.2,-0.9,8
1.2,-0.75,8
1.2,-0.6,8
1.2,-0.45,8
1.2,-0.3,8
1.2,-0.15,8
1.2,0.0,8
1.2,0.15,8
1.2,0.3,8
1.2,0.45,8
1.2,0.6,8
1.2,0.75,8
1.2,0.9,8
1.2,1.05,8
1.2,1.2,8
1.2,1.35,8
1.2,1.5,8
1.35,-1.5,8
1.35,-1.35,8
1.35,-1.2,8
1.35,-1.05,8
1.35,-0.9,8
1.35,-0.75,8
1.35,-0.6,8
1.35,-0.45,8
1.35,-0.3,8
1.35,-0.15,8
1.35,0.0,8
1.35,0.15,8
1.35,0.3,8
1.35,0.45,8
1.35,0.6,8
1.35,0.75,8
1.35,0.9,8
1.35,1.05,8
1.35,1.2,8
1.35,1.35,8
1.35,1.5,8
1.5,-1.5,8
1.5,-1.35,8
1.5,-1.2,8
1.5,-1.05,8
1.5,-0.9,8
1.5,-0.75,8
1.5,-0.6,8
1.5,-0.45,8
1.5,-0.3,8
1.5,-0.15,8
1.5,0.0,8
1.5,0.15,8
1.5,0.3,8
1.5,0.45,8
1.5,0.6,8
1.5,0.75,8
1.5,0.9,8
1.5,1.05,8
1.5,1.2,8
1.5,1.35,8
1.5,1.5,8
1.65,-1.5,8
1.65,-1.35,8
1.65,-1.2,8
1.65,-1.05,8
1.65,-0.9,8
1.65,-0.75,8
1.65,-0.6,8
1.65,-0.45,8
1.65,-0.3,8
1.65,-0.15,8
1.65,0.0,8
1.65,0.15,8
1.65,0.3,8
1.65,0.45,8
1.65,0.6,8
1.65,0.75,8
1.65,0.9,8
1.65,1.05,8
1.65,1.2,8
1.65,1.35,8
1.65,1.5,8
1.8,-1.5,8
1.8,-1.35,8
1.8,-1.2,8
1.8,-1.05,8
1.8,-0.9,8
1.8,-0.75,8
1.8,-0.6,8
1.8,-0.45,8
1.8,-0.3,8
1.8,-0.15,8
1.8,0.0,8
1.8,0.15,8
1.8,0.3,8
1.8,0.45,8
1.8,0.6,8
1.8,0.75,8
1.8,0.9,8
1.8,1.05,8
1.8,1.2,8
1.8,1.35,8
1.8,1.5,8
1.95,-1.5,8
1.95,-1.35,8
1.95,-1.2,8
1.95,-1.05,8
1.95,-0.9,8
1.95,-0.75,8
1.95,-0.6,8
1.95,-0.45,8
1.95,-0.3,8
1.95,-0.15,8
1.95,0.0,8
1.95,0.15,8
1.95,0.3,8
1.95,0.45,8
1.95,0.6,8
1.95,0.75,8
1.95,0.9,8
1.95,1.05,8
1.95,1.2,8
1.95,1.35,8
1.95,1.5,8
2.1,-1.5,8
2.1,-1.35,8
2.1,-1.2,8
2.1,-1.05,8
2.1,-0.9,8
2.1,-0.75,8
2.1,-0.6,8
2.1,-0.45,8
2.1,-0.3,8
2.1,-0.15,8
2.1,0.0,8
2.1,0.15,8
2.1,0.3,8
2.1,0.45,8
2.1,0.6,8
2.1,0.75,8
2.1,0.9,8
2.1,1.05,8
2.1,1.2,8
2.1,1.35,8
2.1,1.5,8
2.25,-1.5,8
2.25,-1.35,8
2.25,-1.2,8
2.25,-1.05,8
2.25,-0.9,8
2.25,-0.75,8
2.25,-0.6,8
2.25,-0.45,8
2.25,-0.3,8
2.25,-0.15,8
2.25,0.0,8
2.25,0.15,8
2.25,0.3,8
2.25,0.45,8
2.25,0.6,8
2.25,0.75,8
2.25,0.9,8
2.25,1.05,8
2.25,1.2,8
2.25,1.35,8
2.25,1.5,8
2.4,-1.5,8
2.4,-1.35,8
2.4,-1.2,8
2.4,-1.05,8
2.4,-0.9,8
2.4,-0.75,8
2.4,-0.6,8
2.4,-0.45,8
2.4,-0.3,8
2.4,-0.15,8
2.4,0.0,8
2.4,0.15,8
2.4,0.3,8
2.4,0.45,8
2.4,0.6,8
2.4,0.75,8
2.4,0.9,8
2.4,1.05,8
2.4,1.2,8
2.4,1.35,8
2.4,1.5,8
2.55,-1.5,8
2.55,-1.35,8
2.55,-1.2,8
2.55,-1.05,8
2.55,-0.9,8
2.55,-0.75,8
2.55,-0.6,8
2.55,-0.45,8
2.55,-0.3,8
2.55,-0.15,8
2.55,0.0,8
2.55,0.15,8
2.55,0.3,8
2.55,0.45,8
2.55,0.6,8
2.55,0.75,8
2.55,0.9,8
2.55,1.05,8
2.55,1.2,8
2.55,1.35,8
2.55,1.5,8
2.7,-1.5,8
2.7,-1.35,8
2.7,-1.2,8
2.7,-1.05,8
2.7,-0.9,8
2.7,-0.75,8
2.7,-0.6,8
2.7,-0.45,8
2.7,-0.3,8
2.7,-0.15,8
2.7,0.0,8
2.7,0.15,8
2.7,0.3,8
2.7,0.45,8
2.7,0.6,8
2.7,0.75,8
2.7,0.9,8
2.7,1.05,8
2.7,1.2,8
2.7,1.35,8
2.7,1.5,8
2.85,-1.5,8
2.85,-1.35,8
2.85,-1.2,8
2.85,-1.05,8
2.85,-0.9,8
2.85,-0.75,8
2.85,-0.6,8
2.85,-0.45,8
2.85,-0.3,8
2.85,-0.15,8
2.85,0.0,8
2.85,0.15,8
2.85,0.3,8
2.85,0.45,8
2.85,0.6,8
2.85,0.75,8
2.85,0.9,8
2.85,1.05,8
2.85,1.2,8
2.85,1.35,8
2.85,1.5,8
3.0,-1.5,8
3.0,-1.35,8
3.0,-1.2,8
3.0,-1.05,8
3.0,-0.9,8
3.0,-0.75,8
3.0,-0.6,8
3.0,-0.45,8
3.0,-0.3,8
3.0,-0.15,8
3.0,0.0,8
3.0,0.15,8
3.0,0.3,8
3.0,0.45,8
3.0,0.6,8
3.0,0.75,8
3.0,0.9,8
3.0,1.05,8
3.0,1.2,8
3.0,1.35,8
3.0,1.5,8
3.15,-1.5,8
3.15,-1.35,8
3.15,-1.2,8
3.15,-1.05,8
3.15,-0.9,8
3.15,-0.75,8
3.15,-0.6,8
3.15,-0.45,8
3.15,-0.3,8
3.15,-0.15,8
3.15,0.0,8
3.15,0.15,8
3.15,0.3,8
3.15,0.45,8
3.15,0.6,8
3.15,0.75,8
3.15,0.9,8
3.15,1.05,8
3.15,1.2,8
3.15,1.35,8
3.15,1.5,8
3.3,-1.5,8
3.3,-1.35,8
3.3,-1.2,8
3.3,-1.05,8
3.3,-0.9,8
3.3,-0.75,8
3.3,-0.6,8
3.3,-0.45,8
3.3,-0.3,8
3.3,-0.15,8
3.3,0.0,8
3.3,0.15,8
3.3,0.3,8
3.3,0.45,8
3.3,0.6,8
3.3,0.75,8
3.3,0.9,8
3.3,1.05,8
3.3,1.2,8
3.3,1.35,8
3.3,1.5,8
3.45,-1.5,8
3.45,-1.35,8
3.45,-1.2,8
3.45,-1.05,8
3.45,-0.9,8
3.45,-0.75,8
3.45,-0.6,8
3.45,-0.45,8
3.45,-0.3,8
3.45,-0.15,8
3.45,0.0,8
3.45,0.15,8
3.45,0.3,8
3.45,0.45,8
3.45,0.6,8
3.45,0.75,8
3.45,0.9,8
3.45,1.05,8
3.45,1.2,8
3.45,1.35,8
3.45,1.5,8
3.6,-1.5,8
3.6,-1.35,8
3.6,-1.2,8
3.6,-1.05,8
3.6,-0.9,8
3.6,-0.75,8
3.6,-0.6,8
3.6,-0.45,8
3.6,-0.3,8
3.6,-0.15,8
3.6,0.0,8
3.6,0.15,8
3.6,0.3,8
3.6,0.45,8
3.6,0.6,8
3.6,0.75,8
3.6,0.9,8
3.6,1.05,8
3.6,1.2,8
3.6,1.35,8
3.6,1.5,8
3.75,-1.5,8
3.75,-1.35,8
3.75,-1.2,8
3.75,-1.05,8
3.75,-0.9,8
3.75,-0.75,8
3.75,-0.6,8
3.75,-0.45,8
3.75,-0.3,8
3.75,-0.15,8
3.75,0.0,8
3.75,0.15,8
3.75,0.3,8
3.75,0.45,8
3.75,0.6,8
3.75,0.75,8
3.75,0.9,8
3.75,1.05,8
3.75,1.2,8
3.75,1.35,8
3.75,1.5,8
3.9,-1.5,8
3.9,-1.35,8
3.9,-1.2,8
3.9,-1.05,8
3.9,-0.9,8
3.9,-0.75,8
3.9,-0.6,8
3.9,-0.45,8
3.9,-0.3,8
3.9,-0.15,8
3.9,0.0,8
3.9,0.15,8
3.9,0.3,8
3.9,0.45,8
3.9,0.6,8
3.9,0.75,8
3.9,0.9,8
3.9,1.05,8
3.9,1.2,8
3.9,1.35,8
3.9,1.5,8
4.05,-1.5,8
4.05,-1.35,8
4.05,-1.2,8
4.05,-1.05,8
4.05,-0.9,8
4.05,-0.75,8
4.05,-0.6,8
4.05,-0.45,8
4.05,-0.3,8
4.05,-0.15,8
4.05,0.0,8
4.05,0.15,8
4.05,0.3,8
4.05,0.45,8
4.05,0.6,8
4.05,0.75,8
4.05,0.9,8
4.05,1.05,8
4.05,1.2,8
4.05,1.35,8
4.05,1.5,8
4.2,-1.5,8
4.2,-1.35,8
4.2,-1.2,8
4.2,-1.05,8
4.2,-0.9,8
4.2,-0.75,8
4.2,-0.6,8
4.2,-0.45,8
4.2,-0.3,8
4.2,-0.15,8
4.2,0.0,8
4.2,0.15,8
4.2,0.3,8
4.2,0.45,8
4.2,0.6,8
4.2,0.75,8
4.2,0.9,8
4.2,1.05,8
4.2,1.2,8
4.2,1.35,8
4.2,1.5,8
4.35,-1.5,8
4.35,-1.35,8
4.35,-1.2,8
4.35,-1.05,8
4.35,-0.9,8
4.35,-0.75,8
4.35,-0.6,8
4.35,-0.45,8
4.35,-0.3,8
4.35,-0.15,8
4.35,0.0,8
4.35,0.15,8
4.35,0.3,8
4.35,0.45,8
4.35,0.6,8
4.35,0.75,8
4.35,0.9,8
4.35,1.05,8
4.35,1.2,8
4.35,1.35,8
4.35,1.5,8
4.5,-1.5,8
4.5,-1.35,8
4.5,-1.2,8
4.5,-1.05,8
4.5,-0.9,8
4.5,-0.75,8
4.5,-0.6,8
4.5,-0.45,8
4.5,-0.3,8
4.5,-0.15,8
4.5,0.0,8
4.5,0.15,8
4.5,0.3,8
4.5,0.45,8
4.5,0.6,8
4.5,0.75,8
4.5,0.9,8
4.5,1.05,8
4.5,1.2,8
4.5,1.35,8
4.5,1.5,8
4.65,-1.5,8
4.65,-1.35,8
4.65,-1.2,8
4.65,-1.05,8
4.65,-0.9,8
4.65,-0.75,8
4.65,-0.6,8
4.65,-0.45,8
4.65,-0.3,8
4.65,-0.15,8
4.65,0.0,8
4.65,0.15,8
4.65,0.3,8
4.65,0.45,8
4.65,0.6,8
4.65,0.75,8
4.65,0.9,8
4.65,1.05,8
4.65,1.2,8
4.65,1.35,8
4.65,1.5,8
4.8,-1.5,8
4.8,-1.35,8
4.8,-1.2,8
4.8,-1.05,8
4.8,-0.9,8
4.8,-0.75,8
4.8,-0.6,8
4.8,-0.45,8
4.8,-0.3,8
4.8,-0.15,8
4.8,0.0,8
4.8,0.15,8
4.8,0.3,8
4.8,0.45,8
4.8,0.6,8
4.8,0.75,8
4.8,0.9,8
4.8,1.05,8
4.8,1.2,8
4.8,1.35,8
4.8,1.5,8
4.95,-1.5,8
4.95,-1.35,8
4.95,-1.2,8
4.95,-1.05,8
4.95,-0.9,8
4.95,-0.75,8
4.95,-0.6,8
4.95,-0.45,9
4.95,-0.3,8
4.95,-0.15,8
4.95,0.0,8
4.95,0.15,8
4.95,0.3,8
4.95,0.45,8
4.95,0.6,8
4.95,0.75,8
4.95,0.9,8
4.95,1.05,8
4.95,1.2,9
4.95,1.35,9
4.95,1.5,9
5.1,-1.5,8
5.1,-1.35,8
5.1,-1.2,8
5.1,-1.05,8
5.1,-0.9,8
5.1,-0.75,8
5.1,-0.6,8
5.1,-0.45,8
5.1,-0.3,9
5.1,-0.15,9
5.1,0.0,9
5.1,0.15,9
5.1,0.3,8
5.1,0.45,8
5.1,0.6,9
5.1,0.75,8
5.1,0.9,8
5.1,1.05,9
5.1,1.2,9
5.1,1.35,9
5.1,1.5,9
5.25,-1.5,8
5.25,-1.35,8
5.25,-1.2,8
5.25,-1.05,8
5.25,-0.9,8
5.25,-0.75,9
5.25,-0.6,8
5.25,-0.45,8
5.25,-0.3,8
5.25,-0.15,8
5.25,0.0,8
5.25,0.15,8
5.25,0.3,9
5.25,0.45,9
5.25,0.6,9
5.25,0.75,9
5.25,0.9,9
5.25,1.05,9
5.25,1.2,9
5.25,1.35,9
5.25,1.5,9
5.4,-1.5,8
5.4,-1.35,8
5.4,-1.2,8
5.4,-1.05,8
5.4,-0.9,8
5.4,-0.75,9
5.4,-0.6,8
5.4,-0.45,9
5.4,-0.3,9
5.4,-0.15,9
5.4,0.0,9
5.4,0.15,9
5.4,0.3,8
5.4,0.45,9
5.4,0.6,9
5.4,0.75,9
5.4,0.9,9
5.4,1.05,9
5.4,1.2,9
5.4,1.35,9
5.4,1.5,9
5.55,-1.5,8
5.55,-1.35,8
5.55,-1.2,8
5.55,-1.05,8
5.55,-0.9,8
5.55,-0.75,9
5.55,-0.6,9
5.55,-0.45,9
5.55,-0.3,9
5.55,-0.15,9
5.55,0.0,9
5.55,0.15,9
5.55,0.3,9
5.55,0.45,8
5.55,0.6,9
5.55,0.75,9
5.55,0.9,9
5.55,1.05,9
5.55,1.2,9
5.55,1.35,9
5.55,1.5,9
5.7,-1.5,8
5.7,-1.35,8
5.7,-1.2,8
5.7,-1.05,8
5.7,-0.9,8
5.7,-0.75,9
5.7,-0.6,9
5.7,-0.45,9
5.7,-0.3,9
5.7,-0.15,9
5.7,0.0,9
5.7,0.15,9
5.7,0.3,9
5.7,0.45,8
5.7,0.6,8
5.7,0.75,8
5.7,0.9,9
5.7,1.05,9
5.7,1.2,9
5.7,1.35,9
5.7,1.5,9
5.85,-1.5,8
5.85,-1.35,8
5.85,-1.2,8
5.85,-1.05,8
5.85,-0.9,8
5.85,-0.75,9
5.85,-0.6,9
5.85,-0.45,9
5.85,-0.3,9
5.85,-0.15,9
5.85,0.0,8
5.85,0.15,8
5.85,0.3,9
5.85,0.45,9
5.85,0.6,8
5.85,0.75,8
5.85,0.9,8
5.85,1.05,9
5.85,1.2,9
5.85,1.35,9
5.85,1.5,9
6.0,-1.5,8
6.0,-1.35,8
6.0,-1.2,8
6.0,-1.05,8
6.0,-0.9,8
6.0,-0.75,8
6.0,-0.6,8
6.0,-0.45,8
6.0,-0.3,8
6.0,-0.15,9
6.0,0.0,9
6.0,0.15,9
6.0,0.3,8
6.0,0.45,9
6.0,0.6,9
6.0,0.75,8
6.0,0.9,8
6.0,1.05,8
6.0,1.2,9
6.0,1.35,9
6.0,1.5,10
6.15,-1.5,8
6.15,-1.35,8
6.15,-1.2,8
6.15,-1.05,8
6.15,-0.9,8
6.15,-0.75,8
6.15,-0.6,9
6.15,-0.45,8
6.15,-0.3,8
6.15,-0.15,9
6.15,0.0,8
6.15,0.15,8
6.15,0.3,8
6.15,0.45,9
6.15,0.6,10
6.15,0.75,9
6.15,0.9,9
6.15,1.05,9
6.15,1.2,9
6.15,1.35,10
6.15,1.5,10
6.3,-1.5,8
6.3,-1.35,8
6.3,-1.2,8
6.3,-1.05,8
6.3,-0.9,8
6.3,-0.75,9
6.3,-0.6,9
6.3,-0.45,8
6.3,-0.3,9
6.3,-0.15,9
6.3,0.0,9
6.3,0.15,8
6.3,0.3,8
6.3,0.45,8
6.3,0.6,10
6.3,0.75,11
6.3,0.9,12
6.3,1.05,10
6.3,1.2,9
6.3,1.35,10
6.3,1.5,10
6.45,-1.5,8
6.45,-1.35,8
6.45,-1.2,8
6.45,-1.05,8
6.45,-0.9,8
6.45,-0.75,8
6.45,-0.6,9
6.45,-0.45,9
6.45,-0.3,8
6.45,-0.15,9
6.45,0.0,8
6.45,0.15,8
6.45,0.3,8
6.45,0.45,8
6.45,0.6,11
6.45,0.75,14
6.45,0.9,15
6.45,1.05,12
6.45,1.2,9
6.45,1.35,10
6.45,1.5,10
6.6,-1.5,8
6.6,-1.35,8
6.6,-1.2,8
6.6,-1.05,8
6.6,-0.9,8
6.6,-0.75,8
6.6,-0.6,8
6.6,-0.45,9
6.6,-0.3,9
6.6,-0.15,8
6.6,0.0,9
6.6,0.15,9
6.6,0.3,9
6.6,0.45,9
6.6,0.6,11
6.6,0.75,14
6.6,0.9,16
6.6,1.05,13
6.6,1.2,10
6.6,1.35,10
6.6,1.5,10
6.75,-1.5,8
6.75,-1.35,8
6.75,-1.2,8
6.75,-1.05,8
6.75,-0.9,8
6.75,-0.75,9
6.75,-0.6,8
6.75,-0.45,8
6.75,-0.3,9
6.75,-0.15,9
6.75,0.0,8
6.75,0.15,9
6.75,0.3,10
6.75,0.45,10
6.75,0.6,11
6.75,0.75,14
6.75,0.9,16
6.75,1.05,14
6.75,1.2,10
6.75,1.35,10
6.75,1.5,11
6.9,-1.5,8
6.9,-1.35,8
6.9,-1.2,8
6.9,-1.05,8
6.9,-0.9,8
6.9,-0.75,8
6.9,-0.6,9
6.9,-0.45,8
6.9,-0.3,9
6.9,-0.15,9
6.9,0.0,8
6.9,0.15,8
6.9,0.3,8
6.9,0.45,9
6.9,0.6,12
6.9,0.75,14
6.9,0.9,16
6.9,1.05,16
6.9,1.2,17
6.9,1.35,18
6.9,1.5,20
7.05,-1.5,8
7.05,-1.35,8
7.05,-1.2,8
7.05,-1.05,8
7.05,-0.9,8
7.05,-0.75,8
7.05,-0.6,9
7.05,-0.45,9
7.05,-0.3,9
7.05,-0.15,9
7.05,0.0,8
7.05,0.15,9
7.05,0.3,10
7.05,0.45,10
7.05,0.6,12
7.05,0.75,13
7.05,0.9,13
7.05,1.05,21
7.05,1.2,30
7.05,1.35,36
7.05,1.5,41
7.2,-1.5,8
7.2,-1.35,8
7.2,-1.2,8
7.2,-1.05,8
7.2,-0.9,9
7.2,-0.75,9
7.2,-0.6,9
7.2,-0.45,8
7.2,-0.3,8
7.2,-0.15,9
7.2,0.0,8
7.2,0.15,9
7.2,0.3,10
7.2,0.45,11
7.2,0.6,12
7.2,0.75,12
7.2,0.9,12
7.2,1.05,25
7.2,1.2,42
7.2,1.35,50
7.2,1.5,58
7.35,-1.5,8
7.35,-1.35,8
7.35,-1.2,8
7.35,-1.05,8
7.35,-0.9,9
7.35,-0.75,9
7.35,-0.6,9
7.35,-0.45,8
7.35,-0.3,8
7.35,-0.15,9
7.35,0.0,9
7.35,0.15,8
7.35,0.3,8
7.35,0.45,10
7.35,0.6,11
7.35,0.75,11
7.35,0.9,14
7.35,1.05,55
7.35,1.2,97
7.35,1.35,113
7.35,1.5,129
7.5,-1.5,8
7.5,-1.35,8
7.5,-1.2,8
7.5,-1.05,8
7.5,-0.9,8
7.5,-0.75,9
7.5,-0.6,9
7.5,-0.45,9
7.5,-0.3,8
7.5,-0.15,9
7.5,0.0,8
7.5,0.15,8
7.5,0.3,9
7.5,0.45,9
7.5,0.6,8
7.5,0.75,9
7.5,0.9,14
7.5,1.05,74
7.5,1.2,132
7.5,1.35,150
7.5,1.5,168
7.65,-1.5,8
7.65,-1.35,8
7.65,-1.2,8
7.65,-1.05,8
7.65,-0.9,8
7.65,-0.75,8
7.65,-0.6,9
7.65,-0.45,8
7.65,-0.3,9
7.65,-0.15,8
7.65,0.0,9
7.65,0.15,8
7.65,0.3,8
7.65,0.45,8
7.65,0.6,8
7.65,0.75,8
7.65,0.9,12
7.65,1.05,78
7.65,1.2,138
7.65,1.35,156
7.65,1.5,174
7.8,-1.5,8
7.8,-1.35,8
7.8,-1.2,8
7.8,-1.05,8
7.8,-0.9,8
7.8,-0.75,8
7.8,-0.6,9
7.8,-0.45,9
7.8,-0.3,9
7.8,-0.15,9
7.8,0.0,9
7.8,0.15,9
7.8,0.3,8
7.8,0.45,8
7.8,0.6,8
7.8,0.75,8
7.8,0.9,12
7.8,1.05,82
7.8,1.2,146
7.8,1.35,163
7.8,1.5,181
7.95,-1.5,8
7.95,-1.35,8
7.95,-1.2,8
7.95,-1.05,8
7.95,-0.9,8
7.95,-0.75,9
7.95,-0.6,9
7.95,-0.45,9
7.95,-0.3,9
7.95,-0.15,9
7.95,0.0,9
7.95,0.15,8
7.95,0.3,8
7.95,0.45,8
7.95,0.6,8
7.95,0.75,8
7.95,0.9,14
7.95,1.05,108
7.95,1.2,198
7.95,1.35,226
7.95,1.5,254
8.1,-1.5,8
8.1,-1.35,8
8.1,-1.2,8
8.1,-1.05,8
8.1,-0.9,8
8.1,-0.75,9
8.1,-0.6,9
8.1,-0.45,9
8.1,-0.3,9
8.1,-0.15,9
8.1,0.0,8
8.1,0.15,8
8.1,0.3,8
8.1,0.45,9
8.1,0.6,10
8.1,0.75,12
8.1,0.9,18
8.1,1.05,136
8.1,1.2,255
8.1,1.35,255
8.1,1.5,255
8.25,-1.5,8
8.25,-1.35,8
8.25,-1.2,8
8.25,-1.05,8
8.25,-0.9,8
8.25,-0.75,8
8.25,-0.6,8
8.25,-0.45,8
8.25,-0.3,9
8.25,-0.15,9
8.25,0.0,9
8.25,0.15,8
8.25,0.3,8
8.25,0.45,9
8.25,0.6,13
8.25,0.75,30
8.25,0.9,49
8.25,1.05,142
8.25,1.2,236
8.25,1.35,255
8.25,1.5,255
8.4,-1.5,8
8.4,-1.35,8
8.4,-1.2,8
8.4,-1.05,8
8.4,-0.9,8
8.4,-0.75,8
8.4,-0.6,8
8.4,-0.45,9
8.4,-0.3,8
8.4,-0.15,9
8.4,0.0,8
8.4,0.15,8
8.4,0.3,9
8.4,0.45,9
8.4,0.6,13
8.4,0.75,65
8.4,0.9,116
8.4,1.05,153
8.4,1.2,189
8.4,1.35,216
8.4,1.5,244
8.55,-1.5,8
8.55,-1.35,8
8.55,-1.2,8
8.55,-1.05,8
8.55,-0.9,8
8.55,-0.75,8
8.55,-0.6,8
8.55,-0.45,9
8.55,-0.3,9
8.55,-0.15,9
8.55,0.0,9
8.55,0.15,9
8.55,0.3,9
8.55,0.45,9
8.55,0.6,12
8.55,0.75,63
8.55,0.9,113
8.55,1.05,147
8.55,1.2,180
8.55,1.35,206
8.55,1.5,231
8.7,-1.5,8
8.7,-1.35,8
8.7,-1.2,8
8.7,-1.05,8
8.7,-0.9,8
8.7,-0.75,9
8.7,-0.6,9
8.7,-0.45,8
8.7,-0.3,9
8.7,-0.15,8
8.7,0.0,9
8.7,0.15,9
8.7,0.3,9
8.7,0.45,9
8.7,0.6,10
8.7,0.75,25
8.7,0.9,42
8.7,1.05,110
8.7,1.2,178
8.7,1.35,204
8.7,1.5,230
8.85,-1.5,8
8.85,-1.35,8
8.85,-1.2,8
8.85,-1.05,8
8.85,-0.9,7
8.85,-0.75,8
8.85,-0.6,9
8.85,-0.45,8
8.85,-0.3,9
8.85,-0.15,8
8.85,0.0,8
8.85,0.15,9
8.85,0.3,9
8.85,0.45,9
8.85,0.6,9
8.85,0.75,9
8.85,0.9,12
8.85,1.05,91
8.85,1.2,170
8.85,1.35,196
8.85,1.5,221
9.0,-1.5,8
9.0,-1.35,8
9.0,-1.2,8
9.0,-1.05,8
9.0,-0.9,7
9.0,-0.75,8
9.0,-0.6,9
9.0,-0.45,9
9.0,-0.3,9
9.0,-0.15,8
9.0,0.0,8
9.0,0.15,9
9.0,0.3,9
9.0,0.45,9
9.0,0.6,9
9.0,0.75,9
9.0,0.9,10
9.0,1.05,45
9.0,1.2,79
9.0,1.35,91
9.0,1.5,102
9.15,-1.5,8
9.15,-1.35,8
9.15,-1.2,8
9.15,-1.05,7
9.15,-0.9,7
9.15,-0.75,9
9.15,-0.6,8
9.15,-0.45,8
9.15,-0.3,8
9.15,-0.15,9
9.15,0.0,9
9.15,0.15,9
9.15,0.3,9
9.15,0.45,9
9.15,0.6,9
9.15,0.75,9
9.15,0.9,9
9.15,1.05,11
9.15,1.2,11
9.15,1.35,11
9.15,1.5,12
9.3,-1.5,8
9.3,-1.35,8
9.3,-1.2,5
9.3,-1.05,4
9.3,-0.9,6
9.3,-0.75,8
9.3,-0.6,9
9.3,-0.45,8
9.3,-0.3,8
9.3,-0.15,8
9.3,0.0,8
9.3,0.15,9
9.3,0.3,9
9.3,0.45,9
9.3,0.6,9
9.3,0.75,9
9.3,0.9,10
9.3,1.05,10
9.3,1.2,11
9.3,1.35,10
9.3,1.5,10
9.45,-1.5,8
9.45,-1.35,7
9.45,-1.2,3
9.45,-1.05,1
9.45,-0.9,3
9.45,-0.75,6
9.45,-0.6,9
9.45,-0.45,9
9.45,-0.3,8
9.45,-0.15,8
9.45,0.0,8
9.45,0.15,9
9.45,0.3,9
9.45,0.45,9
9.45,0.6,9
9.45,0.75,10
9.45,0.9,10
9.45,1.05,10
9.45,1.2,10
9.45,1.35,9
9.45,1.5,9
9.6,-1.5,7
9.6,-1.35,6
9.6,-1.2,2
9.6,-1.05,0
9.6,-0.9,3
9.6,-0.75,6
9.6,-0.6,9
9.6,-0.45,8
9.6,-0.3,8
9.6,-0.15,9
9.6,0.0,9
9.6,0.15,9
9.6,0.3,9
9.6,0.45,9
9.6,0.6,9
9.6,0.75,9
9.6,0.9,9
9.6,1.05,9
9.6,1.2,9
9.6,1.35,9
9.6,1.5,9
9.75,-1.5,5
9.75,-1.35,4
9.75,-1.2,3
9.75,-1.05,2
9.75,-0.9,4
9.75,-0.75,7
9.75,-0.6,9
9.75,-0.45,8
9.75,-0.3,8
9.75,-0.15,9
9.75,0.0,9
9.75,0.15,9
9.75,0.3,9
9.75,0.45,9
9.75,0.6,9
9.75,0.75,9
9.75,0.9,9
9.75,1.05,9
9.75,1.2,9
9.75,1.35,9
9.75,1.5,9
9.9,-1.5,5
9.9,-1.35,5
9.9,-1.2,5
9.9,-1.05,6
9.9,-0.9,7
9.9,-0.75,8
9.9,-0.6,9
9.9,-0.45,9
9.9,-0.3,9
9.9,-0.15,9
9.9,0.0,9
9.9,0.15,9
9.9,0.3,9
9.9,0.45,9
9.9,0.6,9
9.9,0.75,9
9.9,0.9,9
9.9,1.05,9
9.9,1.2,9
9.9,1.35,9
9.9,1.5,9
10.05,-1.5,6
10.05,-1.35,6
10.05,-1.2,7
10.05,-1.05,8
10.05,-0.9,8
10.05,-0.75,9
10.05,-0.6,9
10.05,-0.45,9
10.05,-0.3,8
10.05,-0.15,9
10.05,0.0,9
10.05,0.15,9
10.05,0.3,9
10.05,0.45,9
10.05,0.6,9
10.05,0.75,9
10.05,0.9,9
10.05,1.05,9
10.05,1.2,9
10.05,1.35,9
10.05,1.5,9
10.2,-1.5,7
10.2,-1.35,8
10.2,-1.2,8
10.2,-1.05,8
10.2,-0.9,8
10.2,-0.75,9
10.2,-0.6,9
10.2,-0.45,8
10.2,-0.3,8
10.2,-0.15,8
10.2,0.0,9
10.2,0.15,9
10.2,0.3,9
10.2,0.45,9
10.2,0.6,9
10.2,0.75,9
10.2,0.9,9
10.2,1.05,9
10.2,1.2,9
10.2,1.35,9
10.2,1.5,9
10.35,-1.5,8
10.35,-1.35,8
10.35,-1.2,8
10.35,-1.05,8
10.35,-0.9,8
10.35,-0.75,9
10.35,-0.6,9
10.35,-0.45,9
10.35,-0.3,9
10.35,-0.15,8
10.35,0.0,8
10.35,0.15,9
10.35,0.3,9
10.35,0.45,9
10.35,0.6,9
10.35,0.75,9
10.35,0.9,9
10.35,1.05,9
10.35,1.2,9
10.35,1.35,9
10.35,1.5,9
10.5,-1.5,8
10.5,-1.35,8
10.5,-1.2,8
10.5,-1.05,8
10.5,-0.9,8
10.5,-0.75,8
10.5,-0.6,8
10.5,-0.45,8
10.5,-0.3,8
10.5,-0.15,8
10.5,0.0,8
10.5,0.15,8
10.5,0.3,9
10.5,0.45,9
10.5,0.6,9
10.5,0.75,9
10.5,0.9,9
10.5,1.05,9
10.5,1.2,9
10.5,1.35,9
10.5,1.5,9
10.65,-1.5,8
10.65,-1.35,8
10.65,-1.2,8
10.65,-1.05,8
10.65,-0.9,8
10.65,-0.75,8
10.65,-0.6,8
10.65,-0.45,9
10.65,-0.3,8
10.65,-0.15,8
10.65,0.0,8
10.65,0.15,8
10.65,0.3,9
10.65,0.45,9
10.65,0.6,9
10.65,0.75,9
10.65,0.9,9
10.65,1.05,9
10.65,1.2,9
10.65,1.35,9
10.65,1.5,9
10.8,-1.5,8
10.8,-1.35,8
10.8,-1.2,8
10.8,-1.05,8
10.8,-0.9,8
10.8,-0.75,8
10.8,-0.6,9
10.8,-0.45,9
10.8,-0.3,9
10.8,-0.15,8
10.8,0.0,8
10.8,0.15,9
10.8,0.3,9
10.8,0.45,9
10.8,0.6,9
10.8,0.75,9
10.8,0.9,9
10.8,1.05,9
10.8,1.2,9
10.8,1.35,9
10.8,1.5,9
10.95,-1.5,8
10.95,-1.35,8
10.95,-1.2,8
10.95,-1.05,8
10.95,-0.9,8
10.95,-0.75,8
10.95,-0.6,9
10.95,-0.45,9
10.95,-0.3,9
10.95,-0.15,9
10.95,0.0,9
10.95,0.15,9
10.95,0.3,9
10.95,0.45,9
10.95,0.6,9
10.95,0.75,9
10.95,0.9,9
10.95,1.05,9
10.95,1.2,9
10.95,1.35,9
10.95,1.5,9
11.1,-1.5,9
11.1,-1.35,9
11.1,-1.2,9
11.1,-1.05,9
11.1,-0.9,8
11.1,-0.75,8
11.1,-0.6,9
11.1,-0.45,9
11.1,-0.3,9
11.1,-0.15,9
11.1,0.0,9
11.1,0.15,9
11.1,0.3,9
11.1,0.45,9
11.1,0.6,9
11.1,0.75,9
11.1,0.9,9
11.1,1.05,9
11.1,1.2,9
11.1,1.35,9
11.1,1.5,9
11.25,-1.5,9
11.25,-1.35,9
11.25,-1.2,9
11.25,-1.05,9
11.25,-0.9,8
11.25,-0.75,8
11.25,-0.6,9
11.25,-0.45,9
11.25,-0.3,9
11.25,-0.15,9
11.25,0.0,9
11.25,0.15,9
11.25,0.3,9
11.25,0.45,9
11.25,0.6,9
11.25,0.75,9
11.25,0.9,9
11.25,1.05,9
11.25,1.2,9
11.25,1.35,9
11.25,1.5,9
11.4,-1.5,9
11.4,-1.35,9
11.4,-1.2,9
11.4,-1.05,9
11.4,-0.9,8
11.4,-0.75,8
11.4,-0.6,9
11.4,-0.45,9
11.4,-0.3,9
11.4,-0.15,9
11.4,0.0,9
11.4,0.15,9
11.4,0.3,9
11.4,0.45,9
11.4,0.6,9
11.4,0.75,9
11.4,0.9,9
11.4,1.05,9
11.4,1.2,9
11.4,1.35,9
11.4,1.5,9
11.55,-1.5,9
11.55,-1.35,9
11.55,-1.2,9
11.55,-1.05,9
11.55,-0.9,8
11.55,-0.75,8
11.55,-0.6,9
11.55,-0.45,9
11.55,-0.3,9
11.55,-0.15,9
11.55,0.0,9
11.55,0.15,9
11.55,0.3,9
11.55,0.45,9
11.55,0.6,9
11.55,0.75,9
11.55,0.9,9
11.55,1.05,9
11.55,1.2,9
11.55,1.35,9
11.55,1.5,9
11.7,-1.5,9
11.7,-1.35,9
11.7,-1.2,9
11.7,-1.05,9
11.7,-0.9,8
11.7,-0.75,9
11.7,-0.6,9
11.7,-0.45,9
11.7,-0.3,9
11.7,-0.15,9
11.7,0.0,9
11.7,0.15,9
11.7,0.3,9
11.7,0.45,9
11.7,0.6,9
11.7,0.75,9
11.7,0.9,9
11.7,1.05,9
11.7,1.2,9
11.7,1.35,9
11.7,1.5,9
11.85,-1.5,9
11.85,-1.35,9
11.85,-1.2,9
11.85,-1.05,9
11.85,-0.9,8
11.85,-0.75,9
11.85,-0.6,9
11.85,-0.45,9
11.85,-0.3,9
11.85,-0.15,9
11.85,0.0,9
11.85,0.15,9
11.85,0.3,9
11.85,0.45,9
11.85,0.6,9
11.85,0.75,9
11.85,0.9,9
11.85,1.05,9
11.85,1.2,9
11.85,1.35,9
11.85,1.5,9
12.0,-1.5,9
12.0,-1.35,9
12.0,-1.2,9
12.0,-1.05,9
12.0,-0.9,9
12.0,-0.75,8
12.0,-0.6,8
12.0,-0.45,9
12.0,-0.3,9
12.0,-0.15,9
12.0,0.0,9
12.0,0.15,9
12.0,0.3,9
12.0,0.45,9
12.0,0.6,9
12.0,0.75,9
12.0,0.9,9
12.0,1.05,9
12.0,1.2,9
12.0,1.35,9
12.0,1.5,9
12.15,-1.5,9
12.15,-1.35,9
12.15,-1.2,9
12.15,-1.05,9
12.15,-0.9,9
12.15,-0.75,9
12.15,-0.6,8
12.15,-0.45,9
12.15,-0.3,9
12.15,-0.15,9
12.15,0.0,9
12.15,0.15,9
12.15,0.3,9
12.15,0.45,9
12.15,0.6,9
12.15,0.75,9
12.15,0.9,9
12.15,1.05,9
12.15,1.2,9
12.15,1.35,9
12.15,1.5,9
12.3,-1.5,9
12.3,-1.35,9
12.3,-1.2,9
12.3,-1.05,9
12.3,-0.9,9
12.3,-0.75,9
12.3,-0.6,9
12.3,-0.45,9
12.3,-0.3,9
12.3,-0.15,9
12.3,0.0,9
12.3,0.15,9
12.3,0.3,9
12.3,0.45,9
12.3,0.6,9
12.3,0.75,9
12.3,0.9,9
12.3,1.05,9
12.3,1.2,9
12.3,1.35,9
12.3,1.5,9
12.45,-1.5,9
12.45,-1.35,9
12.45,-1.2,9
12.45,-1.05,9
12.45,-0.9,9
12.45,-0.75,9
12.45,-0.6,9
12.45,-0.45,9
12.45,-0.3,9
12.45,-0.15,9
12.45,0.0,9
12.45,0.15,9
12.45,0.3,9
12.45,0.45,9
12.45,0.6,9
12.45,0.75,9
12.45,0.9,9
12.45,1.05,9
12.45,1.2,9
12.45,1.35,9
12.45,1.5,9
12.6,-1.5,9
12.6,-1.35,9
12.6,-1.2,9
12.6,-1.05,9
12.6,-0.9,9
12.6,-0.75,9
12.6,-0.6,9
12.6,-0.45,9
12.6,-0.3,9
12.6,-0.15,9
12.6,0.0,9
12.6,0.15,9
12.6,0.3,9
12.6,0.45,9
12.6,0.6,9
12.6,0.75,9
12.6,0.9,9
12.6,1.05,9
12.6,1.2,9
12.6,1.35,9
12.6,1.5,9
12.75,-1.5,9
12.75,-1.35,9
12.75,-1.2,9
12.75,-1.05,9
12.75,-0.9,9
12.75,-0.75,9
12.75,-0.6,9
12.75,-0.45,9
12.75,-0.3,9
12.75,-0.15,9
12.75,0.0,9
12.75,0.15,9
12.75,0.3,9
12.75,0.45,9
12.75,0.6,9
12.75,0.75,9
12.75,0.9,9
12.75,1.05,9
12.75,1.2,9
12.75,1.35,9
12.75,1.5,9
12.9,-1.5,9
12.9,-1.35,9
12.9,-1.2,9
12.9,-1.05,9
12.9,-0.9,9
12.9,-0.75,9
12.9,-0.6,9
12.9,-0.45,9
12.9,-0.3,9
12.9,-0.15,9
12.9,0.0,9
12.9,0.15,9
12.9,0.3,9
12.9,0.45,9
12.9,0.6,9
12.9,0.75,9
12.9,0.9,9
12.9,1.05,9
12.9,1.2,9
12.9,1.35,9
12.9,1.5,9
13.05,-1.5,9
13.05,-1.35,9
13.05,-1.2,9
13.05,-1.05,9
13.05,-0.9,9
13.05,-0.75,9
13.05,-0.6,9
13.05,-0.45,9
13.05,-0.3,9
13.05,-0.15,9
13.05,0.0,9
13.05,0.15,9
13.05,0.3,9
13.05,0.45,9
13.05,0.6,9
13.05,0.75,9
13.05,0.9,9
13.05,1.05,9
13.05,1.2,9
13.05,1.35,9
13.05,1.5,9
