-3.0,-1.5,80
-3.0,-1.35,80
-3.0,-1.2,80
-3.0,-1.05,80
-3.0,-0.9,80
-3.0,-0.75,80
-3.0,-0.6,80
-3.0,-0.45,80
-3.0,-0.3,79
-3.0,-0.15,78
-3.0,0.0,73
-3.0,0.15,75
-3.0,0.3,76
-3.0,0.45,79
-3.0,0.6,81
-3.0,0.75,83
-3.0,0.9,84
-3.0,1.05,85
-3.0,1.2,86
-3.0,1.35,86
-3.0,1.5,86
-2.85,-1.5,80
-2.85,-1.35,80
-2.85,-1.2,80
-2.85,-1.05,80
-2.85,-0.9,80
-2.85,-0.75,80
-2.85,-0.6,80
-2.85,-0.45,80
-2.85,-0.3,79
-2.85,-0.15,78
-2.85,0.0,76
-2.85,0.15,79
-2.85,0.3,81
-2.85,0.45,84
-2.85,0.6,86
-2.85,0.75,87
-2.85,0.9,88
-2.85,1.05,89
-2.85,1.2,89
-2.85,1.35,89
-2.85,1.5,89
-2.7,-1.5,80
-2.7,-1.35,80
-2.7,-1.2,80
-2.7,-1.05,80
-2.7,-0.9,80
-2.7,-0.75,80
-2.7,-0.6,80
-2.7,-0.45,80
-2.7,-0.3,80
-2.7,-0.15,80
-2.7,0.0,80
-2.7,0.15,83
-2.7,0.3,86
-2.7,0.45,89
-2.7,0.6,91
-2.7,0.75,92
-2.7,0.9,92
-2.7,1.05,92
-2.7,1.2,92
-2.7,1.35,92
-2.7,1.5,91
-2.55,-1.5,80
-2.55,-1.35,80
-2.55,-1.2,80
-2.55,-1.05,80
-2.55,-0.9,80
-2.55,-0.75,80
-2.55,-0.6,80
-2.55,-0.45,80
-2.55,-0.3,80
-2.55,-0.15,81
-2.55,0.0,84
-2.55,0.15,87
-2.55,0.3,91
-2.55,0.45,94
-2.55,0.6,95
-2.55,0.75,95
-2.55,0.9,96
-2.55,1.05,95
-2.55,1.2,95
-2.55,1.35,94
-2.55,1.5,93
-2.4,-1.5,80
-2.4,-1.35,80
-2.4,-1.2,80
-2.4,-1.05,80
-2.4,-0.9,80
-2.4,-0.75,80
-2.4,-0.6,81
-2.4,-0.45,81
-2.4,-0.3,80
-2.4,-0.15,83
-2.4,0.0,87
-2.4,0.15,91
-2.4,0.3,95
-2.4,0.45,98
-2.4,0.6,98
-2.4,0.75,98
-2.4,0.9,98
-2.4,1.05,97
-2.4,1.2,96
-2.4,1.35,95
-2.4,1.5,95
-2.25,-1.5,80
-2.25,-1.35,80
-2.25,-1.2,80
-2.25,-1.05,80
-2.25,-0.9,80
-2.25,-0.75,80
-2.25,-0.6,81
-2.25,-0.45,82
-2.25,-0.3,82
-2.25,-0.15,86
-2.25,0.0,89
-2.25,0.15,93
-2.25,0.3,97
-2.25,0.45,98
-2.25,0.6,98
-2.25,0.75,98
-2.25,0.9,98
-2.25,1.05,98
-2.25,1.2,97
-2.25,1.35,97
-2.25,1.5,96
-2.1,-1.5,80
-2.1,-1.35,80
-2.1,-1.2,80
-2.1,-1.05,80
-2.1,-0.9,80
-2.1,-0.75,80
-2.1,-0.6,81
-2.1,-0.45,83
-2.1,-0.3,84
-2.1,-0.15,86
-2.1,0.0,89
-2.1,0.15,92
-2.1,0.3,96
-2.1,0.45,98
-2.1,0.6,98
-2.1,0.75,98
-2.1,0.9,98
-2.1,1.05,98
-2.1,1.2,98
-2.1,1.35,98
-2.1,1.5,97
-1.95,-1.5,80
-1.95,-1.35,80
-1.95,-1.2,80
-1.95,-1.05,80
-1.95,-0.9,80
-1.95,-0.75,80
-1.95,-0.6,82
-1.95,-0.45,85
-1.95,-0.3,86
-1.95,-0.15,87
-1.95,0.0,87
-1.95,0.15,89
-1.95,0.3,93
-1.95,0.45,96
-1.95,0.6,98
-1.95,0.75,98
-1.95,0.9,98
-1.95,1.05,98
-1.95,1.2,98
-1.95,1.35,98
-1.95,1.5,98
-1.8,-1.5,80
-1.8,-1.35,80
-1.8,-1.2,80
-1.8,-1.05,80
-1.8,-0.9,80
-1.8,-0.75,80
-1.8,-0.6,84
-1.8,-0.45,88
-1.8,-0.3,89
-1.8,-0.15,87
-1.8,0.0,86
-1.8,0.15,87
-1.8,0.3,91
-1.8,0.45,95
-1.8,0.6,97
-1.8,0.75,98
-1.8,0.9,98
-1.8,1.05,98
-1.8,1.2,98
-1.8,1.35,98
-1.8,1.5,98
-1.65,-1.5,80
-1.65,-1.35,80
-1.65,-1.2,80
-1.65,-1.05,80
-1.65,-0.9,80
-1.65,-0.75,80
-1.65,-0.6,87
-1.65,-0.45,93
-1.65,-0.3,93
-1.65,-0.15,90
-1.65,0.0,87
-1.65,0.15,86
-1.65,0.3,88
-1.65,0.45,91
-1.65,0.6,94
-1.65,0.75,96
-1.65,0.9,97
-1.65,1.05,98
-1.65,1.2,99
-1.65,1.35,100
-1.65,1.5,101
-1.5,-1.5,83
-1.5,-1.35,81
-1.5,-1.2,80
-1.5,-1.05,80
-1.5,-0.9,80
-1.5,-0.75,80
-1.5,-0.6,89
-1.5,-0.45,94
-1.5,-0.3,94
-1.5,-0.15,92
-1.5,0.0,88
-1.5,0.15,86
-1.5,0.3,86
-1.5,0.45,89
-1.5,0.6,92
-1.5,0.75,94
-1.5,0.9,96
-1.5,1.05,98
-1.5,1.2,100
-1.5,1.35,102
-1.5,1.5,104
-1.35,-1.5,84
-1.35,-1.35,82
-1.35,-1.2,80
-1.35,-1.05,80
-1.35,-0.9,80
-1.35,-0.75,81
-1.35,-0.6,89
-1.35,-0.45,94
-1.35,-0.3,94
-1.35,-0.15,93
-1.35,0.0,89
-1.35,0.15,86
-1.35,0.3,86
-1.35,0.45,88
-1.35,0.6,90
-1.35,0.75,92
-1.35,0.9,95
-1.35,1.05,97
-1.35,1.2,100
-1.35,1.35,102
-1.35,1.5,105
-1.2,-1.5,86
-1.2,-1.35,85
-1.2,-1.2,83
-1.2,-1.05,82
-1.2,-0.9,81
-1.2,-0.75,83
-1.2,-0.6,88
-1.2,-0.45,94
-1.2,-0.3,94
-1.2,-0.15,93
-1.2,0.0,88
-1.2,0.15,86
-1.2,0.3,86
-1.2,0.45,87
-1.2,0.6,89
-1.2,0.75,91
-1.2,0.9,94
-1.2,1.05,96
-1.2,1.2,101
-1.2,1.35,104
-1.2,1.5,107
-1.05,-1.5,88
-1.05,-1.35,87
-1.05,-1.2,87
-1.05,-1.05,86
-1.05,-0.9,85
-1.05,-0.75,86
-1.05,-0.6,89
-1.05,-0.45,92
-1.05,-0.3,94
-1.05,-0.15,92
-1.05,0.0,88
-1.05,0.15,86
-1.05,0.3,86
-1.05,0.45,86
-1.05,0.6,88
-1.05,0.75,90
-1.05,0.9,92
-1.05,1.05,95
-1.05,1.2,98
-1.05,1.35,100
-1.05,1.5,102
-0.9,-1.5,89
-0.9,-1.35,89
-0.9,-1.2,89
-0.9,-1.05,89
-0.9,-0.9,89
-0.9,-0.75,90
-0.9,-0.6,92
-0.9,-0.45,94
-0.9,-0.3,96
-0.9,-0.15,94
-0.9,0.0,90
-0.9,0.15,87
-0.9,0.3,86
-0.9,0.45,86
-0.9,0.6,88
-0.9,0.75,90
-0.9,0.9,92
-0.9,1.05,93
-0.9,1.2,93
-0.9,1.35,93
-0.9,1.5,94
-0.75,-1.5,89
-0.75,-1.35,90
-0.75,-1.2,90
-0.75,-1.05,90
-0.75,-0.9,90
-0.75,-0.75,91
-0.75,-0.6,93
-0.75,-0.45,95
-0.75,-0.3,97
-0.75,-0.15,95
-0.75,0.0,91
-0.75,0.15,87
-0.75,0.3,86
-0.75,0.45,86
-0.75,0.6,87
-0.75,0.75,88
-0.75,0.9,88
-0.75,1.05,90
-0.75,1.2,92
-0.75,1.35,93
-0.75,1.5,94
-0.6,-1.5,89
-0.6,-1.35,90
-0.6,-1.2,90
-0.6,-1.05,89
-0.6,-0.9,90
-0.6,-0.75,91
-0.6,-0.6,93
-0.6,-0.45,94
-0.6,-0.3,95
-0.6,-0.15,93
-0.6,0.0,90
-0.6,0.15,88
-0.6,0.3,87
-0.6,0.45,86
-0.6,0.6,82
-0.6,0.75,80
-0.6,0.9,77
-0.6,1.05,81
-0.6,1.2,92
-0.6,1.35,94
-0.6,1.5,96
-0.45,-1.5,88
-0.45,-1.35,89
-0.45,-1.2,89
-0.45,-1.05,88
-0.45,-0.9,89
-0.45,-0.75,89
-0.45,-0.6,90
-0.45,-0.45,91
-0.45,-0.3,91
-0.45,-0.15,91
-0.45,0.0,90
-0.45,0.15,88
-0.45,0.3,87
-0.45,0.45,84
-0.45,0.6,77
-0.45,0.75,75
-0.45,0.9,76
-0.45,1.05,81
-0.45,1.2,94
-0.45,1.35,96
-0.45,1.5,98
-0.3,-1.5,87
-0.3,-1.35,88
-0.3,-1.2,87
-0.3,-1.05,87
-0.3,-0.9,88
-0.3,-0.75,88
-0.3,-0.6,89
-0.3,-0.45,88
-0.3,-0.3,87
-0.3,-0.15,88
-0.3,0.0,88
-0.3,0.15,88
-0.3,0.3,84
-0.3,0.45,78
-0.3,0.6,71
-0.3,0.75,70
-0.3,0.9,82
-0.3,1.05,88
-0.3,1.2,98
-0.3,1.35,101
-0.3,1.5,104
-0.15,-1.5,87
-0.15,-1.35,87
-0.15,-1.2,87
-0.15,-1.05,88
-0.15,-0.9,89
-0.15,-0.75,89
-0.15,-0.6,89
-0.15,-0.45,87
-0.15,-0.3,86
-0.15,-0.15,86
-0.15,0.0,86
-0.15,0.15,86
-0.15,0.3,81
-0.15,0.45,76
-0.15,0.6,72
-0.15,0.75,73
-0.15,0.9,85
-0.15,1.05,92
-0.15,1.2,105
-0.15,1.35,108
-0.15,1.5,111
0.0,-1.5,87
0.0,-1.35,87
0.0,-1.2,87
0.0,-1.05,88
0.0,-0.9,89
0.0,-0.75,89
0.0,-0.6,89
0.0,-0.45,86
0.0,-0.3,86
0.0,-0.15,86
0.0,0.0,86
0.0,0.15,86
0.0,0.3,81
0.0,0.45,76
0.0,0.6,81
0.0,0.75,85
0.0,0.9,91
0.0,1.05,101
0.0,1.2,118
0.0,1.35,122
0.0,1.5,127
0.15,-1.5,88
0.15,-1.35,88
0.15,-1.2,87
0.15,-1.05,87
0.15,-0.9,88
0.15,-0.75,88
0.15,-0.6,88
0.15,-0.45,86
0.15,-0.3,86
0.15,-0.15,88
0.15,0.0,89
0.15,0.15,89
0.15,0.3,81
0.15,0.45,78
0.15,0.6,87
0.15,0.75,92
0.15,0.9,98
0.15,1.05,106
0.15,1.2,116
0.15,1.35,120
0.15,1.5,123
0.3,-1.5,90
0.3,-1.35,90
0.3,-1.2,89
0.3,-1.05,88
0.3,-0.9,86
0.3,-0.75,86
0.3,-0.6,86
0.3,-0.45,87
0.3,-0.3,86
0.3,-0.15,86
0.3,0.0,89
0.3,0.15,89
0.3,0.3,85
0.3,0.45,89
0.3,0.6,94
0.3,0.75,100
0.3,0.9,111
0.3,1.05,111
0.3,1.2,101
0.3,1.35,99
0.3,1.5,98
0.45,-1.5,92
0.45,-1.35,92
0.45,-1.2,91
0.45,-1.05,89
0.45,-0.9,86
0.45,-0.75,86
0.45,-0.6,86
0.45,-0.45,87
0.45,-0.3,88
0.45,-0.15,86
0.45,0.0,88
0.45,0.15,88
0.45,0.3,91
0.45,0.45,96
0.45,0.6,98
0.45,0.75,102
0.45,0.9,111
0.45,1.05,108
0.45,1.2,97
0.45,1.35,94
0.45,1.5,92
0.6,-1.5,92
0.6,-1.35,92
0.6,-1.2,93
0.6,-1.05,93
0.6,-0.9,86
0.6,-0.75,86
0.6,-0.6,86
0.6,-0.45,86
0.6,-0.3,88
0.6,-0.15,87
0.6,0.0,88
0.6,0.15,88
0.6,0.3,92
0.6,0.45,98
0.6,0.6,96
0.6,0.75,96
0.6,0.9,97
0.6,1.05,96
0.6,1.2,95
0.6,1.35,93
0.6,1.5,92
0.75,-1.5,92
0.75,-1.35,93
0.75,-1.2,96
0.75,-1.05,96
0.75,-0.9,89
0.75,-0.75,86
0.75,-0.6,86
0.75,-0.45,86
0.75,-0.3,87
0.75,-0.15,88
0.75,0.0,88
0.75,0.15,86
0.75,0.3,88
0.75,0.45,94
0.75,0.6,91
0.75,0.75,91
0.75,0.9,91
0.75,1.05,91
0.75,1.2,92
0.75,1.35,92
0.75,1.5,92
0.9,-1.5,93
0.9,-1.35,95
0.9,-1.2,99
0.9,-1.05,99
0.9,-0.9,94
0.9,-0.75,90
0.9,-0.6,89
0.9,-0.45,88
0.9,-0.3,87
0.9,-0.15,88
0.9,0.0,88
0.9,0.15,87
0.9,0.3,84
0.9,0.45,85
0.9,0.6,87
0.9,0.75,89
0.9,0.9,87
0.9,1.05,89
0.9,1.2,94
0.9,1.35,95
0.9,1.5,95
1.05,-1.5,94
1.05,-1.35,95
1.05,-1.2,98
1.05,-1.05,98
1.05,-0.9,95
1.05,-0.75,92
1.05,-0.6,90
1.05,-0.45,89
1.05,-0.3,86
1.05,-0.15,86
1.05,0.0,86
1.05,0.15,86
1.05,0.3,85
1.05,0.45,83
1.05,0.6,83
1.05,0.75,84
1.05,0.9,82
1.05,1.05,86
1.05,1.2,94
1.05,1.35,95
1.05,1.5,96
1.2,-1.5,97
1.2,-1.35,97
1.2,-1.2,97
1.2,-1.05,95
1.2,-0.9,90
1.2,-0.75,87
1.2,-0.6,87
1.2,-0.45,89
1.2,-0.3,89
1.2,-0.15,86
1.2,0.0,87
1.2,0.15,88
1.2,0.3,86
1.2,0.45,82
1.2,0.6,82
1.2,0.75,82
1.2,0.9,82
1.2,1.05,85
1.2,1.2,95
1.2,1.35,98
1.2,1.5,100
1.35,-1.5,95
1.35,-1.35,94
1.35,-1.2,92
1.35,-1.05,90
1.35,-0.9,86
1.35,-0.75,84
1.35,-0.6,85
1.35,-0.45,89
1.35,-0.3,89
1.35,-0.15,86
1.35,0.0,86
1.35,0.15,88
1.35,0.3,86
1.35,0.45,83
1.35,0.6,82
1.35,0.75,82
1.35,0.9,82
1.35,1.05,85
1.35,1.2,95
1.35,1.35,98
1.35,1.5,100
1.5,-1.5,94
1.5,-1.35,91
1.5,-1.2,88
1.5,-1.05,86
1.5,-0.9,84
1.5,-0.75,87
1.5,-0.6,89
1.5,-0.45,89
1.5,-0.3,87
1.5,-0.15,86
1.5,0.0,87
1.5,0.15,88
1.5,0.3,88
1.5,0.45,85
1.5,0.6,82
1.5,0.75,82
1.5,0.9,83
1.5,1.05,88
1.5,1.2,95
1.5,1.35,97
1.5,1.5,99
1.65,-1.5,92
1.65,-1.35,89
1.65,-1.2,84
1.65,-1.05,82
1.65,-0.9,81
1.65,-0.75,86
1.65,-0.6,89
1.65,-0.45,89
1.65,-0.3,88
1.65,-0.15,88
1.65,0.0,88
1.65,0.15,87
1.65,0.3,86
1.65,0.45,85
1.65,0.6,83
1.65,0.75,82
1.65,0.9,84
1.65,1.05,88
1.65,1.2,93
1.65,1.35,95
1.65,1.5,96
1.8,-1.5,91
1.8,-1.35,88
1.8,-1.2,81
1.8,-1.05,80
1.8,-0.9,74
1.8,-0.75,76
1.8,-0.6,84
1.8,-0.45,84
1.8,-0.3,86
1.8,-0.15,88
1.8,0.0,88
1.8,0.15,88
1.8,0.3,86
1.8,0.45,86
1.8,0.6,86
1.8,0.75,85
1.8,0.9,82
1.8,1.05,81
1.8,1.2,81
1.8,1.35,80
1.8,1.5,78
1.95,-1.5,90
1.95,-1.35,87
1.95,-1.2,82
1.95,-1.05,81
1.95,-0.9,72
1.95,-0.75,72
1.95,-0.6,78
1.95,-0.45,87
1.95,-0.3,87
1.95,-0.15,86
1.95,0.0,88
1.95,0.15,86
1.95,0.3,87
1.95,0.45,86
1.95,0.6,87
1.95,0.75,87
1.95,0.9,83
1.95,1.05,80
1.95,1.2,77
1.95,1.35,74
1.95,1.5,72
2.1,-1.5,86
2.1,-1.35,87
2.1,-1.2,86
2.1,-1.05,84
2.1,-0.9,76
2.1,-0.75,74
2.1,-0.6,78
2.1,-0.45,87
2.1,-0.3,87
2.1,-0.15,86
2.1,0.0,88
2.1,0.15,86
2.1,0.3,86
2.1,0.45,86
2.1,0.6,87
2.1,0.75,87
2.1,0.9,81
2.1,1.05,78
2.1,1.2,77
2.1,1.35,74
2.1,1.5,72
2.25,-1.5,83
2.25,-1.35,87
2.25,-1.2,89
2.25,-1.05,87
2.25,-0.9,79
2.25,-0.75,79
2.25,-0.6,83
2.25,-0.45,87
2.25,-0.3,86
2.25,-0.15,87
2.25,0.0,86
2.25,0.15,86
2.25,0.3,87
2.25,0.45,88
2.25,0.6,91
2.25,0.75,90
2.25,0.9,82
2.25,1.05,78
2.25,1.2,76
2.25,1.35,73
2.25,1.5,71
2.4,-1.5,68
2.4,-1.35,80
2.4,-1.2,92
2.4,-1.05,93
2.4,-0.9,87
2.4,-0.75,86
2.4,-0.6,87
2.4,-0.45,88
2.4,-0.3,87
2.4,-0.15,87
2.4,0.0,86
2.4,0.15,86
2.4,0.3,87
2.4,0.45,93
2.4,0.6,93
2.4,0.75,89
2.4,0.9,83
2.4,1.05,78
2.4,1.2,75
2.4,1.35,72
2.4,1.5,69
2.55,-1.5,60
2.55,-1.35,76
2.55,-1.2,92
2.55,-1.05,94
2.55,-0.9,93
2.55,-0.75,91
2.55,-0.6,89
2.55,-0.45,90
2.55,-0.3,87
2.55,-0.15,88
2.55,0.0,91
2.55,0.15,91
2.55,0.3,92
2.55,0.45,93
2.55,0.6,93
2.55,0.75,89
2.55,0.9,83
2.55,1.05,78
2.55,1.2,74
2.55,1.35,72
2.55,1.5,70
2.7,-1.5,121
2.7,-1.35,118
2.7,-1.2,94
2.7,-1.05,92
2.7,-0.9,94
2.7,-0.75,94
2.7,-0.6,105
2.7,-0.45,119
2.7,-0.3,87
2.7,-0.15,89
2.7,0.0,87
2.7,0.15,87
2.7,0.3,87
2.7,0.45,90
2.7,0.6,93
2.7,0.75,93
2.7,0.9,87
2.7,1.05,84
2.7,1.2,85
2.7,1.35,87
2.7,1.5,88
2.85,-1.5,158
2.85,-1.35,145
2.85,-1.2,88
2.85,-1.05,74
2.85,-0.9,87
2.85,-0.75,87
2.85,-0.6,93
2.85,-0.45,64
2.85,-0.3,66
2.85,-0.15,87
2.85,0.0,89
2.85,0.15,89
2.85,0.3,86
2.85,0.45,86
2.85,0.6,90
2.85,0.75,93
2.85,0.9,91
2.85,1.05,90
2.85,1.2,92
2.85,1.35,95
2.85,1.5,99
3.0,-1.5,162
3.0,-1.35,148
3.0,-1.2,88
3.0,-1.05,76
3.0,-0.9,88
3.0,-0.75,88
3.0,-0.6,86
3.0,-0.45,87
3.0,-0.3,134
3.0,-0.15,85
3.0,0.0,85
3.0,0.15,88
3.0,0.3,88
3.0,0.45,82
3.0,0.6,89
3.0,0.75,95
3.0,0.9,103
3.0,1.05,101
3.0,1.2,94
3.0,1.35,97
3.0,1.5,100
3.15,-1.5,166
3.15,-1.35,151
3.15,-1.2,96
3.15,-1.05,90
3.15,-0.9,103
3.15,-0.75,109
3.15,-0.6,110
3.15,-0.45,83
3.15,-0.3,89
3.15,-0.15,85
3.15,0.0,86
3.15,0.15,85
3.15,0.3,87
3.15,0.45,78
3.15,0.6,91
3.15,0.75,100
3.15,0.9,112
3.15,1.05,108
3.15,1.2,98
3.15,1.35,101
3.15,1.5,103
3.3,-1.5,157
3.3,-1.35,145
3.3,-1.2,102
3.3,-1.05,92
3.3,-0.9,113
3.3,-0.75,117
3.3,-0.6,94
3.3,-0.45,83
3.3,-0.3,93
3.3,-0.15,85
3.3,0.0,89
3.3,0.15,85
3.3,0.3,86
3.3,0.45,89
3.3,0.6,98
3.3,0.75,103
3.3,0.9,112
3.3,1.05,111
3.3,1.2,106
3.3,1.35,110
3.3,1.5,114
3.45,-1.5,136
3.45,-1.35,127
3.45,-1.2,98
3.45,-1.05,84
3.45,-0.9,87
3.45,-0.75,85
3.45,-0.6,83
3.45,-0.45,93
3.45,-0.3,88
3.45,-0.15,93
3.45,0.0,87
3.45,0.15,89
3.45,0.3,86
3.45,0.45,97
3.45,0.6,105
3.45,0.75,107
3.45,0.9,112
3.45,1.05,112
3.45,1.2,112
3.45,1.35,117
3.45,1.5,121
3.6,-1.5,65
3.6,-1.35,74
3.6,-1.2,94
3.6,-1.05,87
3.6,-0.9,68
3.6,-0.75,66
3.6,-0.6,83
3.6,-0.45,81
3.6,-0.3,89
3.6,-0.15,81
3.6,0.0,86
3.6,0.15,90
3.6,0.3,95
3.6,0.45,93
3.6,0.6,101
3.6,0.75,103
3.6,0.9,95
3.6,1.05,94
3.6,1.2,104
3.6,1.35,106
3.6,1.5,108
3.75,-1.5,42
3.75,-1.35,59
3.75,-1.2,90
3.75,-1.05,86
3.75,-0.9,66
3.75,-0.75,64
3.75,-0.6,84
3.75,-0.45,112
3.75,-0.3,81
3.75,-0.15,91
3.75,0.0,81
3.75,0.15,90
3.75,0.3,90
3.75,0.45,86
3.75,0.6,94
3.75,0.75,99
3.75,0.9,82
3.75,1.05,80
3.75,1.2,93
3.75,1.35,92
3.75,1.5,91
3.9,-1.5,68
3.9,-1.35,76
3.9,-1.2,90
3.9,-1.05,90
3.9,-0.9,83
3.9,-0.75,80
3.9,-0.6,79
3.9,-0.45,98
3.9,-0.3,91
3.9,-0.15,87
3.9,0.0,71
3.9,0.15,89
3.9,0.3,86
3.9,0.45,86
3.9,0.6,90
3.9,0.75,91
3.9,0.9,83
3.9,1.05,80
3.9,1.2,83
3.9,1.35,80
3.9,1.5,76
4.05,-1.5,80
4.05,-1.35,82
4.05,-1.2,88
4.05,-1.05,84
4.05,-0.9,84
4.05,-0.75,86
4.05,-0.6,82
4.05,-0.45,92
4.05,-0.3,87
4.05,-0.15,86
4.05,0.0,73
4.05,0.15,89
4.05,0.3,86
4.05,0.45,88
4.05,0.6,86
4.05,0.75,79
4.05,0.9,83
4.05,1.05,78
4.05,1.2,73
4.05,1.35,68
4.05,1.5,63
4.2,-1.5,82
4.2,-1.35,82
4.2,-1.2,82
4.2,-1.05,79
4.2,-0.9,74
4.2,-0.75,81
4.2,-0.6,92
4.2,-0.45,89
4.2,-0.3,108
4.2,-0.15,117
4.2,0.0,84
4.2,0.15,85
4.2,0.3,86
4.2,0.45,84
4.2,0.6,67
4.2,0.75,55
4.2,0.9,64
4.2,1.05,63
4.2,1.2,63
4.2,1.35,59
4.2,1.5,55
4.35,-1.5,82
4.35,-1.35,82
4.35,-1.2,82
4.35,-1.05,83
4.35,-0.9,76
4.35,-0.75,98
4.35,-0.6,99
4.35,-0.45,61
4.35,-0.3,89
4.35,-0.15,86
4.35,0.0,87
4.35,0.15,88
4.35,0.3,75
4.35,0.45,48
4.35,0.6,32
4.35,0.75,27
4.35,0.9,41
4.35,1.05,46
4.35,1.2,57
4.35,1.35,56
4.35,1.5,55
4.5,-1.5,78
4.5,-1.35,77
4.5,-1.2,78
4.5,-1.05,82
4.5,-0.9,122
4.5,-0.75,155
4.5,-0.6,130
4.5,-0.45,100
4.5,-0.3,88
4.5,-0.15,91
4.5,0.0,87
4.5,0.15,88
4.5,0.3,75
4.5,0.45,23
4.5,0.6,11
4.5,0.75,15
4.5,0.9,31
4.5,1.05,38
4.5,1.2,49
4.5,1.35,50
4.5,1.5,50
4.65,-1.5,66
4.65,-1.35,69
4.65,-1.2,76
4.65,-1.05,79
4.65,-0.9,89
4.65,-0.75,112
4.65,-0.6,110
4.65,-0.45,71
4.65,-0.3,99
4.65,-0.15,87
4.65,0.0,88
4.65,0.15,88
4.65,0.3,88
4.65,0.45,49
4.65,0.6,25
4.65,0.75,22
4.65,0.9,37
4.65,1.05,42
4.65,1.2,43
4.65,1.35,44
4.65,1.5,44
4.8,-1.5,22
4.8,-1.35,40
4.8,-1.2,70
4.8,-1.05,79
4.8,-0.9,63
4.8,-0.75,70
4.8,-0.6,84
4.8,-0.45,80
4.8,-0.3,85
4.8,-0.15,85
4.8,0.0,88
4.8,0.15,86
4.8,0.3,84
4.8,0.45,84
4.8,0.6,49
4.8,0.75,23
4.8,0.9,0
4.8,1.05,3
4.8,1.2,44
4.8,1.35,46
4.8,1.5,47
4.95,-1.5,0
4.95,-1.35,2
4.95,-1.2,56
4.95,-1.05,79
4.95,-0.9,75
4.95,-0.75,77
4.95,-0.6,79
4.95,-0.45,113
4.95,-0.3,88
4.95,-0.15,83
4.95,0.0,87
4.95,0.15,84
4.95,0.3,93
4.95,0.45,93
4.95,0.6,73
4.95,0.75,46
4.95,0.9,0
4.95,1.05,0
4.95,1.2,49
4.95,1.35,51
4.95,1.5,53
5.1,-1.5,108
5.1,-1.35,107
5.1,-1.2,68
5.1,-1.05,66
5.1,-0.9,77
5.1,-0.75,92
5.1,-0.6,92
5.1,-0.45,71
5.1,-0.3,76
5.1,-0.15,86
5.1,0.0,86
5.1,0.15,93
5.1,0.3,88
5.1,0.45,89
5.1,0.6,89
5.1,0.75,78
5.1,0.9,35
5.1,1.05,8
5.1,1.2,0
5.1,1.35,0
5.1,1.5,0
5.25,-1.5,255
5.25,-1.35,253
5.25,-1.2,84
5.25,-1.05,33
5.25,-0.9,66
5.25,-0.75,92
5.25,-0.6,85
5.25,-0.45,77
5.25,-0.3,45
5.25,-0.15,86
5.25,0.0,92
5.25,0.15,86
5.25,0.3,104
5.25,0.45,99
5.25,0.6,96
5.25,0.75,94
5.25,0.9,73
5.25,1.05,32
5.25,1.2,0
5.25,1.35,0
5.25,1.5,0
5.4,-1.5,255
5.4,-1.35,255
5.4,-1.2,115
5.4,-1.05,42
5.4,-0.9,56
5.4,-0.75,92
5.4,-0.6,92
5.4,-0.45,88
5.4,-0.3,44
5.4,-0.15,85
5.4,0.0,87
5.4,0.15,97
5.4,0.3,99
5.4,0.45,110
5.4,0.6,92
5.4,0.75,94
5.4,0.9,84
5.4,1.05,67
5.4,1.2,33
5.4,1.35,15
5.4,1.5,0
5.55,-1.5,255
5.55,-1.35,255
5.55,-1.2,175
5.55,-1.05,91
5.55,-0.9,78
5.55,-0.75,94
5.55,-0.6,105
5.55,-0.45,93
5.55,-0.3,103
5.55,-0.15,87
5.55,0.0,90
5.55,0.15,88
5.55,0.3,108
5.55,0.45,117
5.55,0.6,81
5.55,0.75,90
5.55,0.9,90
5.55,1.05,91
5.55,1.2,98
5.55,1.35,103
5.55,1.5,109
5.7,-1.5,255
5.7,-1.35,255
5.7,-1.2,231
5.7,-1.05,168
5.7,-0.9,110
5.7,-0.75,89
5.7,-0.6,109
5.7,-0.45,81
5.7,-0.3,84
5.7,-0.15,86
5.7,0.0,84
5.7,0.15,86
5.7,0.3,110
5.7,0.45,112
5.7,0.6,90
5.7,0.75,97
5.7,0.9,89
5.7,1.05,89
5.7,1.2,93
5.7,1.35,95
5.7,1.5,98
5.85,-1.5,255
5.85,-1.35,255
5.85,-1.2,255
5.85,-1.05,220
5.85,-0.9,135
5.85,-0.75,77
5.85,-0.6,86
5.85,-0.45,77
5.85,-0.3,60
5.85,-0.15,84
5.85,0.0,87
5.85,0.15,97
5.85,0.3,86
5.85,0.45,92
5.85,0.6,103
5.85,0.75,109
5.85,0.9,89
5.85,1.05,89
5.85,1.2,89
5.85,1.35,89
5.85,1.5,89
6.0,-1.5,255
6.0,-1.35,255
6.0,-1.2,244
6.0,-1.05,199
6.0,-0.9,129
6.0,-0.75,90
6.0,-0.6,89
6.0,-0.45,90
6.0,-0.3,76
6.0,-0.15,88
6.0,0.0,87
6.0,0.15,86
6.0,0.3,88
6.0,0.45,88
6.0,0.6,105
6.0,0.75,117
6.0,0.9,96
6.0,1.05,93
6.0,1.2,89
6.0,1.35,89
6.0,1.5,89
6.15,-1.5,239
6.15,-1.35,215
6.15,-1.2,195
6.15,-1.05,154
6.15,-0.9,106
6.15,-0.75,86
6.15,-0.6,90
6.15,-0.45,89
6.15,-0.3,87
6.15,-0.15,88
6.15,0.0,88
6.15,0.15,90
6.15,0.3,98
6.15,0.45,89
6.15,0.6,105
6.15,0.75,119
6.15,0.9,101
6.15,1.05,97
6.15,1.2,89
6.15,1.35,89
6.15,1.5,89
6.3,-1.5,203
6.3,-1.35,177
6.3,-1.2,137
6.3,-1.05,106
6.3,-0.9,85
6.3,-0.75,86
6.3,-0.6,89
6.3,-0.45,80
6.3,-0.3,72
6.3,-0.15,88
6.3,0.0,87
6.3,0.15,86
6.3,0.3,88
6.3,0.45,80
6.3,0.6,87
6.3,0.75,97
6.3,0.9,90
6.3,1.05,90
6.3,1.2,89
6.3,1.35,89
6.3,1.5,89
6.45,-1.5,171
6.45,-1.35,144
6.45,-1.2,79
6.45,-1.05,62
6.45,-0.9,72
6.45,-0.75,94
6.45,-0.6,86
6.45,-0.45,77
6.45,-0.3,59
6.45,-0.15,84
6.45,0.0,90
6.45,0.15,84
6.45,0.3,84
6.45,0.45,71
6.45,0.6,70
6.45,0.75,74
6.45,0.9,85
6.45,1.05,87
6.45,1.2,89
6.45,1.35,89
6.45,1.5,89
6.6,-1.5,109
6.6,-1.35,94
6.6,-1.2,62
6.6,-1.05,59
6.6,-0.9,69
6.6,-0.75,90
6.6,-0.6,102
6.6,-0.45,86
6.6,-0.3,79
6.6,-0.15,88
6.6,0.0,90
6.6,0.15,86
6.6,0.3,86
6.6,0.45,82
6.6,0.6,68
6.6,0.75,65
6.6,0.9,74
6.6,1.05,79
6.6,1.2,89
6.6,1.35,89
6.6,1.5,89
6.75,-1.5,52
6.75,-1.35,53
6.75,-1.2,59
6.75,-1.05,66
6.75,-0.9,76
6.75,-0.75,88
6.75,-0.6,104
6.75,-0.45,105
6.75,-0.3,83
6.75,-0.15,70
6.75,0.0,92
6.75,0.15,86
6.75,0.3,86
6.75,0.45,85
6.75,0.6,70
6.75,0.75,55
6.75,0.9,53
6.75,1.05,62
6.75,1.2,89
6.75,1.35,89
6.75,1.5,89
6.9,-1.5,57
6.9,-1.35,60
6.9,-1.2,75
6.9,-1.05,80
6.9,-0.9,75
6.9,-0.75,82
6.9,-0.6,98
6.9,-0.45,87
6.9,-0.3,55
6.9,-0.15,87
6.9,0.0,92
6.9,0.15,92
6.9,0.3,90
6.9,0.45,89
6.9,0.6,75
6.9,0.75,56
6.9,0.9,46
6.9,1.05,57
6.9,1.2,89
6.9,1.35,89
6.9,1.5,89
7.05,-1.5,67
7.05,-1.35,71
7.05,-1.2,91
7.05,-1.05,94
7.05,-0.9,90
7.05,-0.75,78
7.05,-0.6,95
7.05,-0.45,92
7.05,-0.3,76
7.05,-0.15,91
7.05,0.0,92
7.05,0.15,86
7.05,0.3,82
7.05,0.45,81
7.05,0.6,70
7.05,0.75,54
7.05,0.9,39
7.05,1.05,51
7.05,1.2,89
7.05,1.35,89
7.05,1.5,88
7.2,-1.5,74
7.2,-1.35,78
7.2,-1.2,96
7.2,-1.05,96
7.2,-0.9,96
7.2,-0.75,86
7.2,-0.6,106
7.2,-0.45,110
7.2,-0.3,91
7.2,-0.15,92
7.2,0.0,86
7.2,0.15,85
7.2,0.3,86
7.2,0.45,77
7.2,0.6,65
7.2,0.75,52
7.2,0.9,36
7.2,1.05,50
7.2,1.2,88
7.2,1.35,88
7.2,1.5,86
7.35,-1.5,80
7.35,-1.35,80
7.35,-1.2,88
7.35,-1.05,93
7.35,-0.9,96
7.35,-0.75,92
7.35,-0.6,112
7.35,-0.45,101
7.35,-0.3,87
7.35,-0.15,101
7.35,0.0,85
7.35,0.15,86
7.35,0.3,86
7.35,0.45,76
7.35,0.6,60
7.35,0.75,49
7.35,0.9,33
7.35,1.05,50
7.35,1.2,88
7.35,1.35,87
7.35,1.5,85
7.5,-1.5,80
7.5,-1.35,78
7.5,-1.2,78
7.5,-1.05,82
7.5,-0.9,96
7.5,-0.75,96
7.5,-0.6,91
7.5,-0.45,90
7.5,-0.3,92
7.5,-0.15,87
7.5,0.0,85
7.5,0.15,86
7.5,0.3,77
7.5,0.45,71
7.5,0.6,55
7.5,0.75,47
7.5,0.9,47
7.5,1.05,61
7.5,1.2,87
7.5,1.35,86
7.5,1.5,84
7.65,-1.5,76
7.65,-1.35,76
7.65,-1.2,74
7.65,-1.05,73
7.65,-0.9,92
7.65,-0.75,81
7.65,-0.6,54
7.65,-0.45,82
7.65,-0.3,89
7.65,-0.15,87
7.65,0.0,86
7.65,0.15,87
7.65,0.3,77
7.65,0.45,69
7.65,0.6,51
7.65,0.75,51
7.65,0.9,84
7.65,1.05,86
7.65,1.2,85
7.65,1.35,83
7.65,1.5,80
7.8,-1.5,62
7.8,-1.35,64
7.8,-1.2,71
7.8,-1.05,73
7.8,-0.9,90
7.8,-0.75,75
7.8,-0.6,43
7.8,-0.45,77
7.8,-0.3,89
7.8,-0.15,86
7.8,0.0,87
7.8,0.15,84
7.8,0.3,87
7.8,0.45,74
7.8,0.6,54
7.8,0.75,52
7.8,0.9,86
7.8,1.05,86
7.8,1.2,80
7.8,1.35,77
7.8,1.5,74
7.95,-1.5,31
7.95,-1.35,38
7.95,-1.2,57
7.95,-1.05,67
7.95,-0.9,80
7.95,-0.75,84
7.95,-0.6,43
7.95,-0.45,89
7.95,-0.3,89
7.95,-0.15,78
7.95,0.0,87
7.95,0.15,86
7.95,0.3,87
7.95,0.45,78
7.95,0.6,59
7.95,0.75,54
7.95,0.9,84
7.95,1.05,80
7.95,1.2,66
7.95,1.35,62
7.95,1.5,58
8.1,-1.5,34
8.1,-1.35,41
8.1,-1.2,56
8.1,-1.05,69
8.1,-0.9,86
8.1,-0.75,84
8.1,-0.6,41
8.1,-0.45,89
8.1,-0.3,82
8.1,-0.15,89
8.1,0.0,88
8.1,0.15,86
8.1,0.3,86
8.1,0.45,81
8.1,0.6,71
8.1,0.75,66
8.1,0.9,81
8.1,1.05,74
8.1,1.2,59
8.1,1.35,54
8.1,1.5,49
8.25,-1.5,50
8.25,-1.35,56
8.25,-1.2,56
8.25,-1.05,72
8.25,-0.9,86
8.25,-0.75,80
8.25,-0.6,73
8.25,-0.45,89
8.25,-0.3,89
8.25,-0.15,87
8.25,0.0,90
8.25,0.15,86
8.25,0.3,86
8.25,0.45,84
8.25,0.6,84
8.25,0.75,80
8.25,0.9,68
8.25,1.05,61
8.25,1.2,51
8.25,1.35,44
8.25,1.5,37
8.4,-1.5,49
8.4,-1.35,58
8.4,-1.2,69
8.4,-1.05,84
8.4,-0.9,90
8.4,-0.75,82
8.4,-0.6,81
8.4,-0.45,85
8.4,-0.3,87
8.4,-0.15,86
8.4,0.0,86
8.4,0.15,90
8.4,0.3,86
8.4,0.45,85
8.4,0.6,84
8.4,0.75,79
8.4,0.9,64
8.4,1.05,56
8.4,1.2,47
8.4,1.35,40
8.4,1.5,32
8.55,-1.5,29
8.55,-1.35,45
8.55,-1.2,74
8.55,-1.05,88
8.55,-0.9,93
8.55,-0.75,81
8.55,-0.6,85
8.55,-0.45,86
8.55,-0.3,90
8.55,-0.15,86
8.55,0.0,88
8.55,0.15,86
8.55,0.3,90
8.55,0.45,90
8.55,0.6,82
8.55,0.75,73
8.55,0.9,62
8.55,1.05,53
8.55,1.2,44
8.55,1.35,37
8.55,1.5,29
8.7,-1.5,35
8.7,-1.35,48
8.7,-1.2,74
8.7,-1.05,88
8.7,-0.9,95
8.7,-0.75,87
8.7,-0.6,85
8.7,-0.45,86
8.7,-0.3,90
8.7,-0.15,86
8.7,0.0,97
8.7,0.15,88
8.7,0.3,93
8.7,0.45,95
8.7,0.6,83
8.7,0.75,70
8.7,0.9,60
8.7,1.05,52
8.7,1.2,47
8.7,1.35,41
8.7,1.5,36
8.85,-1.5,68
8.85,-1.35,70
8.85,-1.2,79
8.85,-1.05,83
8.85,-0.9,84
8.85,-0.75,87
8.85,-0.6,85
8.85,-0.45,85
8.85,-0.3,92
8.85,-0.15,86
8.85,0.0,88
8.85,0.15,86
8.85,0.3,91
8.85,0.45,95
8.85,0.6,85
8.85,0.75,67
8.85,0.9,57
8.85,1.05,57
8.85,1.2,73
8.85,1.35,74
8.85,1.5,74
9.0,-1.5,76
9.0,-1.35,75
9.0,-1.2,76
9.0,-1.05,76
9.0,-0.9,76
9.0,-0.75,89
9.0,-0.6,106
9.0,-0.45,92
9.0,-0.3,92
9.0,-0.15,86
9.0,0.0,86
9.0,0.15,89
9.0,0.3,90
9.0,0.45,95
9.0,0.6,88
9.0,0.75,71
9.0,0.9,60
9.0,1.05,66
9.0,1.2,88
9.0,1.35,89
9.0,1.5,89
9.15,-1.5,76
9.15,-1.35,76
9.15,-1.2,75
9.15,-1.05,76
9.15,-0.9,76
9.15,-0.75,83
9.15,-0.6,88
9.15,-0.45,86
9.15,-0.3,86
9.15,-0.15,92
9.15,0.0,86
9.15,0.15,89
9.15,0.3,89
9.15,0.45,93
9.15,0.6,98
9.15,0.75,94
9.15,0.9,92
9.15,1.05,94
9.15,1.2,99
9.15,1.35,99
9.15,1.5,99
9.3,-1.5,76
9.3,-1.35,76
9.3,-1.2,73
9.3,-1.05,76
9.3,-0.9,84
9.3,-0.75,88
9.3,-0.6,88
9.3,-0.45,89
9.3,-0.3,88
9.3,-0.15,89
9.3,0.0,87
9.3,0.15,91
9.3,0.3,90
9.3,0.45,96
9.3,0.6,108
9.3,0.75,111
9.3,0.9,110
9.3,1.05,110
9.3,1.2,109
9.3,1.35,109
9.3,1.5,109
9.45,-1.5,41
9.45,-1.35,52
9.45,-1.2,58
9.45,-1.05,70
9.45,-0.9,86
9.45,-0.75,88
9.45,-0.6,87
9.45,-0.45,89
9.45,-0.3,84
9.45,-0.15,88
9.45,0.0,86
9.45,0.15,91
9.45,0.3,92
9.45,0.45,103
9.45,0.6,115
9.45,0.75,122
9.45,0.9,115
9.45,1.05,114
9.45,1.2,123
9.45,1.35,125
9.45,1.5,126
9.6,-1.5,26
9.6,-1.35,39
9.6,-1.2,47
9.6,-1.05,61
9.6,-0.9,80
9.6,-0.75,88
9.6,-0.6,86
9.6,-0.45,85
9.6,-0.3,89
9.6,-0.15,77
9.6,0.0,79
9.6,0.15,88
9.6,0.3,88
9.6,0.45,97
9.6,0.6,112
9.6,0.75,122
9.6,0.9,116
9.6,1.05,119
9.6,1.2,136
9.6,1.35,139
9.6,1.5,143
9.75,-1.5,20
9.75,-1.35,34
9.75,-1.2,37
9.75,-1.05,51
9.75,-0.9,74
9.75,-0.75,82
9.75,-0.6,86
9.75,-0.45,89
9.75,-0.3,89
9.75,-0.15,82
9.75,0.0,80
9.75,0.15,85
9.75,0.3,87
9.75,0.45,87
9.75,0.6,99
9.75,0.75,114
9.75,0.9,123
9.75,1.05,139
9.75,1.2,163
9.75,1.35,175
9.75,1.5,186
9.9,-1.5,16
9.9,-1.35,30
9.9,-1.2,35
9.9,-1.05,49
9.9,-0.9,73
9.9,-0.75,88
9.9,-0.6,93
9.9,-0.45,86
9.9,-0.3,87
9.9,-0.15,92
9.9,0.0,92
9.9,0.15,88
9.9,0.3,90
9.9,0.45,88
9.9,0.6,89
9.9,0.75,102
9.9,0.9,120
9.9,1.05,142
9.9,1.2,170
9.9,1.35,185
9.9,1.5,199
10.05,-1.5,2
10.05,-1.35,20
10.05,-1.2,38
10.05,-1.05,55
10.05,-0.9,71
10.05,-0.75,84
10.05,-0.6,87
10.05,-0.45,93
10.05,-0.3,89
10.05,-0.15,88
10.05,0.0,88
10.05,0.15,93
10.05,0.3,93
10.05,0.45,91
10.05,0.6,88
10.05,0.75,94
10.05,0.9,127
10.05,1.05,149
10.05,1.2,172
10.05,1.35,192
10.05,1.5,210
10.2,-1.5,0
10.2,-1.35,20
10.2,-1.2,45
10.2,-1.05,64
10.2,-0.9,72
10.2,-0.75,75
10.2,-0.6,90
10.2,-0.45,101
10.2,-0.3,88
10.2,-0.15,88
10.2,0.0,88
10.2,0.15,92
10.2,0.3,93
10.2,0.45,92
10.2,0.6,88
10.2,0.75,98
10.2,0.9,130
10.2,1.05,150
10.2,1.2,172
10.2,1.35,191
10.2,1.5,211
10.35,-1.5,2
10.35,-1.35,23
10.35,-1.2,56
10.35,-1.05,77
10.35,-0.9,96
10.35,-0.75,90
10.35,-0.6,81
10.35,-0.45,100
10.35,-0.3,91
10.35,-0.15,88
10.35,0.0,90
10.35,0.15,88
10.35,0.3,88
10.35,0.45,98
10.35,0.6,110
10.35,0.75,117
10.35,0.9,122
10.35,1.05,140
10.35,1.2,174
10.35,1.35,194
10.35,1.5,213
10.5,-1.5,10
10.5,-1.35,28
10.5,-1.2,67
10.5,-1.05,88
10.5,-0.9,101
10.5,-0.75,99
10.5,-0.6,87
10.5,-0.45,86
10.5,-0.3,97
10.5,-0.15,94
10.5,0.0,93
10.5,0.15,88
10.5,0.3,88
10.5,0.45,102
10.5,0.6,117
10.5,0.75,124
10.5,0.9,122
10.5,1.05,138
10.5,1.2,173
10.5,1.35,190
10.5,1.5,208
10.65,-1.5,55
10.65,-1.35,62
10.65,-1.2,96
10.65,-1.05,103
10.65,-0.9,88
10.65,-0.75,86
10.65,-0.6,86
10.65,-0.45,86
10.65,-0.3,87
10.65,-0.15,86
10.65,0.0,89
10.65,0.15,89
10.65,0.3,88
10.65,0.45,99
10.65,0.6,113
10.65,0.75,122
10.65,0.9,125
10.65,1.05,132
10.65,1.2,144
10.65,1.35,150
10.65,1.5,157
10.8,-1.5,68
10.8,-1.35,70
10.8,-1.2,102
10.8,-1.05,103
10.8,-0.9,87
10.8,-0.75,86
10.8,-0.6,86
10.8,-0.45,88
10.8,-0.3,86
10.8,-0.15,86
10.8,0.0,86
10.8,0.15,86
10.8,0.3,86
10.8,0.45,92
10.8,0.6,107
10.8,0.75,119
10.8,0.9,125
10.8,1.05,130
10.8,1.2,132
10.8,1.35,134
10.8,1.5,136
10.95,-1.5,75
10.95,-1.35,74
10.95,-1.2,93
10.95,-1.05,103
10.95,-0.9,98
10.95,-0.75,98
10.95,-0.6,96
10.95,-0.45,93
10.95,-0.3,86
10.95,-0.15,86
10.95,0.0,86
10.95,0.15,86
10.95,0.3,86
10.95,0.45,89
10.95,0.6,103
10.95,0.75,115
10.95,0.9,125
10.95,1.05,129
10.95,1.2,126
10.95,1.35,128
10.95,1.5,129
11.1,-1.5,80
11.1,-1.35,78
11.1,-1.2,97
11.1,-1.05,114
11.1,-0.9,108
11.1,-0.75,104
11.1,-0.6,96
11.1,-0.45,90
11.1,-0.3,86
11.1,-0.15,86
11.1,0.0,86
11.1,0.15,86
11.1,0.3,86
11.1,0.45,92
11.1,0.6,102
11.1,0.75,113
11.1,0.9,121
11.1,1.05,124
11.1,1.2,121
11.1,1.35,123
11.1,1.5,124
11.25,-1.5,94
11.25,-1.35,99
11.25,-1.2,115
11.25,-1.05,126
11.25,-0.9,126
11.25,-0.75,116
11.25,-0.6,97
11.25,-0.45,86
11.25,-0.3,86
11.25,-0.15,88
11.25,0.0,87
11.25,0.15,89
11.25,0.3,91
11.25,0.45,96
11.25,0.6,102
11.25,0.75,108
11.25,0.9,113
11.25,1.05,117
11.25,1.2,122
11.25,1.35,124
11.25,1.5,124
11.4,-1.5,102
11.4,-1.35,110
11.4,-1.2,121
11.4,-1.05,125
11.4,-0.9,129
11.4,-0.75,119
11.4,-0.6,99
11.4,-0.45,86
11.4,-0.3,87
11.4,-0.15,86
11.4,0.0,90
11.4,0.15,95
11.4,0.3,97
11.4,0.45,98
11.4,0.6,101
11.4,0.75,104
11.4,0.9,107
11.4,1.05,111
11.4,1.2,120
11.4,1.35,124
11.4,1.5,124
11.55,-1.5,108
11.55,-1.35,114
11.55,-1.2,122
11.55,-1.05,122
11.55,-0.9,111
11.55,-0.75,102
11.55,-0.6,87
11.55,-0.45,91
11.55,-0.3,87
11.55,-0.15,89
11.55,0.0,92
11.55,0.15,96
11.55,0.3,98
11.55,0.45,97
11.55,0.6,98
11.55,0.75,100
11.55,0.9,102
11.55,1.05,104
11.55,1.2,107
11.55,1.35,109
11.55,1.5,112
11.7,-1.5,102
11.7,-1.35,105
11.7,-1.2,110
11.7,-1.05,109
11.7,-0.9,104
11.7,-0.75,102
11.7,-0.6,83
11.7,-0.45,85
11.7,-0.3,85
11.7,-0.15,93
11.7,0.0,93
11.7,0.15,96
11.7,0.3,94
11.7,0.45,93
11.7,0.6,93
11.7,0.75,95
11.7,0.9,97
11.7,1.05,98
11.7,1.2,98
11.7,1.35,99
11.7,1.5,101
11.85,-1.5,93
11.85,-1.35,94
11.85,-1.2,91
11.85,-1.05,92
11.85,-0.9,88
11.85,-0.75,83
11.85,-0.6,85
11.85,-0.45,85
11.85,-0.3,85
11.85,-0.15,86
11.85,0.0,93
11.85,0.15,94
11.85,0.3,90
11.85,0.45,87
11.85,0.6,88
11.85,0.75,90
11.85,0.9,93
11.85,1.05,94
11.85,1.2,94
11.85,1.35,96
11.85,1.5,98
12.0,-1.5,82
12.0,-1.35,81
12.0,-1.2,76
12.0,-1.05,78
12.0,-0.9,75
12.0,-0.75,75
12.0,-0.6,79
12.0,-0.45,84
12.0,-0.3,84
12.0,-0.15,84
12.0,0.0,92
12.0,0.15,92
12.0,0.3,87
12.0,0.45,82
12.0,0.6,84
12.0,0.75,86
12.0,0.9,89
12.0,1.05,91
12.0,1.2,91
12.0,1.35,93
12.0,1.5,95
12.15,-1.5,70
12.15,-1.35,71
12.15,-1.2,75
12.15,-1.05,75
12.15,-0.9,75
12.15,-0.75,84
12.15,-0.6,90
12.15,-0.45,88
12.15,-0.3,85
12.15,-0.15,87
12.15,0.0,92
12.15,0.15,90
12.15,0.3,84
12.15,0.45,80
12.15,0.6,80
12.15,0.75,81
12.15,0.9,84
12.15,1.05,87
12.15,1.2,88
12.15,1.35,91
12.15,1.5,93
12.3,-1.5,70
12.3,-1.35,72
12.3,-1.2,82
12.3,-1.05,84
12.3,-0.9,83
12.3,-0.75,94
12.3,-0.6,90
12.3,-0.45,85
12.3,-0.3,89
12.3,-0.15,90
12.3,0.0,92
12.3,0.15,87
12.3,0.3,83
12.3,0.45,80
12.3,0.6,79
12.3,0.75,79
12.3,0.9,82
12.3,1.05,84
12.3,1.2,86
12.3,1.35,88
12.3,1.5,90
12.45,-1.5,85
12.45,-1.35,85
12.45,-1.2,82
12.45,-1.05,89
12.45,-0.9,95
12.45,-0.75,100
12.45,-0.6,92
12.45,-0.45,92
12.45,-0.3,92
12.45,-0.15,86
12.45,0.0,83
12.45,0.15,82
12.45,0.3,82
12.45,0.45,81
12.45,0.6,79
12.45,0.75,79
12.45,0.9,80
12.45,1.05,82
12.45,1.2,84
12.45,1.35,86
12.45,1.5,88
12.6,-1.5,92
12.6,-1.35,92
12.6,-1.2,87
12.6,-1.05,95
12.6,-0.9,98
12.6,-0.75,104
12.6,-0.6,104
12.6,-0.45,92
12.6,-0.3,83
12.6,-0.15,83
12.6,0.0,82
12.6,0.15,83
12.6,0.3,84
12.6,0.45,83
12.6,0.6,81
12.6,0.75,80
12.6,0.9,80
12.6,1.05,81
12.6,1.2,83
12.6,1.35,85
12.6,1.5,87
12.75,-1.5,87
12.75,-1.35,87
12.75,-1.2,92
12.75,-1.05,102
12.75,-0.9,112
12.75,-0.75,106
12.75,-0.6,97
12.75,-0.45,86
12.75,-0.3,86
12.75,-0.15,87
12.75,0.0,85
12.75,0.15,86
12.75,0.3,86
12.75,0.45,87
12.75,0.6,83
12.75,0.75,82
12.75,0.9,81
12.75,1.05,82
12.75,1.2,83
12.75,1.35,84
12.75,1.5,86
12.9,-1.5,87
12.9,-1.35,88
12.9,-1.2,94
12.9,-1.05,99
12.9,-0.9,110
12.9,-0.75,97
12.9,-0.6,86
12.9,-0.45,92
12.9,-0.3,87
12.9,-0.15,85
12.9,0.0,85
12.9,0.15,85
12.9,0.3,89
12.9,0.45,91
12.9,0.6,86
12.9,0.75,84
12.9,0.9,83
12.9,1.05,83
12.9,1.2,83
12.9,1.35,84
12.9,1.5,85
13.05,-1.5,88
13.05,-1.35,93
13.05,-1.2,95
13.05,-1.05,96
13.05,-0.9,105
13.05,-0.75,99
13.05,-0.6,98
13.05,-0.45,110
13.05,-0.3,102
13.05,-0.15,92
13.05,0.0,87
13.05,0.15,86
13.05,0.3,92
13.05,0.45,95
13.05,0.6,89
13.05,0.75,87
13.05,0.9,85
13.05,1.05,84
13.05,1.2,84
13.05,1.35,85
13.05,1.5,85
