-3.0,-1.5,111
-3.0,-1.35,118
-3.0,-1.2,125
-3.0,-1.05,133
-3.0,-0.9,141
-3.0,-0.75,148
-3.0,-0.6,153
-3.0,-0.45,156
-3.0,-0.3,163
-3.0,-0.15,167
-3.0,0.0,171
-3.0,0.15,174
-3.0,0.3,177
-3.0,0.45,154
-3.0,0.6,141
-3.0,0.75,137
-3.0,0.9,128
-3.0,1.05,122
-3.0,1.2,119
-3.0,1.35,115
-3.0,1.5,111
-2.85,-1.5,101
-2.85,-1.35,108
-2.85,-1.2,115
-2.85,-1.05,122
-2.85,-0.9,130
-2.85,-0.75,137
-2.85,-0.6,143
-2.85,-0.45,147
-2.85,-0.3,153
-2.85,-0.15,157
-2.85,0.0,161
-2.85,0.15,164
-2.85,0.3,166
-2.85,0.45,148
-2.85,0.6,137
-2.85,0.75,133
-2.85,0.9,125
-2.85,1.05,121
-2.85,1.2,118
-2.85,1.35,114
-2.85,1.5,109
-2.7,-1.5,91
-2.7,-1.35,98
-2.7,-1.2,105
-2.7,-1.05,112
-2.7,-0.9,119
-2.7,-0.75,126
-2.7,-0.6,132
-2.7,-0.45,137
-2.7,-0.3,143
-2.7,-0.15,147
-2.7,0.0,150
-2.7,0.15,153
-2.7,0.3,155
-2.7,0.45,142
-2.7,0.6,133
-2.7,0.75,129
-2.7,0.9,123
-2.7,1.05,120
-2.7,1.2,116
-2.7,1.35,112
-2.7,1.5,108
-2.55,-1.5,84
-2.55,-1.35,89
-2.55,-1.2,95
-2.55,-1.05,101
-2.55,-0.9,109
-2.55,-0.75,116
-2.55,-0.6,122
-2.55,-0.45,128
-2.55,-0.3,133
-2.55,-0.15,136
-2.55,0.0,139
-2.55,0.15,141
-2.55,0.3,144
-2.55,0.45,136
-2.55,0.6,129
-2.55,0.75,126
-2.55,0.9,121
-2.55,1.05,118
-2.55,1.2,115
-2.55,1.35,110
-2.55,1.5,105
-2.4,-1.5,75
-2.4,-1.35,81
-2.4,-1.2,85
-2.4,-1.05,91
-2.4,-0.9,98
-2.4,-0.75,105
-2.4,-0.6,112
-2.4,-0.45,118
-2.4,-0.3,122
-2.4,-0.15,125
-2.4,0.0,127
-2.4,0.15,130
-2.4,0.3,133
-2.4,0.45,131
-2.4,0.6,129
-2.4,0.75,123
-2.4,0.9,120
-2.4,1.05,117
-2.4,1.2,113
-2.4,1.35,108
-2.4,1.5,102
-2.25,-1.5,72
-2.25,-1.35,72
-2.25,-1.2,78
-2.25,-1.05,82
-2.25,-0.9,88
-2.25,-0.75,95
-2.25,-0.6,102
-2.25,-0.45,108
-2.25,-0.3,112
-2.25,-0.15,114
-2.25,0.0,115
-2.25,0.15,118
-2.25,0.3,123
-2.25,0.45,129
-2.25,0.6,131
-2.25,0.75,122
-2.25,0.9,118
-2.25,1.05,115
-2.25,1.2,109
-2.25,1.35,103
-2.25,1.5,97
-2.1,-1.5,72
-2.1,-1.35,72
-2.1,-1.2,69
-2.1,-1.05,74
-2.1,-0.9,80
-2.1,-0.75,87
-2.1,-0.6,93
-2.1,-0.45,100
-2.1,-0.3,105
-2.1,-0.15,106
-2.1,0.0,106
-2.1,0.15,109
-2.1,0.3,115
-2.1,0.45,122
-2.1,0.6,124
-2.1,0.75,116
-2.1,0.9,114
-2.1,1.05,112
-2.1,1.2,105
-2.1,1.35,99
-2.1,1.5,92
-1.95,-1.5,74
-1.95,-1.35,74
-1.95,-1.2,61
-1.95,-1.05,67
-1.95,-0.9,74
-1.95,-0.75,81
-1.95,-0.6,88
-1.95,-0.45,96
-1.95,-0.3,103
-1.95,-0.15,106
-1.95,0.0,106
-1.95,0.15,106
-1.95,0.3,112
-1.95,0.45,117
-1.95,0.6,118
-1.95,0.75,112
-1.95,0.9,109
-1.95,1.05,108
-1.95,1.2,101
-1.95,1.35,94
-1.95,1.5,87
-1.8,-1.5,74
-1.8,-1.35,74
-1.8,-1.2,70
-1.8,-1.05,61
-1.8,-0.9,59
-1.8,-0.75,71
-1.8,-0.6,83
-1.8,-0.45,96
-1.8,-0.3,109
-1.8,-0.15,114
-1.8,0.0,109
-1.8,0.15,108
-1.8,0.3,113
-1.8,0.45,115
-1.8,0.6,115
-1.8,0.75,111
-1.8,0.9,106
-1.8,1.05,103
-1.8,1.2,97
-1.8,1.35,91
-1.8,1.5,86
-1.65,-1.5,73
-1.65,-1.35,73
-1.65,-1.2,76
-1.65,-1.05,60
-1.65,-0.9,53
-1.65,-0.75,66
-1.65,-0.6,81
-1.65,-0.45,98
-1.65,-0.3,117
-1.65,-0.15,129
-1.65,0.0,121
-1.65,0.15,110
-1.65,0.3,113
-1.65,0.45,115
-1.65,0.6,113
-1.65,0.75,109
-1.65,0.9,103
-1.65,1.05,100
-1.65,1.2,97
-1.65,1.35,93
-1.65,1.5,88
-1.5,-1.5,73
-1.5,-1.35,74
-1.5,-1.2,82
-1.5,-1.05,61
-1.5,-0.9,50
-1.5,-0.75,64
-1.5,-0.6,79
-1.5,-0.45,99
-1.5,-0.3,120
-1.5,-0.15,131
-1.5,0.0,116
-1.5,0.15,103
-1.5,0.3,112
-1.5,0.45,116
-1.5,0.6,113
-1.5,0.75,106
-1.5,0.9,101
-1.5,1.05,100
-1.5,1.2,100
-1.5,1.35,98
-1.5,1.5,96
-1.35,-1.5,79
-1.35,-1.35,80
-1.35,-1.2,85
-1.35,-1.05,65
-1.35,-0.9,54
-1.35,-0.75,65
-1.35,-0.6,80
-1.35,-0.45,98
-1.35,-0.3,113
-1.35,-0.15,116
-1.35,0.0,102
-1.35,0.15,98
-1.35,0.3,108
-1.35,0.45,116
-1.35,0.6,113
-1.35,0.75,106
-1.35,0.9,104
-1.35,1.05,106
-1.35,1.2,107
-1.35,1.35,107
-1.35,1.5,106
-1.2,-1.5,90
-1.2,-1.35,88
-1.2,-1.2,88
-1.2,-1.05,73
-1.2,-0.9,64
-1.2,-0.75,73
-1.2,-0.6,84
-1.2,-0.45,93
-1.2,-0.3,105
-1.2,-0.15,106
-1.2,0.0,98
-1.2,0.15,98
-1.2,0.3,106
-1.2,0.45,117
-1.2,0.6,117
-1.2,0.75,114
-1.2,0.9,112
-1.2,1.05,117
-1.2,1.2,118
-1.2,1.35,119
-1.2,1.5,120
-1.05,-1.5,87
-1.05,-1.35,84
-1.05,-1.2,72
-1.05,-1.05,65
-1.05,-0.9,64
-1.05,-0.75,74
-1.05,-0.6,80
-1.05,-0.45,73
-1.05,-0.3,82
-1.05,-0.15,91
-1.05,0.0,100
-1.05,0.15,104
-1.05,0.3,112
-1.05,0.45,116
-1.05,0.6,117
-1.05,0.75,114
-1.05,0.9,114
-1.05,1.05,117
-1.05,1.2,120
-1.05,1.35,121
-1.05,1.5,121
-0.9,-1.5,86
-0.9,-1.35,82
-0.9,-1.2,65
-0.9,-1.05,64
-0.9,-0.9,65
-0.9,-0.75,76
-0.9,-0.6,79
-0.9,-0.45,66
-0.9,-0.3,77
-0.9,-0.15,90
-0.9,0.0,106
-0.9,0.15,110
-0.9,0.3,115
-0.9,0.45,118
-0.9,0.6,118
-0.9,0.75,116
-0.9,0.9,116
-0.9,1.05,118
-0.9,1.2,121
-0.9,1.35,121
-0.9,1.5,121
-0.75,-1.5,80
-0.75,-1.35,80
-0.75,-1.2,86
-0.75,-1.05,78
-0.75,-0.9,73
-0.75,-0.75,79
-0.75,-0.6,80
-0.75,-0.45,72
-0.75,-0.3,100
-0.75,-0.15,109
-0.75,0.0,110
-0.75,0.15,113
-0.75,0.3,116
-0.75,0.45,118
-0.75,0.6,119
-0.75,0.75,119
-0.75,0.9,118
-0.75,1.05,120
-0.75,1.2,121
-0.75,1.35,121
-0.75,1.5,121
-0.6,-1.5,81
-0.6,-1.35,86
-0.6,-1.2,93
-0.6,-1.05,82
-0.6,-0.9,73
-0.6,-0.75,94
-0.6,-0.6,97
-0.6,-0.45,90
-0.6,-0.3,107
-0.6,-0.15,111
-0.6,0.0,111
-0.6,0.15,113
-0.6,0.3,116
-0.6,0.45,118
-0.6,0.6,119
-0.6,0.75,120
-0.6,0.9,120
-0.6,1.05,121
-0.6,1.2,121
-0.6,1.35,121
-0.6,1.5,121
-0.45,-1.5,97
-0.45,-1.35,97
-0.45,-1.2,92
-0.45,-1.05,79
-0.45,-0.9,73
-0.45,-0.75,129
-0.45,-0.6,133
-0.45,-0.45,122
-0.45,-0.3,112
-0.45,-0.15,109
-0.45,0.0,109
-0.45,0.15,112
-0.45,0.3,116
-0.45,0.45,119
-0.45,0.6,119
-0.45,0.75,119
-0.45,0.9,119
-0.45,1.05,120
-0.45,1.2,121
-0.45,1.35,121
-0.45,1.5,122
-0.3,-1.5,175
-0.3,-1.35,166
-0.3,-1.2,150
-0.3,-1.05,119
-0.3,-0.9,94
-0.3,-0.75,124
-0.3,-0.6,124
-0.3,-0.45,117
-0.3,-0.3,111
-0.3,-0.15,109
-0.3,0.0,109
-0.3,0.15,111
-0.3,0.3,116
-0.3,0.45,119
-0.3,0.6,119
-0.3,0.75,118
-0.3,0.9,118
-0.3,1.05,119
-0.3,1.2,120
-0.3,1.35,122
-0.3,1.5,123
-0.15,-1.5,237
-0.15,-1.35,220
-0.15,-1.2,194
-0.15,-1.05,150
-0.15,-0.9,114
-0.15,-0.75,117
-0.15,-0.6,116
-0.15,-0.45,113
-0.15,-0.3,111
-0.15,-0.15,110
-0.15,0.0,110
-0.15,0.15,112
-0.15,0.3,117
-0.15,0.45,119
-0.15,0.6,118
-0.15,0.75,116
-0.15,0.9,116
-0.15,1.05,119
-0.15,1.2,121
-0.15,1.35,123
-0.15,1.5,126
0.0,-1.5,133
0.0,-1.35,132
0.0,-1.2,138
0.0,-1.05,123
0.0,-0.9,111
0.0,-0.75,113
0.0,-0.6,114
0.0,-0.45,114
0.0,-0.3,113
0.0,-0.15,113
0.0,0.0,113
0.0,0.15,114
0.0,0.3,115
0.0,0.45,115
0.0,0.6,114
0.0,0.75,114
0.0,0.9,115
0.0,1.05,118
0.0,1.2,122
0.0,1.35,124
0.0,1.5,127
0.15,-1.5,101
0.15,-1.35,105
0.15,-1.2,117
0.15,-1.05,114
0.15,-0.9,110
0.15,-0.75,111
0.15,-0.6,112
0.15,-0.45,113
0.15,-0.3,114
0.15,-0.15,114
0.15,0.0,114
0.15,0.15,114
0.15,0.3,113
0.15,0.45,112
0.15,0.6,112
0.15,0.75,112
0.15,0.9,115
0.15,1.05,119
0.15,1.2,122
0.15,1.35,125
0.15,1.5,128
0.3,-1.5,115
0.3,-1.35,113
0.3,-1.2,105
0.3,-1.05,109
0.3,-0.9,114
0.3,-0.75,108
0.3,-0.6,109
0.3,-0.45,112
0.3,-0.3,113
0.3,-0.15,114
0.3,0.0,113
0.3,0.15,113
0.3,0.3,112
0.3,0.45,112
0.3,0.6,112
0.3,0.75,112
0.3,0.9,116
0.3,1.05,121
0.3,1.2,124
0.3,1.35,127
0.3,1.5,129
0.45,-1.5,121
0.45,-1.35,119
0.45,-1.2,111
0.45,-1.05,111
0.45,-0.9,110
0.45,-0.75,109
0.45,-0.6,108
0.45,-0.45,108
0.45,-0.3,110
0.45,-0.15,112
0.45,0.0,113
0.45,0.15,113
0.45,0.3,112
0.45,0.45,112
0.45,0.6,112
0.45,0.75,115
0.45,0.9,119
0.45,1.05,123
0.45,1.2,125
0.45,1.35,127
0.45,1.5,130
0.6,-1.5,130
0.6,-1.35,128
0.6,-1.2,125
0.6,-1.05,114
0.6,-0.9,106
0.6,-0.75,110
0.6,-0.6,108
0.6,-0.45,102
0.6,-0.3,106
0.6,-0.15,109
0.6,0.0,113
0.6,0.15,113
0.6,0.3,112
0.6,0.45,112
0.6,0.6,113
0.6,0.75,119
0.6,0.9,123
0.6,1.05,125
0.6,1.2,126
0.6,1.35,128
0.6,1.5,129
0.75,-1.5,126
0.75,-1.35,125
0.75,-1.2,125
0.75,-1.05,116
0.75,-0.9,108
0.75,-0.75,106
0.75,-0.6,104
0.75,-0.45,104
0.75,-0.3,106
0.75,-0.15,108
0.75,0.0,112
0.75,0.15,113
0.75,0.3,113
0.75,0.45,112
0.75,0.6,116
0.75,0.75,121
0.75,0.9,123
0.75,1.05,121
0.75,1.2,119
0.75,1.35,117
0.75,1.5,114
0.9,-1.5,123
0.9,-1.35,122
0.9,-1.2,124
0.9,-1.05,118
0.9,-0.9,113
0.9,-0.75,107
0.9,-0.6,107
0.9,-0.45,108
0.9,-0.3,110
0.9,-0.15,112
0.9,0.0,113
0.9,0.15,113
0.9,0.3,112
0.9,0.45,112
0.9,0.6,116
0.9,0.75,121
0.9,0.9,122
0.9,1.05,117
0.9,1.2,114
0.9,1.35,109
0.9,1.5,104
1.05,-1.5,122
1.05,-1.35,121
1.05,-1.2,120
1.05,-1.05,118
1.05,-0.9,116
1.05,-0.75,115
1.05,-0.6,114
1.05,-0.45,114
1.05,-0.3,115
1.05,-0.15,115
1.05,0.0,115
1.05,0.15,115
1.05,0.3,112
1.05,0.45,112
1.05,0.6,116
1.05,0.75,121
1.05,0.9,121
1.05,1.05,115
1.05,1.2,120
1.05,1.35,122
1.05,1.5,122
1.2,-1.5,105
1.2,-1.35,108
1.2,-1.2,115
1.2,-1.05,116
1.2,-0.9,116
1.2,-0.75,116
1.2,-0.6,115
1.2,-0.45,115
1.2,-0.3,115
1.2,-0.15,115
1.2,0.0,115
1.2,0.15,115
1.2,0.3,112
1.2,0.45,112
1.2,0.6,115
1.2,0.75,117
1.2,0.9,118
1.2,1.05,115
1.2,1.2,121
1.2,1.35,124
1.2,1.5,126
1.35,-1.5,60
1.35,-1.35,76
1.35,-1.2,102
1.35,-1.05,110
1.35,-0.9,114
1.35,-0.75,115
1.35,-0.6,113
1.35,-0.45,112
1.35,-0.3,112
1.35,-0.15,112
1.35,0.0,112
1.35,0.15,112
1.35,0.3,112
1.35,0.45,112
1.35,0.6,112
1.35,0.75,112
1.35,0.9,113
1.35,1.05,124
1.35,1.2,129
1.35,1.35,134
1.35,1.5,134
1.5,-1.5,110
1.5,-1.35,109
1.5,-1.2,103
1.5,-1.05,107
1.5,-0.9,111
1.5,-0.75,114
1.5,-0.6,112
1.5,-0.45,112
1.5,-0.3,112
1.5,-0.15,112
1.5,0.0,113
1.5,0.15,113
1.5,0.3,113
1.5,0.45,113
1.5,0.6,113
1.5,0.75,113
1.5,0.9,113
1.5,1.05,119
1.5,1.2,125
1.5,1.35,131
1.5,1.5,134
1.65,-1.5,165
1.65,-1.35,147
1.65,-1.2,109
1.65,-1.05,106
1.65,-0.9,106
1.65,-0.75,113
1.65,-0.6,113
1.65,-0.45,113
1.65,-0.3,113
1.65,-0.15,112
1.65,0.0,111
1.65,0.15,112
1.65,0.3,113
1.65,0.45,113
1.65,0.6,113
1.65,0.75,113
1.65,0.9,112
1.65,1.05,115
1.65,1.2,124
1.65,1.35,130
1.65,1.5,134
1.8,-1.5,124
1.8,-1.35,121
1.8,-1.2,116
1.8,-1.05,111
1.8,-0.9,109
1.8,-0.75,113
1.8,-0.6,114
1.8,-0.45,111
1.8,-0.3,111
1.8,-0.15,113
1.8,0.0,113
1.8,0.15,108
1.8,0.3,111
1.8,0.45,113
1.8,0.6,110
1.8,0.75,104
1.8,0.9,108
1.8,1.05,117
1.8,1.2,129
1.8,1.35,137
1.8,1.5,142
1.95,-1.5,91
1.95,-1.35,99
1.95,-1.2,117
1.95,-1.05,117
1.95,-0.9,118
1.95,-0.75,118
1.95,-0.6,119
1.95,-0.45,105
1.95,-0.3,103
1.95,-0.15,111
1.95,0.0,113
1.95,0.15,111
1.95,0.3,108
1.95,0.45,113
1.95,0.6,99
1.95,0.75,97
1.95,0.9,108
1.95,1.05,119
1.95,1.2,128
1.95,1.35,135
1.95,1.5,140
2.1,-1.5,18
2.1,-1.35,48
2.1,-1.2,107
2.1,-1.05,125
2.1,-0.9,134
2.1,-0.75,122
2.1,-0.6,121
2.1,-0.45,112
2.1,-0.3,102
2.1,-0.15,106
2.1,0.0,113
2.1,0.15,113
2.1,0.3,108
2.1,0.45,97
2.1,0.6,93
2.1,0.75,96
2.1,0.9,110
2.1,1.05,121
2.1,1.2,119
2.1,1.35,119
2.1,1.5,119
2.25,-1.5,39
2.25,-1.35,60
2.25,-1.2,97
2.25,-1.05,124
2.25,-0.9,139
2.25,-0.75,126
2.25,-0.6,124
2.25,-0.45,119
2.25,-0.3,109
2.25,-0.15,110
2.25,0.0,113
2.25,0.15,111
2.25,0.3,111
2.25,0.45,114
2.25,0.6,117
2.25,0.75,108
2.25,0.9,110
2.25,1.05,123
2.25,1.2,123
2.25,1.35,123
2.25,1.5,125
2.4,-1.5,77
2.4,-1.35,84
2.4,-1.2,88
2.4,-1.05,124
2.4,-0.9,145
2.4,-0.75,125
2.4,-0.6,123
2.4,-0.45,124
2.4,-0.3,124
2.4,-0.15,112
2.4,0.0,111
2.4,0.15,110
2.4,0.3,115
2.4,0.45,111
2.4,0.6,117
2.4,0.75,117
2.4,0.9,113
2.4,1.05,121
2.4,1.2,132
2.4,1.35,140
2.4,1.5,145
2.55,-1.5,91
2.55,-1.35,99
2.55,-1.2,117
2.55,-1.05,114
2.55,-0.9,114
2.55,-0.75,127
2.55,-0.6,117
2.55,-0.45,113
2.55,-0.3,123
2.55,-0.15,118
2.55,0.0,107
2.55,0.15,108
2.55,0.3,133
2.55,0.45,109
2.55,0.6,110
2.55,0.75,116
2.55,0.9,117
2.55,1.05,113
2.55,1.2,138
2.55,1.35,156
2.55,1.5,167
2.7,-1.5,99
2.7,-1.35,111
2.7,-1.2,143
2.7,-1.05,122
2.7,-0.9,114
2.7,-0.75,140
2.7,-0.6,122
2.7,-0.45,107
2.7,-0.3,100
2.7,-0.15,106
2.7,0.0,117
2.7,0.15,115
2.7,0.3,124
2.7,0.45,112
2.7,0.6,109
2.7,0.75,112
2.7,0.9,113
2.7,1.05,115
2.7,1.2,140
2.7,1.35,159
2.7,1.5,172
2.85,-1.5,86
2.85,-1.35,99
2.85,-1.2,119
2.85,-1.05,124
2.85,-0.9,137
2.85,-0.75,156
2.85,-0.6,156
2.85,-0.45,123
2.85,-0.3,112
2.85,-0.15,115
2.85,0.0,110
2.85,0.15,113
2.85,0.3,112
2.85,0.45,115
2.85,0.6,109
2.85,0.75,102
2.85,0.9,108
2.85,1.05,123
2.85,1.2,120
2.85,1.35,122
2.85,1.5,126
3.0,-1.5,84
3.0,-1.35,98
3.0,-1.2,117
3.0,-1.05,131
3.0,-0.9,152
3.0,-0.75,214
3.0,-0.6,204
3.0,-0.45,140
3.0,-0.3,121
3.0,-0.15,110
3.0,0.0,111
3.0,0.15,111
3.0,0.3,111
3.0,0.45,118
3.0,0.6,104
3.0,0.75,99
3.0,0.9,106
3.0,1.05,120
3.0,1.2,120
3.0,1.35,123
3.0,1.5,129
3.15,-1.5,84
3.15,-1.35,99
3.15,-1.2,118
3.15,-1.05,133
3.15,-0.9,157
3.15,-0.75,255
3.15,-0.6,242
3.15,-0.45,147
3.15,-0.3,112
3.15,-0.15,113
3.15,0.0,114
3.15,0.15,111
3.15,0.3,112
3.15,0.45,119
3.15,0.6,115
3.15,0.75,109
3.15,0.9,110
3.15,1.05,116
3.15,1.2,131
3.15,1.35,145
3.15,1.5,160
3.3,-1.5,79
3.3,-1.35,92
3.3,-1.2,108
3.3,-1.05,168
3.3,-0.9,209
3.3,-0.75,239
3.3,-0.6,188
3.3,-0.45,141
3.3,-0.3,107
3.3,-0.15,115
3.3,0.0,111
3.3,0.15,115
3.3,0.3,116
3.3,0.45,112
3.3,0.6,119
3.3,0.75,135
3.3,0.9,121
3.3,1.05,116
3.3,1.2,124
3.3,1.35,134
3.3,1.5,146
3.45,-1.5,76
3.45,-1.35,86
3.45,-1.2,97
3.45,-1.05,183
3.45,-0.9,225
3.45,-0.75,170
3.45,-0.6,126
3.45,-0.45,118
3.45,-0.3,107
3.45,-0.15,115
3.45,0.0,113
3.45,0.15,115
3.45,0.3,114
3.45,0.45,115
3.45,0.6,137
3.45,0.75,129
3.45,0.9,113
3.45,1.05,115
3.45,1.2,122
3.45,1.35,130
3.45,1.5,139
3.6,-1.5,196
3.6,-1.35,196
3.6,-1.2,212
3.6,-1.05,196
3.6,-0.9,164
3.6,-0.75,3
3.6,-0.6,41
3.6,-0.45,102
3.6,-0.3,118
3.6,-0.15,113
3.6,0.0,116
3.6,0.15,119
3.6,0.3,119
3.6,0.45,115
3.6,0.6,121
3.6,0.75,134
3.6,0.9,124
3.6,1.05,103
3.6,1.2,116
3.6,1.35,121
3.6,1.5,125
3.75,-1.5,192
3.75,-1.35,190
3.75,-1.2,216
3.75,-1.05,148
3.75,-0.9,92
3.75,-0.75,3
3.75,-0.6,63
3.75,-0.45,109
3.75,-0.3,118
3.75,-0.15,111
3.75,0.0,114
3.75,0.15,115
3.75,0.3,113
3.75,0.45,121
3.75,0.6,109
3.75,0.75,126
3.75,0.9,126
3.75,1.05,98
3.75,1.2,109
3.75,1.35,113
3.75,1.5,114
3.9,-1.5,132
3.9,-1.35,134
3.9,-1.2,145
3.9,-1.05,9
3.9,-0.9,0
3.9,-0.75,48
3.9,-0.6,84
3.9,-0.45,113
3.9,-0.3,118
3.9,-0.15,103
3.9,0.0,115
3.9,0.15,112
3.9,0.3,119
3.9,0.45,115
3.9,0.6,109
3.9,0.75,117
3.9,0.9,121
3.9,1.05,107
3.9,1.2,114
3.9,1.35,114
3.9,1.5,114
4.05,-1.5,106
4.05,-1.35,109
4.05,-1.2,107
4.05,-1.05,29
4.05,-0.9,0
4.05,-0.75,62
4.05,-0.6,87
4.05,-0.45,108
4.05,-0.3,114
4.05,-0.15,112
4.05,0.0,115
4.05,0.15,112
4.05,0.3,113
4.05,0.45,115
4.05,0.6,109
4.05,0.75,107
4.05,0.9,107
4.05,1.05,98
4.05,1.2,113
4.05,1.35,114
4.05,1.5,114
4.2,-1.5,68
4.2,-1.35,77
4.2,-1.2,86
4.2,-1.05,57
4.2,-0.9,45
4.2,-0.75,79
4.2,-0.6,96
4.2,-0.45,110
4.2,-0.3,114
4.2,-0.15,115
4.2,0.0,112
4.2,0.15,112
4.2,0.3,117
4.2,0.45,112
4.2,0.6,107
4.2,0.75,102
4.2,0.9,90
4.2,1.05,79
4.2,1.2,103
4.2,1.35,106
4.2,1.5,106
4.35,-1.5,68
4.35,-1.35,77
4.35,-1.2,85
4.35,-1.05,72
4.35,-0.9,72
4.35,-0.75,91
4.35,-0.6,107
4.35,-0.45,111
4.35,-0.3,111
4.35,-0.15,112
4.35,0.0,111
4.35,0.15,116
4.35,0.3,117
4.35,0.45,107
4.35,0.6,125
4.35,0.75,113
4.35,0.9,106
4.35,1.05,90
4.35,1.2,108
4.35,1.35,109
4.35,1.5,107
4.5,-1.5,68
4.5,-1.35,75
4.5,-1.2,82
4.5,-1.05,80
4.5,-0.9,84
4.5,-0.75,93
4.5,-0.6,113
4.5,-0.45,113
4.5,-0.3,116
4.5,-0.15,113
4.5,0.0,103
4.5,0.15,109
4.5,0.3,121
4.5,0.45,111
4.5,0.6,112
4.5,0.75,125
4.5,0.9,133
4.5,1.05,106
4.5,1.2,111
4.5,1.35,109
4.5,1.5,108
4.65,-1.5,68
4.65,-1.35,70
4.65,-1.2,74
4.65,-1.05,74
4.65,-0.9,80
4.65,-0.75,90
4.65,-0.6,118
4.65,-0.45,118
4.65,-0.3,112
4.65,-0.15,112
4.65,0.0,111
4.65,0.15,121
4.65,0.3,109
4.65,0.45,128
4.65,0.6,123
4.65,0.75,140
4.65,0.9,132
4.65,1.05,113
4.65,1.2,108
4.65,1.35,107
4.65,1.5,107
4.8,-1.5,68
4.8,-1.35,68
4.8,-1.2,66
4.8,-1.05,82
4.8,-0.9,94
4.8,-0.75,87
4.8,-0.6,114
4.8,-0.45,120
4.8,-0.3,121
4.8,-0.15,113
4.8,0.0,111
4.8,0.15,111
4.8,0.3,120
4.8,0.45,109
4.8,0.6,143
4.8,0.75,152
4.8,0.9,131
4.8,1.05,109
4.8,1.2,107
4.8,1.35,107
4.8,1.5,107
4.95,-1.5,80
4.95,-1.35,76
4.95,-1.2,55
4.95,-1.05,119
4.95,-0.9,148
4.95,-0.75,103
4.95,-0.6,91
4.95,-0.45,113
4.95,-0.3,122
4.95,-0.15,113
4.95,0.0,117
4.95,0.15,120
4.95,0.3,120
4.95,0.45,113
4.95,0.6,112
4.95,0.75,122
4.95,0.9,126
4.95,1.05,107
4.95,1.2,107
4.95,1.35,108
4.95,1.5,108
5.1,-1.5,93
5.1,-1.35,89
5.1,-1.2,75
5.1,-1.05,135
5.1,-0.9,162
5.1,-0.75,110
5.1,-0.6,91
5.1,-0.45,101
5.1,-0.3,91
5.1,-0.15,113
5.1,0.0,106
5.1,0.15,118
5.1,0.3,112
5.1,0.45,112
5.1,0.6,113
5.1,0.75,110
5.1,0.9,110
5.1,1.05,126
5.1,1.2,110
5.1,1.35,103
5.1,1.5,102
5.25,-1.5,100
5.25,-1.35,100
5.25,-1.2,100
5.25,-1.05,151
5.25,-0.9,183
5.25,-0.75,150
5.25,-0.6,127
5.25,-0.45,109
5.25,-0.3,94
5.25,-0.15,112
5.25,0.0,99
5.25,0.15,114
5.25,0.3,113
5.25,0.45,118
5.25,0.6,118
5.25,0.75,110
5.25,0.9,110
5.25,1.05,126
5.25,1.2,105
5.25,1.35,91
5.25,1.5,86
5.4,-1.5,86
5.4,-1.35,86
5.4,-1.2,80
5.4,-1.05,110
5.4,-0.9,136
5.4,-0.75,183
5.4,-0.6,172
5.4,-0.45,136
5.4,-0.3,101
5.4,-0.15,107
5.4,0.0,108
5.4,0.15,112
5.4,0.3,109
5.4,0.45,111
5.4,0.6,118
5.4,0.75,129
5.4,0.9,125
5.4,1.05,111
5.4,1.2,111
5.4,1.35,102
5.4,1.5,93
5.55,-1.5,86
5.55,-1.35,89
5.55,-1.2,86
5.55,-1.05,104
5.55,-0.9,121
5.55,-0.75,198
5.55,-0.6,185
5.55,-0.45,142
5.55,-0.3,92
5.55,-0.15,114
5.55,0.0,117
5.55,0.15,109
5.55,0.3,115
5.55,0.45,112
5.55,0.6,124
5.55,0.75,133
5.55,0.9,133
5.55,1.05,119
5.55,1.2,116
5.55,1.35,106
5.55,1.5,98
5.7,-1.5,86
5.7,-1.35,94
5.7,-1.2,110
5.7,-1.05,123
5.7,-0.9,135
5.7,-0.75,204
5.7,-0.6,173
5.7,-0.45,126
5.7,-0.3,85
5.7,-0.15,121
5.7,0.0,110
5.7,0.15,116
5.7,0.3,118
5.7,0.45,112
5.7,0.6,112
5.7,0.75,119
5.7,0.9,132
5.7,1.05,144
5.7,1.2,115
5.7,1.35,105
5.7,1.5,102
5.85,-1.5,105
5.85,-1.35,113
5.85,-1.2,127
5.85,-1.05,136
5.85,-0.9,141
5.85,-0.75,171
5.85,-0.6,141
5.85,-0.45,117
5.85,-0.3,99
5.85,-0.15,121
5.85,0.0,112
5.85,0.15,111
5.85,0.3,115
5.85,0.45,134
5.85,0.6,114
5.85,0.75,114
5.85,0.9,123
5.85,1.05,128
5.85,1.2,120
5.85,1.35,118
5.85,1.5,118
6.0,-1.5,134
6.0,-1.35,136
6.0,-1.2,143
6.0,-1.05,145
6.0,-0.9,145
6.0,-0.75,149
6.0,-0.6,129
6.0,-0.45,116
6.0,-0.3,122
6.0,-0.15,117
6.0,0.0,112
6.0,0.15,125
6.0,0.3,113
6.0,0.45,113
6.0,0.6,117
6.0,0.75,102
6.0,0.9,108
6.0,1.05,121
6.0,1.2,127
6.0,1.35,127
6.0,1.5,127
6.15,-1.5,141
6.15,-1.35,142
6.15,-1.2,145
6.15,-1.05,145
6.15,-0.9,142
6.15,-0.75,142
6.15,-0.6,137
6.15,-0.45,128
6.15,-0.3,124
6.15,-0.15,112
6.15,0.0,114
6.15,0.15,112
6.15,0.3,119
6.15,0.45,113
6.15,0.6,113
6.15,0.75,114
6.15,0.9,112
6.15,1.05,116
6.15,1.2,120
6.15,1.35,125
6.15,1.5,127
6.3,-1.5,143
6.3,-1.35,143
6.3,-1.2,144
6.3,-1.05,141
6.3,-0.9,135
6.3,-0.75,135
6.3,-0.6,128
6.3,-0.45,116
6.3,-0.3,128
6.3,-0.15,113
6.3,0.0,114
6.3,0.15,119
6.3,0.3,118
6.3,0.45,112
6.3,0.6,112
6.3,0.75,114
6.3,0.9,114
6.3,1.05,114
6.3,1.2,117
6.3,1.35,120
6.3,1.5,123
6.45,-1.5,149
6.45,-1.35,145
6.45,-1.2,139
6.45,-1.05,132
6.45,-0.9,125
6.45,-0.75,123
6.45,-0.6,115
6.45,-0.45,107
6.45,-0.3,82
6.45,-0.15,116
6.45,0.0,112
6.45,0.15,119
6.45,0.3,112
6.45,0.45,112
6.45,0.6,113
6.45,0.75,113
6.45,0.9,110
6.45,1.05,113
6.45,1.2,114
6.45,1.35,115
6.45,1.5,115
6.6,-1.5,154
6.6,-1.35,147
6.6,-1.2,135
6.6,-1.05,127
6.6,-0.9,120
6.6,-0.75,112
6.6,-0.6,110
6.6,-0.45,115
6.6,-0.3,82
6.6,-0.15,117
6.6,0.0,112
6.6,0.15,112
6.6,0.3,112
6.6,0.45,112
6.6,0.6,103
6.6,0.75,99
6.6,0.9,105
6.6,1.05,116
6.6,1.2,100
6.6,1.35,90
6.6,1.5,84
6.75,-1.5,171
6.75,-1.35,159
6.75,-1.2,139
6.75,-1.05,123
6.75,-0.9,111
6.75,-0.75,99
6.75,-0.6,102
6.75,-0.45,109
6.75,-0.3,123
6.75,-0.15,114
6.75,0.0,114
6.75,0.15,114
6.75,0.3,114
6.75,0.45,113
6.75,0.6,106
6.75,0.75,109
6.75,0.9,114
6.75,1.05,130
6.75,1.2,48
6.75,1.35,7
6.75,1.5,0
6.9,-1.5,161
6.9,-1.35,152
6.9,-1.2,138
6.9,-1.05,126
6.9,-0.9,117
6.9,-0.75,105
6.9,-0.6,106
6.9,-0.45,110
6.9,-0.3,142
6.9,-0.15,113
6.9,0.0,114
6.9,0.15,112
6.9,0.3,114
6.9,0.45,114
6.9,0.6,109
6.9,0.75,113
6.9,0.9,88
6.9,1.05,69
6.9,1.2,18
6.9,1.35,0
6.9,1.5,0
7.05,-1.5,153
7.05,-1.35,147
7.05,-1.2,139
7.05,-1.05,133
7.05,-0.9,127
7.05,-0.75,119
7.05,-0.6,113
7.05,-0.45,117
7.05,-0.3,140
7.05,-0.15,113
7.05,0.0,114
7.05,0.15,112
7.05,0.3,112
7.05,0.45,113
7.05,0.6,114
7.05,0.75,100
7.05,0.9,55
7.05,1.05,18
7.05,1.2,23
7.05,1.35,31
7.05,1.5,34
7.2,-1.5,148
7.2,-1.35,147
7.2,-1.2,152
7.2,-1.05,143
7.2,-0.9,134
7.2,-0.75,123
7.2,-0.6,129
7.2,-0.45,127
7.2,-0.3,113
7.2,-0.15,113
7.2,0.0,113
7.2,0.15,112
7.2,0.3,112
7.2,0.45,113
7.2,0.6,111
7.2,0.75,99
7.2,0.9,75
7.2,1.05,68
7.2,1.2,54
7.2,1.35,48
7.2,1.5,39
7.35,-1.5,146
7.35,-1.35,148
7.35,-1.2,158
7.35,-1.05,148
7.35,-0.9,138
7.35,-0.75,129
7.35,-0.6,126
7.35,-0.45,121
7.35,-0.3,127
7.35,-0.15,112
7.35,0.0,112
7.35,0.15,114
7.35,0.3,112
7.35,0.45,115
7.35,0.6,111
7.35,0.75,89
7.35,0.9,83
7.35,1.05,96
7.35,1.2,93
7.35,1.35,86
7.35,1.5,77
7.5,-1.5,144
7.5,-1.35,144
7.5,-1.2,151
7.5,-1.05,146
7.5,-0.9,139
7.5,-0.75,134
7.5,-0.6,120
7.5,-0.45,112
7.5,-0.3,127
7.5,-0.15,112
7.5,0.0,112
7.5,0.15,123
7.5,0.3,112
7.5,0.45,113
7.5,0.6,115
7.5,0.75,96
7.5,0.9,111
7.5,1.05,130
7.5,1.2,143
7.5,1.35,154
7.5,1.5,163
7.65,-1.5,144
7.65,-1.35,144
7.65,-1.2,147
7.65,-1.05,147
7.65,-0.9,142
7.65,-0.75,135
7.65,-0.6,116
7.65,-0.45,112
7.65,-0.3,127
7.65,-0.15,113
7.65,0.0,114
7.65,0.15,112
7.65,0.3,113
7.65,0.45,114
7.65,0.6,121
7.65,0.75,123
7.65,0.9,128
7.65,1.05,149
7.65,1.2,160
7.65,1.35,174
7.65,1.5,186
7.8,-1.5,144
7.8,-1.35,142
7.8,-1.2,142
7.8,-1.05,145
7.8,-0.9,144
7.8,-0.75,139
7.8,-0.6,110
7.8,-0.45,112
7.8,-0.3,103
7.8,-0.15,126
7.8,0.0,112
7.8,0.15,112
7.8,0.3,113
7.8,0.45,114
7.8,0.6,112
7.8,0.75,112
7.8,0.9,114
7.8,1.05,146
7.8,1.2,162
7.8,1.35,178
7.8,1.5,194
7.95,-1.5,133
7.95,-1.35,129
7.95,-1.2,123
7.95,-1.05,127
7.95,-0.9,128
7.95,-0.75,117
7.95,-0.6,101
7.95,-0.45,103
7.95,-0.3,120
7.95,-0.15,116
7.95,0.0,113
7.95,0.15,112
7.95,0.3,115
7.95,0.45,114
7.95,0.6,112
7.95,0.75,112
7.95,0.9,114
7.95,1.05,128
7.95,1.2,142
7.95,1.35,152
7.95,1.5,160
8.1,-1.5,117
8.1,-1.35,113
8.1,-1.2,105
8.1,-1.05,113
8.1,-0.9,118
8.1,-0.75,122
8.1,-0.6,124
8.1,-0.45,119
8.1,-0.3,120
8.1,-0.15,113
8.1,0.0,116
8.1,0.15,112
8.1,0.3,111
8.1,0.45,115
8.1,0.6,112
8.1,0.75,116
8.1,0.9,116
8.1,1.05,118
8.1,1.2,136
8.1,1.35,144
8.1,1.5,146
8.25,-1.5,85
8.25,-1.35,90
8.25,-1.2,99
8.25,-1.05,109
8.25,-0.9,116
8.25,-0.75,123
8.25,-0.6,130
8.25,-0.45,112
8.25,-0.3,120
8.25,-0.15,115
8.25,0.0,115
8.25,0.15,111
8.25,0.3,113
8.25,0.45,115
8.25,0.6,115
8.25,0.75,112
8.25,0.9,114
8.25,1.05,121
8.25,1.2,129
8.25,1.35,136
8.25,1.5,141
8.4,-1.5,79
8.4,-1.35,83
8.4,-1.2,94
8.4,-1.05,99
8.4,-0.9,104
8.4,-0.75,109
8.4,-0.6,113
8.4,-0.45,95
8.4,-0.3,120
8.4,-0.15,117
8.4,0.0,117
8.4,0.15,111
8.4,0.3,111
8.4,0.45,112
8.4,0.6,112
8.4,0.75,113
8.4,0.9,114
8.4,1.05,122
8.4,1.2,141
8.4,1.35,156
8.4,1.5,167
8.55,-1.5,104
8.55,-1.35,101
8.55,-1.2,103
8.55,-1.05,90
8.55,-0.9,86
8.55,-0.75,99
8.55,-0.6,113
8.55,-0.45,109
8.55,-0.3,110
8.55,-0.15,117
8.55,0.0,111
8.55,0.15,113
8.55,0.3,151
8.55,0.45,124
8.55,0.6,113
8.55,0.75,112
8.55,0.9,119
8.55,1.05,136
8.55,1.2,188
8.55,1.35,227
8.55,1.5,254
8.7,-1.5,118
8.7,-1.35,111
8.7,-1.2,103
8.7,-1.05,94
8.7,-0.9,92
8.7,-0.75,105
8.7,-0.6,113
8.7,-0.45,113
8.7,-0.3,113
8.7,-0.15,112
8.7,0.0,111
8.7,0.15,114
8.7,0.3,111
8.7,0.45,119
8.7,0.6,115
8.7,0.75,112
8.7,0.9,131
8.7,1.05,166
8.7,1.2,199
8.7,1.35,230
8.7,1.5,255
8.85,-1.5,130
8.85,-1.35,121
8.85,-1.2,108
8.85,-1.05,104
8.85,-0.9,102
8.85,-0.75,104
8.85,-0.6,109
8.85,-0.45,110
8.85,-0.3,111
8.85,-0.15,114
8.85,0.0,111
8.85,0.15,111
8.85,0.3,111
8.85,0.45,111
8.85,0.6,112
8.85,0.75,107
8.85,0.9,124
8.85,1.05,175
8.85,1.2,194
8.85,1.35,219
8.85,1.5,246
9.0,-1.5,134
9.0,-1.35,128
9.0,-1.2,121
9.0,-1.05,114
9.0,-0.9,109
9.0,-0.75,111
9.0,-0.6,112
9.0,-0.45,117
9.0,-0.3,117
9.0,-0.15,111
9.0,0.0,114
9.0,0.15,114
9.0,0.3,113
9.0,0.45,113
9.0,0.6,112
9.0,0.75,116
9.0,0.9,107
9.0,1.05,133
9.0,1.2,203
9.0,1.35,255
9.0,1.5,255
9.15,-1.5,142
9.15,-1.35,138
9.15,-1.2,136
9.15,-1.05,129
9.15,-0.9,123
9.15,-0.75,123
9.15,-0.6,117
9.15,-0.45,113
9.15,-0.3,111
9.15,-0.15,116
9.15,0.0,104
9.15,0.15,100
9.15,0.3,113
9.15,0.45,111
9.15,0.6,111
9.15,0.75,116
9.15,0.9,107
9.15,1.05,108
9.15,1.2,164
9.15,1.35,217
9.15,1.5,255
9.3,-1.5,152
9.3,-1.35,153
9.3,-1.2,160
9.3,-1.05,150
9.3,-0.9,139
9.3,-0.75,130
9.3,-0.6,115
9.3,-0.45,112
9.3,-0.3,112
9.3,-0.15,115
9.3,0.0,115
9.3,0.15,129
9.3,0.3,107
9.3,0.45,123
9.3,0.6,112
9.3,0.75,111
9.3,0.9,108
9.3,1.05,100
9.3,1.2,100
9.3,1.35,98
9.3,1.5,94
9.45,-1.5,157
9.45,-1.35,157
9.45,-1.2,160
9.45,-1.05,154
9.45,-0.9,143
9.45,-0.75,128
9.45,-0.6,111
9.45,-0.45,111
9.45,-0.3,114
9.45,-0.15,112
9.45,0.0,114
9.45,0.15,120
9.45,0.3,112
9.45,0.45,115
9.45,0.6,111
9.45,0.75,113
9.45,0.9,108
9.45,1.05,105
9.45,1.2,107
9.45,1.35,103
9.45,1.5,98
9.6,-1.5,164
9.6,-1.35,160
9.6,-1.2,158
9.6,-1.05,152
9.6,-0.9,139
9.6,-0.75,122
9.6,-0.6,110
9.6,-0.45,114
9.6,-0.3,114
9.6,-0.15,111
9.6,0.0,116
9.6,0.15,112
9.6,0.3,107
9.6,0.45,111
9.6,0.6,112
9.6,0.75,113
9.6,0.9,109
9.6,1.05,111
9.6,1.2,113
9.6,1.35,113
9.6,1.5,113
9.75,-1.5,185
9.75,-1.35,173
9.75,-1.2,161
9.75,-1.05,147
9.75,-0.9,130
9.75,-0.75,106
9.75,-0.6,103
9.75,-0.45,112
9.75,-0.3,114
9.75,-0.15,128
9.75,0.0,107
9.75,0.15,99
9.75,0.3,113
9.75,0.45,112
9.75,0.6,111
9.75,0.75,112
9.75,0.9,113
9.75,1.05,113
9.75,1.2,111
9.75,1.35,108
9.75,1.5,106
9.9,-1.5,191
9.9,-1.35,176
9.9,-1.2,159
9.9,-1.05,140
9.9,-0.9,122
9.9,-0.75,101
9.9,-0.6,113
9.9,-0.45,128
9.9,-0.3,115
9.9,-0.15,119
9.9,0.0,102
9.9,0.15,121
9.9,0.3,112
9.9,0.45,114
9.9,0.6,111
9.9,0.75,111
9.9,0.9,113
9.9,1.05,111
9.9,1.2,105
9.9,1.35,100
9.9,1.5,95
10.05,-1.5,187
10.05,-1.35,172
10.05,-1.2,155
10.05,-1.05,126
10.05,-0.9,107
10.05,-0.75,106
10.05,-0.6,114
10.05,-0.45,126
10.05,-0.3,119
10.05,-0.15,116
10.05,0.0,123
10.05,0.15,135
10.05,0.3,111
10.05,0.45,112
10.05,0.6,114
10.05,0.75,113
10.05,0.9,112
10.05,1.05,106
10.05,1.2,102
10.05,1.35,97
10.05,1.5,92
10.2,-1.5,175
10.2,-1.35,161
10.2,-1.2,140
10.2,-1.05,123
10.2,-0.9,114
10.2,-0.75,117
10.2,-0.6,112
10.2,-0.45,112
10.2,-0.3,118
10.2,-0.15,112
10.2,0.0,113
10.2,0.15,114
10.2,0.3,111
10.2,0.45,111
10.2,0.6,114
10.2,0.75,114
10.2,0.9,104
10.2,1.05,99
10.2,1.2,97
10.2,1.35,95
10.2,1.5,92
10.35,-1.5,143
10.35,-1.35,133
10.35,-1.2,99
10.35,-1.05,114
10.35,-0.9,124
10.35,-0.75,136
10.35,-0.6,123
10.35,-0.45,117
10.35,-0.3,112
10.35,-0.15,112
10.35,0.0,112
10.35,0.15,112
10.35,0.3,97
10.35,0.45,110
10.35,0.6,116
10.35,0.75,113
10.35,0.9,98
10.35,1.05,97
10.35,1.2,100
10.35,1.35,102
10.35,1.5,102
10.5,-1.5,119
10.5,-1.35,118
10.5,-1.2,108
10.5,-1.05,115
10.5,-0.9,122
10.5,-0.75,134
10.5,-0.6,121
10.5,-0.45,113
10.5,-0.3,113
10.5,-0.15,113
10.5,0.0,113
10.5,0.15,113
10.5,0.3,113
10.5,0.45,116
10.5,0.6,108
10.5,0.75,114
10.5,0.9,105
10.5,1.05,107
10.5,1.2,111
10.5,1.35,113
10.5,1.5,114
10.65,-1.5,107
10.65,-1.35,112
10.65,-1.2,118
10.65,-1.05,112
10.65,-0.9,108
10.65,-0.75,116
10.65,-0.6,113
10.65,-0.45,116
10.65,-0.3,114
10.65,-0.15,121
10.65,0.0,106
10.65,0.15,107
10.65,0.3,111
10.65,0.45,108
10.65,0.6,129
10.65,0.75,123
10.65,0.9,111
10.65,1.05,124
10.65,1.2,128
10.65,1.35,131
10.65,1.5,132
10.8,-1.5,95
10.8,-1.35,104
10.8,-1.2,111
10.8,-1.05,91
10.8,-0.9,73
10.8,-0.75,87
10.8,-0.6,98
10.8,-0.45,103
10.8,-0.3,82
10.8,-0.15,100
10.8,0.0,128
10.8,0.15,118
10.8,0.3,101
10.8,0.45,84
10.8,0.6,124
10.8,0.75,137
10.8,0.9,135
10.8,1.05,155
10.8,1.2,172
10.8,1.35,186
10.8,1.5,197
10.95,-1.5,85
10.95,-1.35,96
10.95,-1.2,106
10.95,-1.05,93
10.95,-0.9,80
10.95,-0.75,83
10.95,-0.6,94
10.95,-0.45,121
10.95,-0.3,121
10.95,-0.15,122
10.95,0.0,147
10.95,0.15,128
10.95,0.3,112
10.95,0.45,120
10.95,0.6,115
10.95,0.75,123
10.95,0.9,137
10.95,1.05,160
10.95,1.2,183
10.95,1.35,201
10.95,1.5,214
11.1,-1.5,79
11.1,-1.35,93
11.1,-1.2,106
11.1,-1.05,103
11.1,-0.9,98
11.1,-0.75,100
11.1,-0.6,103
11.1,-0.45,121
11.1,-0.3,118
11.1,-0.15,124
11.1,0.0,136
11.1,0.15,114
11.1,0.3,108
11.1,0.45,117
11.1,0.6,114
11.1,0.75,117
11.1,0.9,129
11.1,1.05,145
11.1,1.2,183
11.1,1.35,204
11.1,1.5,218
11.25,-1.5,48
11.25,-1.35,68
11.25,-1.2,88
11.25,-1.05,96
11.25,-0.9,101
11.25,-0.75,103
11.25,-0.6,105
11.25,-0.45,119
11.25,-0.3,114
11.25,-0.15,113
11.25,0.0,105
11.25,0.15,98
11.25,0.3,112
11.25,0.45,113
11.25,0.6,113
11.25,0.75,116
11.25,0.9,129
11.25,1.05,142
11.25,1.2,170
11.25,1.35,186
11.25,1.5,196
11.4,-1.5,26
11.4,-1.35,43
11.4,-1.2,67
11.4,-1.05,83
11.4,-0.9,94
11.4,-0.75,92
11.4,-0.6,92
11.4,-0.45,106
11.4,-0.3,112
11.4,-0.15,113
11.4,0.0,96
11.4,0.15,117
11.4,0.3,117
11.4,0.45,116
11.4,0.6,113
11.4,0.75,119
11.4,0.9,131
11.4,1.05,140
11.4,1.2,154
11.4,1.35,162
11.4,1.5,168
11.55,-1.5,26
11.55,-1.35,49
11.55,-1.2,70
11.55,-1.05,81
11.55,-0.9,90
11.55,-0.75,99
11.55,-0.6,100
11.55,-0.45,106
11.55,-0.3,114
11.55,-0.15,114
11.55,0.0,115
11.55,0.15,105
11.55,0.3,117
11.55,0.45,109
11.55,0.6,112
11.55,0.75,117
11.55,0.9,128
11.55,1.05,140
11.55,1.2,161
11.55,1.35,181
11.55,1.5,199
11.7,-1.5,0
11.7,-1.35,31
11.7,-1.2,65
11.7,-1.05,82
11.7,-0.9,101
11.7,-0.75,120
11.7,-0.6,131
11.7,-0.45,122
11.7,-0.3,111
11.7,-0.15,113
11.7,0.0,110
11.7,0.15,90
11.7,0.3,126
11.7,0.45,102
11.7,0.6,118
11.7,0.75,120
11.7,0.9,122
11.7,1.05,134
11.7,1.2,169
11.7,1.35,200
11.7,1.5,228
11.85,-1.5,0
11.85,-1.35,0
11.85,-1.2,48
11.85,-1.05,75
11.85,-0.9,95
11.85,-0.75,115
11.85,-0.6,125
11.85,-0.45,120
11.85,-0.3,122
11.85,-0.15,62
11.85,0.0,10
11.85,0.15,59
11.85,0.3,130
11.85,0.45,101
11.85,0.6,111
11.85,0.75,113
11.85,0.9,118
11.85,1.05,141
11.85,1.2,197
11.85,1.35,235
11.85,1.5,255
12.0,-1.5,0
12.0,-1.35,0
12.0,-1.2,43
12.0,-1.05,71
12.0,-0.9,82
12.0,-0.75,75
12.0,-0.6,70
12.0,-0.45,93
12.0,-0.3,115
12.0,-0.15,67
12.0,0.0,10
12.0,0.15,51
12.0,0.3,109
12.0,0.45,100
12.0,0.6,106
12.0,0.75,113
12.0,0.9,130
12.0,1.05,164
12.0,1.2,221
12.0,1.35,253
12.0,1.5,255
12.15,-1.5,105
12.15,-1.35,87
12.15,-1.2,68
12.15,-1.05,80
12.15,-0.9,91
12.15,-0.75,65
12.15,-0.6,67
12.15,-0.45,94
12.15,-0.3,108
12.15,-0.15,144
12.15,0.0,126
12.15,0.15,96
12.15,0.3,107
12.15,0.45,112
12.15,0.6,100
12.15,0.75,113
12.15,0.9,169
12.15,1.05,215
12.15,1.2,244
12.15,1.35,255
12.15,1.5,255
12.3,-1.5,105
12.3,-1.35,84
12.3,-1.2,69
12.3,-1.05,63
12.3,-0.9,76
12.3,-0.75,59
12.3,-0.6,89
12.3,-0.45,109
12.3,-0.3,109
12.3,-0.15,117
12.3,0.0,128
12.3,0.15,122
12.3,0.3,118
12.3,0.45,113
12.3,0.6,97
12.3,0.75,108
12.3,0.9,175
12.3,1.05,223
12.3,1.2,247
12.3,1.35,255
12.3,1.5,255
12.45,-1.5,105
12.45,-1.35,75
12.45,-1.2,56
12.45,-1.05,46
12.45,-0.9,71
12.45,-0.75,54
12.45,-0.6,94
12.45,-0.45,101
12.45,-0.3,108
12.45,-0.15,117
12.45,0.0,117
12.45,0.15,116
12.45,0.3,112
12.45,0.45,112
12.45,0.6,113
12.45,0.75,103
12.45,0.9,142
12.45,1.05,193
12.45,1.2,215
12.45,1.35,224
12.45,1.5,229
12.6,-1.5,136
12.6,-1.35,89
12.6,-1.2,69
12.6,-1.05,62
12.6,-0.9,71
12.6,-0.75,68
12.6,-0.6,92
12.6,-0.45,99
12.6,-0.3,106
12.6,-0.15,117
12.6,0.0,110
12.6,0.15,107
12.6,0.3,116
12.6,0.45,115
12.6,0.6,111
12.6,0.75,111
12.6,0.9,118
12.6,1.05,129
12.6,1.2,167
12.6,1.35,185
12.6,1.5,192
12.75,-1.5,131
12.75,-1.35,83
12.75,-1.2,74
12.75,-1.05,67
12.75,-0.9,66
12.75,-0.75,51
12.75,-0.6,85
12.75,-0.45,127
12.75,-0.3,112
12.75,-0.15,117
12.75,0.0,117
12.75,0.15,107
12.75,0.3,114
12.75,0.45,116
12.75,0.6,110
12.75,0.75,110
12.75,0.9,115
12.75,1.05,119
12.75,1.2,135
12.75,1.35,145
12.75,1.5,150
12.9,-1.5,115
12.9,-1.35,91
12.9,-1.2,75
12.9,-1.05,62
12.9,-0.9,49
12.9,-0.75,16
12.9,-0.6,49
12.9,-0.45,86
12.9,-0.3,115
12.9,-0.15,117
12.9,0.0,117
12.9,0.15,100
12.9,0.3,92
12.9,0.45,110
12.9,0.6,112
12.9,0.75,114
12.9,0.9,119
12.9,1.05,119
12.9,1.2,118
12.9,1.35,115
12.9,1.5,112
13.05,-1.5,109
13.05,-1.35,90
13.05,-1.2,82
13.05,-1.05,61
13.05,-0.9,42
13.05,-0.75,1
13.05,-0.6,34
13.05,-0.45,84
13.05,-0.3,111
13.05,-0.15,111
13.05,0.0,104
13.05,0.15,87
13.05,0.3,77
13.05,0.45,91
13.05,0.6,114
13.05,0.75,119
13.05,0.9,119
13.05,1.05,119
13.05,1.2,119
13.05,1.35,115
13.05,1.5,111
