-3.0,-1.5,177
-3.0,-1.35,177
-3.0,-1.2,177
-3.0,-1.05,177
-3.0,-0.9,177
-3.0,-0.75,177
-3.0,-0.6,177
-3.0,-0.45,178
-3.0,-0.3,184
-3.0,-0.15,187
-3.0,0.0,181
-3.0,0.15,173
-3.0,0.3,170
-3.0,0.45,171
-3.0,0.6,187
-3.0,0.75,206
-3.0,0.9,208
-3.0,1.05,207
-3.0,1.2,199
-3.0,1.35,187
-3.0,1.5,173
-2.85,-1.5,177
-2.85,-1.35,177
-2.85,-1.2,177
-2.85,-1.05,177
-2.85,-0.9,177
-2.85,-0.75,177
-2.85,-0.6,177
-2.85,-0.45,178
-2.85,-0.3,184
-2.85,-0.15,189
-2.85,0.0,186
-2.85,0.15,176
-2.85,0.3,166
-2.85,0.45,164
-2.85,0.6,178
-2.85,0.75,202
-2.85,0.9,210
-2.85,1.05,208
-2.85,1.2,199
-2.85,1.35,186
-2.85,1.5,173
-2.7,-1.5,177
-2.7,-1.35,177
-2.7,-1.2,177
-2.7,-1.05,177
-2.7,-0.9,177
-2.7,-0.75,177
-2.7,-0.6,177
-2.7,-0.45,177
-2.7,-0.3,183
-2.7,-0.15,189
-2.7,0.0,188
-2.7,0.15,179
-2.7,0.3,168
-2.7,0.45,164
-2.7,0.6,173
-2.7,0.75,194
-2.7,0.9,203
-2.7,1.05,202
-2.7,1.2,194
-2.7,1.35,182
-2.7,1.5,170
-2.55,-1.5,179
-2.55,-1.35,178
-2.55,-1.2,178
-2.55,-1.05,177
-2.55,-0.9,177
-2.55,-0.75,177
-2.55,-0.6,177
-2.55,-0.45,177
-2.55,-0.3,181
-2.55,-0.15,185
-2.55,0.0,185
-2.55,0.15,178
-2.55,0.3,173
-2.55,0.45,168
-2.55,0.6,170
-2.55,0.75,182
-2.55,0.9,189
-2.55,1.05,190
-2.55,1.2,186
-2.55,1.35,177
-2.55,1.5,168
-2.4,-1.5,180
-2.4,-1.35,180
-2.4,-1.2,179
-2.4,-1.05,177
-2.4,-0.9,177
-2.4,-0.75,177
-2.4,-0.6,177
-2.4,-0.45,177
-2.4,-0.3,179
-2.4,-0.15,181
-2.4,0.0,179
-2.4,0.15,177
-2.4,0.3,176
-2.4,0.45,171
-2.4,0.6,168
-2.4,0.75,172
-2.4,0.9,175
-2.4,1.05,177
-2.4,1.2,178
-2.4,1.35,173
-2.4,1.5,167
-2.25,-1.5,180
-2.25,-1.35,180
-2.25,-1.2,180
-2.25,-1.05,179
-2.25,-0.9,177
-2.25,-0.75,177
-2.25,-0.6,177
-2.25,-0.45,177
-2.25,-0.3,177
-2.25,-0.15,177
-2.25,0.0,176
-2.25,0.15,177
-2.25,0.3,177
-2.25,0.45,174
-2.25,0.6,172
-2.25,0.75,170
-2.25,0.9,171
-2.25,1.05,174
-2.25,1.2,170
-2.25,1.35,167
-2.25,1.5,162
-2.1,-1.5,180
-2.1,-1.35,180
-2.1,-1.2,180
-2.1,-1.05,180
-2.1,-0.9,179
-2.1,-0.75,177
-2.1,-0.6,177
-2.1,-0.45,181
-2.1,-0.3,182
-2.1,-0.15,180
-2.1,0.0,176
-2.1,0.15,177
-2.1,0.3,177
-2.1,0.45,175
-2.1,0.6,175
-2.1,0.75,172
-2.1,0.9,175
-2.1,1.05,175
-2.1,1.2,165
-2.1,1.35,162
-2.1,1.5,159
-1.95,-1.5,180
-1.95,-1.35,180
-1.95,-1.2,180
-1.95,-1.05,180
-1.95,-0.9,180
-1.95,-0.75,178
-1.95,-0.6,180
-1.95,-0.45,187
-1.95,-0.3,191
-1.95,-0.15,188
-1.95,0.0,180
-1.95,0.15,175
-1.95,0.3,174
-1.95,0.45,172
-1.95,0.6,172
-1.95,0.75,172
-1.95,0.9,173
-1.95,1.05,175
-1.95,1.2,173
-1.95,1.35,176
-1.95,1.5,179
-1.8,-1.5,180
-1.8,-1.35,180
-1.8,-1.2,180
-1.8,-1.05,180
-1.8,-0.9,180
-1.8,-0.75,180
-1.8,-0.6,181
-1.8,-0.45,187
-1.8,-0.3,192
-1.8,-0.15,190
-1.8,0.0,181
-1.8,0.15,175
-1.8,0.3,172
-1.8,0.45,172
-1.8,0.6,172
-1.8,0.75,172
-1.8,0.9,172
-1.8,1.05,174
-1.8,1.2,186
-1.8,1.35,195
-1.8,1.5,205
-1.65,-1.5,180
-1.65,-1.35,180
-1.65,-1.2,180
-1.65,-1.05,180
-1.65,-0.9,180
-1.65,-0.75,180
-1.65,-0.6,179
-1.65,-0.45,180
-1.65,-0.3,182
-1.65,-0.15,184
-1.65,0.0,183
-1.65,0.15,179
-1.65,0.3,173
-1.65,0.45,172
-1.65,0.6,172
-1.65,0.75,172
-1.65,0.9,172
-1.65,1.05,173
-1.65,1.2,181
-1.65,1.35,186
-1.65,1.5,192
-1.5,-1.5,180
-1.5,-1.35,180
-1.5,-1.2,177
-1.5,-1.05,178
-1.5,-0.9,180
-1.5,-0.75,180
-1.5,-0.6,176
-1.5,-0.45,177
-1.5,-0.3,177
-1.5,-0.15,179
-1.5,0.0,184
-1.5,0.15,184
-1.5,0.3,179
-1.5,0.45,175
-1.5,0.6,172
-1.5,0.75,172
-1.5,0.9,172
-1.5,1.05,173
-1.5,1.2,177
-1.5,1.35,178
-1.5,1.5,179
-1.35,-1.5,174
-1.35,-1.35,174
-1.35,-1.2,170
-1.35,-1.05,170
-1.35,-0.9,173
-1.35,-0.75,177
-1.35,-0.6,176
-1.35,-0.45,178
-1.35,-0.3,177
-1.35,-0.15,177
-1.35,0.0,182
-1.35,0.15,184
-1.35,0.3,182
-1.35,0.45,178
-1.35,0.6,175
-1.35,0.75,173
-1.35,0.9,173
-1.35,1.05,176
-1.35,1.2,180
-1.35,1.35,183
-1.35,1.5,185
-1.2,-1.5,159
-1.2,-1.35,164
-1.2,-1.2,165
-1.2,-1.05,161
-1.2,-0.9,163
-1.2,-0.75,171
-1.2,-0.6,180
-1.2,-0.45,182
-1.2,-0.3,177
-1.2,-0.15,177
-1.2,0.0,177
-1.2,0.15,180
-1.2,0.3,179
-1.2,0.45,178
-1.2,0.6,176
-1.2,0.75,174
-1.2,0.9,175
-1.2,1.05,178
-1.2,1.2,186
-1.2,1.35,191
-1.2,1.5,197
-1.05,-1.5,153
-1.05,-1.35,159
-1.05,-1.2,160
-1.05,-1.05,156
-1.05,-0.9,157
-1.05,-0.75,167
-1.05,-0.6,181
-1.05,-0.45,184
-1.05,-0.3,179
-1.05,-0.15,177
-1.05,0.0,177
-1.05,0.15,175
-1.05,0.3,174
-1.05,0.45,174
-1.05,0.6,175
-1.05,0.75,174
-1.05,0.9,174
-1.05,1.05,178
-1.05,1.2,185
-1.05,1.35,191
-1.05,1.5,196
-0.9,-1.5,152
-0.9,-1.35,158
-0.9,-1.2,156
-0.9,-1.05,158
-0.9,-0.9,166
-0.9,-0.75,175
-0.9,-0.6,191
-0.9,-0.45,194
-0.9,-0.3,187
-0.9,-0.15,179
-0.9,0.0,175
-0.9,0.15,174
-0.9,0.3,174
-0.9,0.45,174
-0.9,0.6,174
-0.9,0.75,174
-0.9,0.9,174
-0.9,1.05,179
-0.9,1.2,182
-0.9,1.35,186
-0.9,1.5,191
-0.75,-1.5,147
-0.75,-1.35,155
-0.75,-1.2,160
-0.75,-1.05,173
-0.75,-0.9,189
-0.75,-0.75,201
-0.75,-0.6,207
-0.75,-0.45,199
-0.75,-0.3,182
-0.75,-0.15,176
-0.75,0.0,176
-0.75,0.15,176
-0.75,0.3,175
-0.75,0.45,174
-0.75,0.6,174
-0.75,0.75,174
-0.75,0.9,174
-0.75,1.05,179
-0.75,1.2,181
-0.75,1.35,186
-0.75,1.5,190
-0.6,-1.5,135
-0.6,-1.35,148
-0.6,-1.2,162
-0.6,-1.05,182
-0.6,-0.9,211
-0.6,-0.75,233
-0.6,-0.6,225
-0.6,-0.45,196
-0.6,-0.3,176
-0.6,-0.15,176
-0.6,0.0,177
-0.6,0.15,177
-0.6,0.3,177
-0.6,0.45,180
-0.6,0.6,177
-0.6,0.75,176
-0.6,0.9,176
-0.6,1.05,179
-0.6,1.2,182
-0.6,1.35,186
-0.6,1.5,190
-0.45,-1.5,141
-0.45,-1.35,153
-0.45,-1.2,167
-0.45,-1.05,184
-0.45,-0.9,213
-0.45,-0.75,239
-0.45,-0.6,227
-0.45,-0.45,191
-0.45,-0.3,177
-0.45,-0.15,176
-0.45,0.0,176
-0.45,0.15,176
-0.45,0.3,178
-0.45,0.45,184
-0.45,0.6,187
-0.45,0.75,185
-0.45,0.9,180
-0.45,1.05,181
-0.45,1.2,184
-0.45,1.35,188
-0.45,1.5,190
-0.3,-1.5,167
-0.3,-1.35,176
-0.3,-1.2,175
-0.3,-1.05,188
-0.3,-0.9,202
-0.3,-0.75,208
-0.3,-0.6,182
-0.3,-0.45,179
-0.3,-0.3,179
-0.3,-0.15,177
-0.3,0.0,178
-0.3,0.15,176
-0.3,0.3,185
-0.3,0.45,189
-0.3,0.6,187
-0.3,0.75,183
-0.3,0.9,180
-0.3,1.05,181
-0.3,1.2,186
-0.3,1.35,190
-0.3,1.5,190
-0.15,-1.5,200
-0.15,-1.35,198
-0.15,-1.2,179
-0.15,-1.05,184
-0.15,-0.9,192
-0.15,-0.75,182
-0.15,-0.6,171
-0.15,-0.45,179
-0.15,-0.3,179
-0.15,-0.15,189
-0.15,0.0,189
-0.15,0.15,189
-0.15,0.3,195
-0.15,0.45,186
-0.15,0.6,177
-0.15,0.75,177
-0.15,0.9,179
-0.15,1.05,182
-0.15,1.2,186
-0.15,1.35,188
-0.15,1.5,190
0.0,-1.5,255
0.0,-1.35,240
0.0,-1.2,184
0.0,-1.05,184
0.0,-0.9,192
0.0,-0.75,181
0.0,-0.6,176
0.0,-0.45,169
0.0,-0.3,171
0.0,-0.15,189
0.0,0.0,181
0.0,0.15,178
0.0,0.3,185
0.0,0.45,172
0.0,0.6,163
0.0,0.75,168
0.0,0.9,176
0.0,1.05,181
0.0,1.2,181
0.0,1.35,179
0.0,1.5,179
0.15,-1.5,255
0.15,-1.35,251
0.15,-1.2,191
0.15,-1.05,176
0.15,-0.9,178
0.15,-0.75,185
0.15,-0.6,182
0.15,-0.45,165
0.15,-0.3,164
0.15,-0.15,175
0.15,0.0,177
0.15,0.15,182
0.15,0.3,179
0.15,0.45,164
0.15,0.6,156
0.15,0.75,163
0.15,0.9,174
0.15,1.05,179
0.15,1.2,179
0.15,1.35,179
0.15,1.5,179
0.3,-1.5,251
0.3,-1.35,242
0.3,-1.2,213
0.3,-1.05,180
0.3,-0.9,153
0.3,-0.75,174
0.3,-0.6,203
0.3,-0.45,179
0.3,-0.3,174
0.3,-0.15,176
0.3,0.0,174
0.3,0.15,178
0.3,0.3,174
0.3,0.45,169
0.3,0.6,161
0.3,0.75,165
0.3,0.9,185
0.3,1.05,190
0.3,1.2,187
0.3,1.35,192
0.3,1.5,196
0.45,-1.5,245
0.45,-1.35,241
0.45,-1.2,224
0.45,-1.05,195
0.45,-0.9,167
0.45,-0.75,184
0.45,-0.6,203
0.45,-0.45,173
0.45,-0.3,174
0.45,-0.15,178
0.45,0.0,177
0.45,0.15,173
0.45,0.3,171
0.45,0.45,174
0.45,0.6,181
0.45,0.75,182
0.45,0.9,196
0.45,1.05,196
0.45,1.2,191
0.45,1.35,197
0.45,1.5,203
0.6,-1.5,222
0.6,-1.35,223
0.6,-1.2,213
0.6,-1.05,195
0.6,-0.9,177
0.6,-0.75,168
0.6,-0.6,174
0.6,-0.45,172
0.6,-0.3,172
0.6,-0.15,172
0.6,0.0,178
0.6,0.15,178
0.6,0.3,193
0.6,0.45,197
0.6,0.6,224
0.6,0.75,223
0.6,0.9,186
0.6,1.05,188
0.6,1.2,190
0.6,1.35,196
0.6,1.5,200
0.75,-1.5,194
0.75,-1.35,199
0.75,-1.2,194
0.75,-1.05,184
0.75,-0.9,171
0.75,-0.75,168
0.75,-0.6,172
0.75,-0.45,184
0.75,-0.3,179
0.75,-0.15,175
0.75,0.0,176
0.75,0.15,179
0.75,0.3,197
0.75,0.45,186
0.75,0.6,211
0.75,0.75,219
0.75,0.9,189
0.75,1.05,191
0.75,1.2,189
0.75,1.35,192
0.75,1.5,195
0.9,-1.5,160
0.9,-1.35,172
0.9,-1.2,175
0.9,-1.05,173
0.9,-0.9,173
0.9,-0.75,171
0.9,-0.6,187
0.9,-0.45,189
0.9,-0.3,179
0.9,-0.15,181
0.9,0.0,184
0.9,0.15,186
0.9,0.3,174
0.9,0.45,164
0.9,0.6,180
0.9,0.75,193
0.9,0.9,198
0.9,1.05,195
0.9,1.2,175
0.9,1.35,173
0.9,1.5,171
1.05,-1.5,152
1.05,-1.35,161
1.05,-1.2,173
1.05,-1.05,177
1.05,-0.9,177
1.05,-0.75,175
1.05,-0.6,174
1.05,-0.45,174
1.05,-0.3,174
1.05,-0.15,181
1.05,0.0,186
1.05,0.15,176
1.05,0.3,162
1.05,0.45,170
1.05,0.6,179
1.05,0.75,185
1.05,0.9,191
1.05,1.05,188
1.05,1.2,168
1.05,1.35,163
1.05,1.5,159
1.2,-1.5,164
1.2,-1.35,166
1.2,-1.2,172
1.2,-1.05,176
1.2,-0.9,177
1.2,-0.75,177
1.2,-0.6,177
1.2,-0.45,176
1.2,-0.3,177
1.2,-0.15,186
1.2,0.0,182
1.2,0.15,176
1.2,0.3,179
1.2,0.45,185
1.2,0.6,185
1.2,0.75,178
1.2,0.9,170
1.2,1.05,164
1.2,1.2,156
1.2,1.35,150
1.2,1.5,144
1.35,-1.5,168
1.35,-1.35,168
1.35,-1.2,170
1.35,-1.05,172
1.35,-0.9,173
1.35,-0.75,176
1.35,-0.6,177
1.35,-0.45,177
1.35,-0.3,175
1.35,-0.15,179
1.35,0.0,176
1.35,0.15,179
1.35,0.3,181
1.35,0.45,183
1.35,0.6,181
1.35,0.75,172
1.35,0.9,161
1.35,1.05,154
1.35,1.2,150
1.35,1.35,143
1.35,1.5,137
1.5,-1.5,170
1.5,-1.35,170
1.5,-1.2,171
1.5,-1.05,170
1.5,-0.9,172
1.5,-0.75,175
1.5,-0.6,176
1.5,-0.45,175
1.5,-0.3,176
1.5,-0.15,177
1.5,0.0,179
1.5,0.15,181
1.5,0.3,175
1.5,0.45,175
1.5,0.6,175
1.5,0.75,169
1.5,0.9,157
1.5,1.05,150
1.5,1.2,154
1.5,1.35,152
1.5,1.5,152
1.65,-1.5,170
1.65,-1.35,170
1.65,-1.2,174
1.65,-1.05,174
1.65,-0.9,174
1.65,-0.75,174
1.65,-0.6,176
1.65,-0.45,174
1.65,-0.3,169
1.65,-0.15,172
1.65,0.0,172
1.65,0.15,177
1.65,0.3,175
1.65,0.45,181
1.65,0.6,177
1.65,0.75,165
1.65,0.9,154
1.65,1.05,147
1.65,1.2,152
1.65,1.35,152
1.65,1.5,152
1.8,-1.5,170
1.8,-1.35,170
1.8,-1.2,174
1.8,-1.05,176
1.8,-0.9,181
1.8,-0.75,174
1.8,-0.6,174
1.8,-0.45,166
1.8,-0.3,160
1.8,-0.15,177
1.8,0.0,176
1.8,0.15,178
1.8,0.3,187
1.8,0.45,197
1.8,0.6,182
1.8,0.75,162
1.8,0.9,153
1.8,1.05,147
1.8,1.2,141
1.8,1.35,136
1.8,1.5,132
1.95,-1.5,172
1.95,-1.35,173
1.95,-1.2,175
1.95,-1.05,178
1.95,-0.9,187
1.95,-0.75,183
1.95,-0.6,173
1.95,-0.45,182
1.95,-0.3,209
1.95,-0.15,179
1.95,0.0,177
1.95,0.15,173
1.95,0.3,187
1.95,0.45,196
1.95,0.6,183
1.95,0.75,165
1.95,0.9,154
1.95,1.05,149
1.95,1.2,142
1.95,1.35,135
1.95,1.5,129
2.1,-1.5,169
2.1,-1.35,171
2.1,-1.2,176
2.1,-1.05,177
2.1,-0.9,182
2.1,-0.75,186
2.1,-0.6,178
2.1,-0.45,177
2.1,-0.3,192
2.1,-0.15,176
2.1,0.0,176
2.1,0.15,167
2.1,0.3,170
2.1,0.45,180
2.1,0.6,174
2.1,0.75,167
2.1,0.9,159
2.1,1.05,155
2.1,1.2,156
2.1,1.35,152
2.1,1.5,147
2.25,-1.5,167
2.25,-1.35,170
2.25,-1.2,174
2.25,-1.05,172
2.25,-0.9,172
2.25,-0.75,175
2.25,-0.6,177
2.25,-0.45,176
2.25,-0.3,180
2.25,-0.15,176
2.25,0.0,177
2.25,0.15,168
2.25,0.3,164
2.25,0.45,172
2.25,0.6,169
2.25,0.75,169
2.25,0.9,163
2.25,1.05,158
2.25,1.2,159
2.25,1.35,155
2.25,1.5,151
2.4,-1.5,165
2.4,-1.35,169
2.4,-1.2,172
2.4,-1.05,173
2.4,-0.9,172
2.4,-0.75,172
2.4,-0.6,176
2.4,-0.45,176
2.4,-0.3,177
2.4,-0.15,177
2.4,0.0,176
2.4,0.15,173
2.4,0.3,160
2.4,0.45,157
2.4,0.6,173
2.4,0.75,173
2.4,0.9,166
2.4,1.05,160
2.4,1.2,157
2.4,1.35,152
2.4,1.5,148
2.55,-1.5,163
2.55,-1.35,167
2.55,-1.2,171
2.55,-1.05,174
2.55,-0.9,175
2.55,-0.75,175
2.55,-0.6,176
2.55,-0.45,177
2.55,-0.3,177
2.55,-0.15,177
2.55,0.0,174
2.55,0.15,175
2.55,0.3,168
2.55,0.45,163
2.55,0.6,176
2.55,0.75,176
2.55,0.9,168
2.55,1.05,159
2.55,1.2,153
2.55,1.35,147
2.55,1.5,141
2.7,-1.5,169
2.7,-1.35,173
2.7,-1.2,174
2.7,-1.05,171
2.7,-0.9,171
2.7,-0.75,174
2.7,-0.6,175
2.7,-0.45,179
2.7,-0.3,177
2.7,-0.15,180
2.7,0.0,178
2.7,0.15,178
2.7,0.3,177
2.7,0.45,176
2.7,0.6,176
2.7,0.75,176
2.7,0.9,167
2.7,1.05,154
2.7,1.2,128
2.7,1.35,105
2.7,1.5,83
2.85,-1.5,173
2.85,-1.35,179
2.85,-1.2,180
2.85,-1.05,171
2.85,-0.9,171
2.85,-0.75,174
2.85,-0.6,181
2.85,-0.45,184
2.85,-0.3,175
2.85,-0.15,180
2.85,0.0,174
2.85,0.15,178
2.85,0.3,178
2.85,0.45,175
2.85,0.6,176
2.85,0.75,175
2.85,0.9,165
2.85,1.05,147
2.85,1.2,109
2.85,1.35,80
2.85,1.5,50
3.0,-1.5,170
3.0,-1.35,178
3.0,-1.2,190
3.0,-1.05,188
3.0,-0.9,176
3.0,-0.75,184
3.0,-0.6,184
3.0,-0.45,174
3.0,-0.3,194
3.0,-0.15,174
3.0,0.0,174
3.0,0.15,174
3.0,0.3,174
3.0,0.45,173
3.0,0.6,174
3.0,0.75,169
3.0,0.9,151
3.0,1.05,130
3.0,1.2,115
3.0,1.35,100
3.0,1.5,87
3.15,-1.5,170
3.15,-1.35,170
3.15,-1.2,182
3.15,-1.05,184
3.15,-0.9,178
3.15,-0.75,175
3.15,-0.6,175
3.15,-0.45,164
3.15,-0.3,200
3.15,-0.15,176
3.15,0.0,180
3.15,0.15,176
3.15,0.3,173
3.15,0.45,172
3.15,0.6,170
3.15,0.75,162
3.15,0.9,127
3.15,1.05,105
3.15,1.2,114
3.15,1.35,110
3.15,1.5,108
3.3,-1.5,173
3.3,-1.35,170
3.3,-1.2,169
3.3,-1.05,166
3.3,-0.9,176
3.3,-0.75,179
3.3,-0.6,180
3.3,-0.45,193
3.3,-0.3,255
3.3,-0.15,200
3.3,0.0,176
3.3,0.15,171
3.3,0.3,176
3.3,0.45,171
3.3,0.6,161
3.3,0.75,132
3.3,0.9,102
3.3,1.05,87
3.3,1.2,108
3.3,1.35,113
3.3,1.5,120
3.45,-1.5,175
3.45,-1.35,167
3.45,-1.2,158
3.45,-1.05,152
3.45,-0.9,152
3.45,-0.75,166
3.45,-0.6,204
3.45,-0.45,177
3.45,-0.3,180
3.45,-0.15,172
3.45,0.0,179
3.45,0.15,163
3.45,0.3,181
3.45,0.45,192
3.45,0.6,168
3.45,0.75,109
3.45,0.9,82
3.45,1.05,74
3.45,1.2,106
3.45,1.35,116
3.45,1.5,127
3.6,-1.5,175
3.6,-1.35,173
3.6,-1.2,202
3.6,-1.05,192
3.6,-0.9,147
3.6,-0.75,159
3.6,-0.6,186
3.6,-0.45,193
3.6,-0.3,154
3.6,-0.15,178
3.6,0.0,180
3.6,0.15,179
3.6,0.3,195
3.6,0.45,210
3.6,0.6,162
3.6,0.75,101
3.6,0.9,43
3.6,1.05,32
3.6,1.2,111
3.6,1.35,117
3.6,1.5,124
3.75,-1.5,175
3.75,-1.35,175
3.75,-1.2,229
3.75,-1.05,225
3.75,-0.9,173
3.75,-0.75,147
3.75,-0.6,178
3.75,-0.45,203
3.75,-0.3,186
3.75,-0.15,180
3.75,0.0,176
3.75,0.15,177
3.75,0.3,187
3.75,0.45,190
3.75,0.6,181
3.75,0.75,136
3.75,0.9,49
3.75,1.05,19
3.75,1.2,124
3.75,1.35,124
3.75,1.5,124
3.9,-1.5,148
3.9,-1.35,159
3.9,-1.2,192
3.9,-1.05,194
3.9,-0.9,180
3.9,-0.75,147
3.9,-0.6,149
3.9,-0.45,191
3.9,-0.3,176
3.9,-0.15,155
3.9,0.0,174
3.9,0.15,187
3.9,0.3,161
3.9,0.45,164
3.9,0.6,190
3.9,0.75,179
3.9,0.9,70
3.9,1.05,4
3.9,1.2,0
3.9,1.35,0
3.9,1.5,0
4.05,-1.5,114
4.05,-1.35,130
4.05,-1.2,131
4.05,-1.05,128
4.05,-0.9,140
4.05,-0.75,156
4.05,-0.6,171
4.05,-0.45,175
4.05,-0.3,177
4.05,-0.15,238
4.05,0.0,180
4.05,0.15,187
4.05,0.3,157
4.05,0.45,129
4.05,0.6,180
4.05,0.75,165
4.05,0.9,87
4.05,1.05,17
4.05,1.2,0
4.05,1.35,0
4.05,1.5,0
4.2,-1.5,146
4.2,-1.35,125
4.2,-1.2,68
4.2,-1.05,66
4.2,-0.9,97
4.2,-0.75,168
4.2,-0.6,182
4.2,-0.45,172
4.2,-0.3,171
4.2,-0.15,171
4.2,0.0,177
4.2,0.15,174
4.2,0.3,137
4.2,0.45,170
4.2,0.6,177
4.2,0.75,141
4.2,0.9,103
4.2,1.05,86
4.2,1.2,70
4.2,1.35,32
4.2,1.5,0
4.35,-1.5,164
4.35,-1.35,121
4.35,-1.2,31
4.35,-1.05,28
4.35,-0.9,80
4.35,-0.75,186
4.35,-0.6,188
4.35,-0.45,194
4.35,-0.3,158
4.35,-0.15,177
4.35,0.0,177
4.35,0.15,177
4.35,0.3,198
4.35,0.45,198
4.35,0.6,199
4.35,0.75,176
4.35,0.9,110
4.35,1.05,119
4.35,1.2,180
4.35,1.35,166
4.35,1.5,151
4.5,-1.5,164
4.5,-1.35,140
4.5,-1.2,54
4.5,-1.05,33
4.5,-0.9,82
4.5,-0.75,170
4.5,-0.6,206
4.5,-0.45,143
4.5,-0.3,199
4.5,-0.15,199
4.5,0.0,169
4.5,0.15,174
4.5,0.3,146
4.5,0.45,68
4.5,0.6,163
4.5,0.75,232
4.5,0.9,138
4.5,1.05,106
4.5,1.2,99
4.5,1.35,67
4.5,1.5,33
4.65,-1.5,186
4.65,-1.35,181
4.65,-1.2,113
4.65,-1.05,71
4.65,-0.9,85
4.65,-0.75,119
4.65,-0.6,179
4.65,-0.45,211
4.65,-0.3,175
4.65,-0.15,173
4.65,0.0,171
4.65,0.15,161
4.65,0.3,161
4.65,0.45,113
4.65,0.6,144
4.65,0.75,210
4.65,0.9,153
4.65,1.05,97
4.65,1.2,40
4.65,1.35,0
4.65,1.5,0
4.8,-1.5,226
4.8,-1.35,218
4.8,-1.2,197
4.8,-1.05,157
4.8,-0.9,142
4.8,-0.75,156
4.8,-0.6,169
4.8,-0.45,187
4.8,-0.3,188
4.8,-0.15,178
4.8,0.0,172
4.8,0.15,186
4.8,0.3,171
4.8,0.45,170
4.8,0.6,177
4.8,0.75,189
4.8,0.9,189
4.8,1.05,153
4.8,1.2,55
4.8,1.35,0
4.8,1.5,0
4.95,-1.5,233
4.95,-1.35,219
4.95,-1.2,219
4.95,-1.05,181
4.95,-0.9,150
4.95,-0.75,172
4.95,-0.6,204
4.95,-0.45,161
4.95,-0.3,188
4.95,-0.15,185
4.95,0.0,158
4.95,0.15,174
4.95,0.3,186
4.95,0.45,189
4.95,0.6,189
4.95,0.75,182
4.95,0.9,180
4.95,1.05,161
4.95,1.2,60
4.95,1.35,8
4.95,1.5,0
5.1,-1.5,236
5.1,-1.35,214
5.1,-1.2,199
5.1,-1.05,162
5.1,-0.9,138
5.1,-0.75,180
5.1,-0.6,191
5.1,-0.45,176
5.1,-0.3,179
5.1,-0.15,173
5.1,0.0,185
5.1,0.15,176
5.1,0.3,173
5.1,0.45,182
5.1,0.6,189
5.1,0.75,181
5.1,0.9,164
5.1,1.05,144
5.1,1.2,106
5.1,1.35,85
5.1,1.5,66
5.25,-1.5,242
5.25,-1.35,214
5.25,-1.2,182
5.25,-1.05,168
5.25,-0.9,153
5.25,-0.75,191
5.25,-0.6,186
5.25,-0.45,178
5.25,-0.3,181
5.25,-0.15,150
5.25,0.0,174
5.25,0.15,173
5.25,0.3,186
5.25,0.45,182
5.25,0.6,179
5.25,0.75,176
5.25,0.9,162
5.25,1.05,139
5.25,1.2,116
5.25,1.35,112
5.25,1.5,112
5.4,-1.5,237
5.4,-1.35,212
5.4,-1.2,195
5.4,-1.05,186
5.4,-0.9,177
5.4,-0.75,191
5.4,-0.6,175
5.4,-0.45,174
5.4,-0.3,206
5.4,-0.15,175
5.4,0.0,172
5.4,0.15,172
5.4,0.3,192
5.4,0.45,188
5.4,0.6,170
5.4,0.75,162
5.4,0.9,145
5.4,1.05,120
5.4,1.2,91
5.4,1.35,75
5.4,1.5,63
5.55,-1.5,236
5.55,-1.35,214
5.55,-1.2,206
5.55,-1.05,190
5.55,-0.9,174
5.55,-0.75,181
5.55,-0.6,149
5.55,-0.45,180
5.55,-0.3,180
5.55,-0.15,175
5.55,0.0,172
5.55,0.15,201
5.55,0.3,178
5.55,0.45,178
5.55,0.6,160
5.55,0.75,146
5.55,0.9,120
5.55,1.05,96
5.55,1.2,90
5.55,1.35,74
5.55,1.5,60
5.7,-1.5,230
5.7,-1.35,213
5.7,-1.2,200
5.7,-1.05,187
5.7,-0.9,174
5.7,-0.75,181
5.7,-0.6,174
5.7,-0.45,176
5.7,-0.3,188
5.7,-0.15,174
5.7,0.0,173
5.7,0.15,186
5.7,0.3,188
5.7,0.45,182
5.7,0.6,167
5.7,0.75,137
5.7,0.9,106
5.7,1.05,87
5.7,1.2,85
5.7,1.35,72
5.7,1.5,60
5.85,-1.5,212
5.85,-1.35,202
5.85,-1.2,195
5.85,-1.05,190
5.85,-0.9,180
5.85,-0.75,174
5.85,-0.6,174
5.85,-0.45,175
5.85,-0.3,175
5.85,-0.15,172
5.85,0.0,173
5.85,0.15,177
5.85,0.3,174
5.85,0.45,200
5.85,0.6,182
5.85,0.75,134
5.85,0.9,108
5.85,1.05,92
5.85,1.2,89
5.85,1.35,77
5.85,1.5,66
6.0,-1.5,190
6.0,-1.35,185
6.0,-1.2,181
6.0,-1.05,181
6.0,-0.9,183
6.0,-0.75,178
6.0,-0.6,177
6.0,-0.45,197
6.0,-0.3,155
6.0,-0.15,176
6.0,0.0,191
6.0,0.15,174
6.0,0.3,178
6.0,0.45,186
6.0,0.6,174
6.0,0.75,145
6.0,0.9,117
6.0,1.05,97
6.0,1.2,90
6.0,1.35,78
6.0,1.5,68
6.15,-1.5,167
6.15,-1.35,168
6.15,-1.2,152
6.15,-1.05,153
6.15,-0.9,176
6.15,-0.75,183
6.15,-0.6,176
6.15,-0.45,182
6.15,-0.3,171
6.15,-0.15,194
6.15,0.0,177
6.15,0.15,177
6.15,0.3,179
6.15,0.45,173
6.15,0.6,162
6.15,0.75,155
6.15,0.9,133
6.15,1.05,111
6.15,1.2,96
6.15,1.35,82
6.15,1.5,70
6.3,-1.5,163
6.3,-1.35,163
6.3,-1.2,146
6.3,-1.05,146
6.3,-0.9,166
6.3,-0.75,176
6.3,-0.6,176
6.3,-0.45,182
6.3,-0.3,175
6.3,-0.15,176
6.3,0.0,181
6.3,0.15,177
6.3,0.3,178
6.3,0.45,174
6.3,0.6,166
6.3,0.75,162
6.3,0.9,154
6.3,1.05,134
6.3,1.2,107
6.3,1.35,90
6.3,1.5,75
6.45,-1.5,165
6.45,-1.35,163
6.45,-1.2,155
6.45,-1.05,162
6.45,-0.9,176
6.45,-0.75,180
6.45,-0.6,176
6.45,-0.45,181
6.45,-0.3,173
6.45,-0.15,172
6.45,0.0,171
6.45,0.15,174
6.45,0.3,174
6.45,0.45,171
6.45,0.6,175
6.45,0.75,171
6.45,0.9,173
6.45,1.05,157
6.45,1.2,122
6.45,1.35,105
6.45,1.5,89
6.6,-1.5,165
6.6,-1.35,166
6.6,-1.2,167
6.6,-1.05,171
6.6,-0.9,175
6.6,-0.75,177
6.6,-0.6,180
6.6,-0.45,184
6.6,-0.3,179
6.6,-0.15,172
6.6,0.0,169
6.6,0.15,181
6.6,0.3,181
6.6,0.45,180
6.6,0.6,176
6.6,0.75,173
6.6,0.9,172
6.6,1.05,163
6.6,1.2,144
6.6,1.35,130
6.6,1.5,116
6.75,-1.5,175
6.75,-1.35,176
6.75,-1.2,176
6.75,-1.05,176
6.75,-0.9,180
6.75,-0.75,191
6.75,-0.6,171
6.75,-0.45,191
6.75,-0.3,164
6.75,-0.15,181
6.75,0.0,181
6.75,0.15,169
6.75,0.3,171
6.75,0.45,176
6.75,0.6,175
6.75,0.75,173
6.75,0.9,163
6.75,1.05,161
6.75,1.2,162
6.75,1.35,151
6.75,1.5,138
6.9,-1.5,191
6.9,-1.35,189
6.9,-1.2,184
6.9,-1.05,174
6.9,-0.9,178
6.9,-0.75,206
6.9,-0.6,160
6.9,-0.45,164
6.9,-0.3,181
6.9,-0.15,178
6.9,0.0,169
6.9,0.15,176
6.9,0.3,169
6.9,0.45,170
6.9,0.6,170
6.9,0.75,170
6.9,0.9,161
6.9,1.05,161
6.9,1.2,167
6.9,1.35,159
6.9,1.5,150
7.05,-1.5,201
7.05,-1.35,201
7.05,-1.2,208
7.05,-1.05,181
7.05,-0.9,166
7.05,-0.75,186
7.05,-0.6,175
7.05,-0.45,179
7.05,-0.3,182
7.05,-0.15,194
7.05,0.0,173
7.05,0.15,204
7.05,0.3,180
7.05,0.45,169
7.05,0.6,164
7.05,0.75,164
7.05,0.9,170
7.05,1.05,168
7.05,1.2,177
7.05,1.35,174
7.05,1.5,170
7.2,-1.5,205
7.2,-1.35,207
7.2,-1.2,229
7.2,-1.05,220
7.2,-0.9,196
7.2,-0.75,165
7.2,-0.6,186
7.2,-0.45,174
7.2,-0.3,181
7.2,-0.15,175
7.2,0.0,172
7.2,0.15,183
7.2,0.3,169
7.2,0.45,174
7.2,0.6,168
7.2,0.75,165
7.2,0.9,177
7.2,1.05,174
7.2,1.2,180
7.2,1.35,177
7.2,1.5,173
7.35,-1.5,202
7.35,-1.35,206
7.35,-1.2,231
7.35,-1.05,238
7.35,-0.9,197
7.35,-0.75,134
7.35,-0.6,151
7.35,-0.45,183
7.35,-0.3,175
7.35,-0.15,178
7.35,0.0,180
7.35,0.15,172
7.35,0.3,191
7.35,0.45,191
7.35,0.6,172
7.35,0.75,164
7.35,0.9,184
7.35,1.05,184
7.35,1.2,181
7.35,1.35,178
7.35,1.5,174
7.5,-1.5,184
7.5,-1.35,188
7.5,-1.2,214
7.5,-1.05,216
7.5,-0.9,167
7.5,-0.75,141
7.5,-0.6,163
7.5,-0.45,179
7.5,-0.3,177
7.5,-0.15,172
7.5,0.0,172
7.5,0.15,174
7.5,0.3,204
7.5,0.45,188
7.5,0.6,161
7.5,0.75,155
7.5,0.9,175
7.5,1.05,181
7.5,1.2,184
7.5,1.35,182
7.5,1.5,180
7.65,-1.5,152
7.65,-1.35,155
7.65,-1.2,170
7.65,-1.05,174
7.65,-0.9,162
7.65,-0.75,169
7.65,-0.6,181
7.65,-0.45,177
7.65,-0.3,174
7.65,-0.15,174
7.65,0.0,184
7.65,0.15,184
7.65,0.3,182
7.65,0.45,166
7.65,0.6,153
7.65,0.75,155
7.65,0.9,161
7.65,1.05,178
7.65,1.2,190
7.65,1.35,191
7.65,1.5,191
7.8,-1.5,136
7.8,-1.35,144
7.8,-1.2,157
7.8,-1.05,168
7.8,-0.9,181
7.8,-0.75,182
7.8,-0.6,196
7.8,-0.45,207
7.8,-0.3,179
7.8,-0.15,172
7.8,0.0,175
7.8,0.15,175
7.8,0.3,175
7.8,0.45,164
7.8,0.6,156
7.8,0.75,160
7.8,0.9,169
7.8,1.05,184
7.8,1.2,192
7.8,1.35,196
7.8,1.5,198
7.95,-1.5,124
7.95,-1.35,144
7.95,-1.2,164
7.95,-1.05,181
7.95,-0.9,189
7.95,-0.75,173
7.95,-0.6,173
7.95,-0.45,173
7.95,-0.3,178
7.95,-0.15,162
7.95,0.0,180
7.95,0.15,175
7.95,0.3,187
7.95,0.45,191
7.95,0.6,180
7.95,0.75,174
7.95,0.9,182
7.95,1.05,194
7.95,1.2,195
7.95,1.35,202
7.95,1.5,210
8.1,-1.5,138
8.1,-1.35,162
8.1,-1.2,184
8.1,-1.05,203
8.1,-0.9,206
8.1,-0.75,190
8.1,-0.6,189
8.1,-0.45,173
8.1,-0.3,173
8.1,-0.15,176
8.1,0.0,184
8.1,0.15,175
8.1,0.3,192
8.1,0.45,205
8.1,0.6,193
8.1,0.75,186
8.1,0.9,193
8.1,1.05,195
8.1,1.2,190
8.1,1.35,196
8.1,1.5,202
8.25,-1.5,151
8.25,-1.35,174
8.25,-1.2,198
8.25,-1.05,206
8.25,-0.9,192
8.25,-0.75,179
8.25,-0.6,190
8.25,-0.45,180
8.25,-0.3,181
8.25,-0.15,177
8.25,0.0,184
8.25,0.15,184
8.25,0.3,189
8.25,0.45,192
8.25,0.6,188
8.25,0.75,185
8.25,0.9,194
8.25,1.05,193
8.25,1.2,189
8.25,1.35,190
8.25,1.5,193
8.4,-1.5,163
8.4,-1.35,181
8.4,-1.2,213
8.4,-1.05,207
8.4,-0.9,189
8.4,-0.75,179
8.4,-0.6,180
8.4,-0.45,176
8.4,-0.3,181
8.4,-0.15,181
8.4,0.0,174
8.4,0.15,176
8.4,0.3,170
8.4,0.45,179
8.4,0.6,185
8.4,0.75,188
8.4,0.9,192
8.4,1.05,192
8.4,1.2,189
8.4,1.35,191
8.4,1.5,192
8.55,-1.5,186
8.55,-1.35,195
8.55,-1.2,249
8.55,-1.05,229
8.55,-0.9,195
8.55,-0.75,179
8.55,-0.6,190
8.55,-0.45,177
8.55,-0.3,175
8.55,-0.15,174
8.55,0.0,174
8.55,0.15,177
8.55,0.3,165
8.55,0.45,166
8.55,0.6,182
8.55,0.75,192
8.55,0.9,188
8.55,1.05,188
8.55,1.2,188
8.55,1.35,188
8.55,1.5,189
8.7,-1.5,199
8.7,-1.35,200
8.7,-1.2,241
8.7,-1.05,219
8.7,-0.9,184
8.7,-0.75,176
8.7,-0.6,176
8.7,-0.45,173
8.7,-0.3,173
8.7,-0.15,175
8.7,0.0,173
8.7,0.15,177
8.7,0.3,168
8.7,0.45,163
8.7,0.6,178
8.7,0.75,191
8.7,0.9,188
8.7,1.05,189
8.7,1.2,190
8.7,1.35,191
8.7,1.5,190
8.85,-1.5,222
8.85,-1.35,212
8.85,-1.2,215
8.85,-1.05,201
8.85,-0.9,179
8.85,-0.75,178
8.85,-0.6,178
8.85,-0.45,173
8.85,-0.3,175
8.85,-0.15,173
8.85,0.0,173
8.85,0.15,177
8.85,0.3,177
8.85,0.45,171
8.85,0.6,180
8.85,0.75,190
8.85,0.9,198
8.85,1.05,200
8.85,1.2,192
8.85,1.35,191
8.85,1.5,190
9.0,-1.5,216
9.0,-1.35,205
9.0,-1.2,189
9.0,-1.05,186
9.0,-0.9,186
9.0,-0.75,179
9.0,-0.6,171
9.0,-0.45,177
9.0,-0.3,177
9.0,-0.15,176
9.0,0.0,173
9.0,0.15,174
9.0,0.3,176
9.0,0.45,177
9.0,0.6,181
9.0,0.75,188
9.0,0.9,197
9.0,1.05,200
9.0,1.2,194
9.0,1.35,194
9.0,1.5,193
9.15,-1.5,210
9.15,-1.35,200
9.15,-1.2,169
9.15,-1.05,167
9.15,-0.9,183
9.15,-0.75,172
9.15,-0.6,174
9.15,-0.45,162
9.15,-0.3,171
9.15,-0.15,175
9.15,0.0,175
9.15,0.15,175
9.15,0.3,174
9.15,0.45,174
9.15,0.6,180
9.15,0.75,187
9.15,0.9,191
9.15,1.05,195
9.15,1.2,200
9.15,1.35,204
9.15,1.5,207
9.3,-1.5,214
9.3,-1.35,204
9.3,-1.2,162
9.3,-1.05,153
9.3,-0.9,164
9.3,-0.75,170
9.3,-0.6,203
9.3,-0.45,198
9.3,-0.3,170
9.3,-0.15,185
9.3,0.0,180
9.3,0.15,173
9.3,0.3,176
9.3,0.45,178
9.3,0.6,181
9.3,0.75,185
9.3,0.9,189
9.3,1.05,194
9.3,1.2,202
9.3,1.35,207
9.3,1.5,212
9.45,-1.5,226
9.45,-1.35,211
9.45,-1.2,165
9.45,-1.05,157
9.45,-0.9,171
9.45,-0.75,189
9.45,-0.6,182
9.45,-0.45,176
9.45,-0.3,189
9.45,-0.15,175
9.45,0.0,174
9.45,0.15,171
9.45,0.3,172
9.45,0.45,177
9.45,0.6,179
9.45,0.75,181
9.45,0.9,190
9.45,1.05,197
9.45,1.2,203
9.45,1.35,208
9.45,1.5,213
9.6,-1.5,221
9.6,-1.35,211
9.6,-1.2,175
9.6,-1.05,174
9.6,-0.9,189
9.6,-0.75,191
9.6,-0.6,176
9.6,-0.45,176
9.6,-0.3,148
9.6,-0.15,155
9.6,0.0,170
9.6,0.15,174
9.6,0.3,173
9.6,0.45,175
9.6,0.6,172
9.6,0.75,172
9.6,0.9,189
9.6,1.05,197
9.6,1.2,203
9.6,1.35,208
9.6,1.5,213
9.75,-1.5,178
9.75,-1.35,185
9.75,-1.2,185
9.75,-1.05,193
9.75,-0.9,210
9.75,-0.75,195
9.75,-0.6,179
9.75,-0.45,177
9.75,-0.3,164
9.75,-0.15,205
9.75,0.0,191
9.75,0.15,171
9.75,0.3,176
9.75,0.45,172
9.75,0.6,164
9.75,0.75,164
9.75,0.9,178
9.75,1.05,186
9.75,1.2,191
9.75,1.35,193
9.75,1.5,194
9.9,-1.5,172
9.9,-1.35,182
9.9,-1.2,192
9.9,-1.05,196
9.9,-0.9,205
9.9,-0.75,181
9.9,-0.6,175
9.9,-0.45,179
9.9,-0.3,143
9.9,-0.15,188
9.9,0.0,199
9.9,0.15,180
9.9,0.3,177
9.9,0.45,165
9.9,0.6,164
9.9,0.75,164
9.9,0.9,170
9.9,1.05,177
9.9,1.2,182
9.9,1.35,182
9.9,1.5,181
10.05,-1.5,170
10.05,-1.35,180
10.05,-1.2,194
10.05,-1.05,180
10.05,-0.9,167
10.05,-0.75,172
10.05,-0.6,172
10.05,-0.45,175
10.05,-0.3,169
10.05,-0.15,170
10.05,0.0,182
10.05,0.15,178
10.05,0.3,178
10.05,0.45,169
10.05,0.6,169
10.05,0.75,170
10.05,0.9,164
10.05,1.05,164
10.05,1.2,169
10.05,1.35,167
10.05,1.5,164
10.2,-1.5,166
10.2,-1.35,175
10.2,-1.2,185
10.2,-1.05,163
10.2,-0.9,164
10.2,-0.75,215
10.2,-0.6,178
10.2,-0.45,176
10.2,-0.3,179
10.2,-0.15,170
10.2,0.0,176
10.2,0.15,177
10.2,0.3,191
10.2,0.45,190
10.2,0.6,184
10.2,0.75,179
10.2,0.9,169
10.2,1.05,164
10.2,1.2,164
10.2,1.35,160
10.2,1.5,160
10.35,-1.5,166
10.35,-1.35,171
10.35,-1.2,180
10.35,-1.05,171
10.35,-0.9,184
10.35,-0.75,184
10.35,-0.6,184
10.35,-0.45,176
10.35,-0.3,183
10.35,-0.15,158
10.35,0.0,170
10.35,0.15,185
10.35,0.3,205
10.35,0.45,202
10.35,0.6,192
10.35,0.75,180
10.35,0.9,178
10.35,1.05,170
10.35,1.2,163
10.35,1.35,160
10.35,1.5,160
10.5,-1.5,159
10.5,-1.35,161
10.5,-1.2,165
10.5,-1.05,170
10.5,-0.9,177
10.5,-0.75,176
10.5,-0.6,189
10.5,-0.45,176
10.5,-0.3,187
10.5,-0.15,162
10.5,0.0,172
10.5,0.15,189
10.5,0.3,200
10.5,0.45,201
10.5,0.6,196
10.5,0.75,183
10.5,0.9,178
10.5,1.05,169
10.5,1.2,164
10.5,1.35,160
10.5,1.5,160
10.65,-1.5,143
10.65,-1.35,144
10.65,-1.2,141
10.65,-1.05,154
10.65,-0.9,177
10.65,-0.75,176
10.65,-0.6,196
10.65,-0.45,176
10.65,-0.3,185
10.65,-0.15,162
10.65,0.0,170
10.65,0.15,189
10.65,0.3,192
10.65,0.45,191
10.65,0.6,181
10.65,0.75,174
10.65,0.9,158
10.65,1.05,151
10.65,1.2,160
10.65,1.35,160
10.65,1.5,160
10.8,-1.5,116
10.8,-1.35,123
10.8,-1.2,126
10.8,-1.05,147
10.8,-0.9,177
10.8,-0.75,174
10.8,-0.6,177
10.8,-0.45,179
10.8,-0.3,176
10.8,-0.15,173
10.8,0.0,188
10.8,0.15,200
10.8,0.3,187
10.8,0.45,182
10.8,0.6,174
10.8,0.75,168
10.8,0.9,148
10.8,1.05,144
10.8,1.2,164
10.8,1.35,166
10.8,1.5,168
10.95,-1.5,87
10.95,-1.35,105
10.95,-1.2,121
10.95,-1.05,163
10.95,-0.9,169
10.95,-0.75,165
10.95,-0.6,174
10.95,-0.45,178
10.95,-0.3,176
10.95,-0.15,198
10.95,0.0,209
10.95,0.15,204
10.95,0.3,183
10.95,0.45,174
10.95,0.6,164
10.95,0.75,161
10.95,0.9,150
10.95,1.05,166
10.95,1.2,222
10.95,1.35,245
10.95,1.5,255
11.1,-1.5,77
11.1,-1.35,103
11.1,-1.2,130
11.1,-1.05,172
11.1,-0.9,165
11.1,-0.75,165
11.1,-0.6,189
11.1,-0.45,161
11.1,-0.3,221
11.1,-0.15,217
11.1,0.0,204
11.1,0.15,186
11.1,0.3,177
11.1,0.45,168
11.1,0.6,162
11.1,0.75,163
11.1,0.9,157
11.1,1.05,183
11.1,1.2,255
11.1,1.35,255
11.1,1.5,255
11.25,-1.5,48
11.25,-1.35,93
11.25,-1.2,144
11.25,-1.05,172
11.25,-0.9,172
11.25,-0.75,169
11.25,-0.6,210
11.25,-0.45,170
11.25,-0.3,113
11.25,-0.15,169
11.25,0.0,194
11.25,0.15,170
11.25,0.3,178
11.25,0.45,176
11.25,0.6,180
11.25,0.75,185
11.25,0.9,171
11.25,1.05,175
11.25,1.2,194
11.25,1.35,200
11.25,1.5,205
11.4,-1.5,45
11.4,-1.35,93
11.4,-1.2,146
11.4,-1.05,167
11.4,-0.9,172
11.4,-0.75,165
11.4,-0.6,180
11.4,-0.45,169
11.4,-0.3,184
11.4,-0.15,206
11.4,0.0,204
11.4,0.15,170
11.4,0.3,181
11.4,0.45,190
11.4,0.6,198
11.4,0.75,202
11.4,0.9,187
11.4,1.05,175
11.4,1.2,161
11.4,1.35,151
11.4,1.5,142
11.55,-1.5,173
11.55,-1.35,175
11.55,-1.2,166
11.55,-1.05,163
11.55,-0.9,164
11.55,-0.75,172
11.55,-0.6,175
11.55,-0.45,173
11.55,-0.3,204
11.55,-0.15,200
11.55,0.0,175
11.55,0.15,162
11.55,0.3,167
11.55,0.45,172
11.55,0.6,188
11.55,0.75,202
11.55,0.9,185
11.55,1.05,181
11.55,1.2,190
11.55,1.35,185
11.55,1.5,180
11.7,-1.5,252
11.7,-1.35,236
11.7,-1.2,183
11.7,-1.05,166
11.7,-0.9,163
11.7,-0.75,168
11.7,-0.6,189
11.7,-0.45,186
11.7,-0.3,175
11.7,-0.15,174
11.7,0.0,155
11.7,0.15,145
11.7,0.3,158
11.7,0.45,185
11.7,0.6,207
11.7,0.75,210
11.7,0.9,192
11.7,1.05,190
11.7,1.2,209
11.7,1.35,206
11.7,1.5,203
11.85,-1.5,252
11.85,-1.35,247
11.85,-1.2,204
11.85,-1.05,181
11.85,-0.9,169
11.85,-0.75,184
11.85,-0.6,196
11.85,-0.45,184
11.85,-0.3,174
11.85,-0.15,175
11.85,0.0,178
11.85,0.15,170
11.85,0.3,168
11.85,0.45,202
11.85,0.6,228
11.85,0.75,230
11.85,0.9,230
11.85,1.05,223
11.85,1.2,205
11.85,1.35,199
11.85,1.5,193
12.0,-1.5,252
12.0,-1.35,252
12.0,-1.2,237
12.0,-1.05,215
12.0,-0.9,171
12.0,-0.75,177
12.0,-0.6,191
12.0,-0.45,178
12.0,-0.3,174
12.0,-0.15,182
12.0,0.0,192
12.0,0.15,185
12.0,0.3,172
12.0,0.45,194
12.0,0.6,215
12.0,0.75,221
12.0,0.9,232
12.0,1.05,230
12.0,1.2,203
12.0,1.35,196
12.0,1.5,191
12.15,-1.5,238
12.15,-1.35,238
12.15,-1.2,255
12.15,-1.05,253
12.15,-0.9,203
12.15,-0.75,172
12.15,-0.6,174
12.15,-0.45,174
12.15,-0.3,174
12.15,-0.15,191
12.15,0.0,195
12.15,0.15,181
12.15,0.3,174
12.15,0.45,173
12.15,0.6,186
12.15,0.75,199
12.15,0.9,216
12.15,1.05,225
12.15,1.2,216
12.15,1.35,222
12.15,1.5,229
12.3,-1.5,218
12.3,-1.35,224
12.3,-1.2,255
12.3,-1.05,239
12.3,-0.9,207
12.3,-0.75,168
12.3,-0.6,188
12.3,-0.45,177
12.3,-0.3,191
12.3,-0.15,186
12.3,0.0,191
12.3,0.15,174
12.3,0.3,179
12.3,0.45,174
12.3,0.6,175
12.3,0.75,191
12.3,0.9,213
12.3,1.05,221
12.3,1.2,210
12.3,1.35,223
12.3,1.5,236
12.45,-1.5,229
12.45,-1.35,229
12.45,-1.2,227
12.45,-1.05,205
12.45,-0.9,174
12.45,-0.75,156
12.45,-0.6,173
12.45,-0.45,173
12.45,-0.3,163
12.45,-0.15,172
12.45,0.0,183
12.45,0.15,173
12.45,0.3,182
12.45,0.45,182
12.45,0.6,176
12.45,0.75,185
12.45,0.9,201
12.45,1.05,207
12.45,1.2,202
12.45,1.35,209
12.45,1.5,217
12.6,-1.5,226
12.6,-1.35,212
12.6,-1.2,196
12.6,-1.05,182
12.6,-0.9,170
12.6,-0.75,174
12.6,-0.6,198
12.6,-0.45,176
12.6,-0.3,176
12.6,-0.15,176
12.6,0.0,181
12.6,0.15,166
12.6,0.3,177
12.6,0.45,189
12.6,0.6,185
12.6,0.75,185
12.6,0.9,189
12.6,1.05,193
12.6,1.2,197
12.6,1.35,200
12.6,1.5,203
12.75,-1.5,198
12.75,-1.35,186
12.75,-1.2,182
12.75,-1.05,182
12.75,-0.9,170
12.75,-0.75,170
12.75,-0.6,176
12.75,-0.45,168
12.75,-0.3,162
12.75,-0.15,164
12.75,0.0,160
12.75,0.15,160
12.75,0.3,170
12.75,0.45,185
12.75,0.6,189
12.75,0.75,189
12.75,0.9,184
12.75,1.05,186
12.75,1.2,188
12.75,1.35,189
12.75,1.5,191
12.9,-1.5,179
12.9,-1.35,170
12.9,-1.2,182
12.9,-1.05,191
12.9,-0.9,170
12.9,-0.75,170
12.9,-0.6,182
12.9,-0.45,166
12.9,-0.3,146
12.9,-0.15,147
12.9,0.0,161
12.9,0.15,166
12.9,0.3,150
12.9,0.45,163
12.9,0.6,189
12.9,0.75,189
12.9,0.9,175
12.9,1.05,177
12.9,1.2,180
12.9,1.35,179
12.9,1.5,180
13.05,-1.5,172
13.05,-1.35,164
13.05,-1.2,180
13.05,-1.05,192
13.05,-0.9,183
13.05,-0.75,190
13.05,-0.6,198
13.05,-0.45,172
13.05,-0.3,148
13.05,-0.15,146
13.05,0.0,164
13.05,0.15,161
13.05,0.3,123
13.05,0.45,139
13.05,0.6,188
13.05,0.75,189
13.05,0.9,166
13.05,1.05,168
13.05,1.2,172
13.05,1.35,172
13.05,1.5,172
