-3.0,-1.5,36
-3.0,-1.35,36
-3.0,-1.2,36
-3.0,-1.05,36
-3.0,-0.9,36
-3.0,-0.75,36
-3.0,-0.6,36
-3.0,-0.45,36
-3.0,-0.3,36
-3.0,-0.15,38
-3.0,0.0,38
-3.0,0.15,37
-3.0,0.3,37
-3.0,0.45,36
-3.0,0.6,36
-3.0,0.75,36
-3.0,0.9,36
-3.0,1.05,35
-3.0,1.2,34
-3.0,1.35,34
-3.0,1.5,33
-2.85,-1.5,36
-2.85,-1.35,36
-2.85,-1.2,36
-2.85,-1.05,36
-2.85,-0.9,36
-2.85,-0.75,36
-2.85,-0.6,36
-2.85,-0.45,36
-2.85,-0.3,36
-2.85,-0.15,38
-2.85,0.0,37
-2.85,0.15,37
-2.85,0.3,36
-2.85,0.45,36
-2.85,0.6,35
-2.85,0.75,35
-2.85,0.9,35
-2.85,1.05,33
-2.85,1.2,32
-2.85,1.35,32
-2.85,1.5,32
-2.7,-1.5,36
-2.7,-1.35,36
-2.7,-1.2,36
-2.7,-1.05,36
-2.7,-0.9,36
-2.7,-0.75,36
-2.7,-0.6,36
-2.7,-0.45,36
-2.7,-0.3,37
-2.7,-0.15,38
-2.7,0.0,37
-2.7,0.15,37
-2.7,0.3,36
-2.7,0.45,35
-2.7,0.6,34
-2.7,0.75,34
-2.7,0.9,33
-2.7,1.05,32
-2.7,1.2,31
-2.7,1.35,31
-2.7,1.5,30
-2.55,-1.5,36
-2.55,-1.35,36
-2.55,-1.2,36
-2.55,-1.05,36
-2.55,-0.9,36
-2.55,-0.75,36
-2.55,-0.6,37
-2.55,-0.45,37
-2.55,-0.3,37
-2.55,-0.15,38
-2.55,0.0,38
-2.55,0.15,37
-2.55,0.3,36
-2.55,0.45,35
-2.55,0.6,34
-2.55,0.75,33
-2.55,0.9,32
-2.55,1.05,31
-2.55,1.2,30
-2.55,1.35,30
-2.55,1.5,29
-2.4,-1.5,36
-2.4,-1.35,36
-2.4,-1.2,36
-2.4,-1.05,36
-2.4,-0.9,36
-2.4,-0.75,36
-2.4,-0.6,36
-2.4,-0.45,37
-2.4,-0.3,38
-2.4,-0.15,38
-2.4,0.0,38
-2.4,0.15,37
-2.4,0.3,36
-2.4,0.45,34
-2.4,0.6,33
-2.4,0.75,31
-2.4,0.9,30
-2.4,1.05,30
-2.4,1.2,29
-2.4,1.35,29
-2.4,1.5,29
-2.25,-1.5,36
-2.25,-1.35,36
-2.25,-1.2,36
-2.25,-1.05,36
-2.25,-0.9,36
-2.25,-0.75,36
-2.25,-0.6,37
-2.25,-0.45,37
-2.25,-0.3,38
-2.25,-0.15,38
-2.25,0.0,38
-2.25,0.15,37
-2.25,0.3,36
-2.25,0.45,34
-2.25,0.6,32
-2.25,0.75,30
-2.25,0.9,29
-2.25,1.05,29
-2.25,1.2,28
-2.25,1.35,28
-2.25,1.5,28
-2.1,-1.5,36
-2.1,-1.35,36
-2.1,-1.2,36
-2.1,-1.05,36
-2.1,-0.9,37
-2.1,-0.75,37
-2.1,-0.6,38
-2.1,-0.45,38
-2.1,-0.3,38
-2.1,-0.15,37
-2.1,0.0,38
-2.1,0.15,38
-2.1,0.3,36
-2.1,0.45,34
-2.1,0.6,31
-2.1,0.75,30
-2.1,0.9,29
-2.1,1.05,28
-2.1,1.2,28
-2.1,1.35,28
-2.1,1.5,27
-1.95,-1.5,36
-1.95,-1.35,36
-1.95,-1.2,36
-1.95,-1.05,37
-1.95,-0.9,38
-1.95,-0.75,39
-1.95,-0.6,39
-1.95,-0.45,39
-1.95,-0.3,38
-1.95,-0.15,37
-1.95,0.0,38
-1.95,0.15,38
-1.95,0.3,37
-1.95,0.45,34
-1.95,0.6,31
-1.95,0.75,29
-1.95,0.9,28
-1.95,1.05,27
-1.95,1.2,27
-1.95,1.35,27
-1.95,1.5,27
-1.8,-1.5,36
-1.8,-1.35,36
-1.8,-1.2,37
-1.8,-1.05,38
-1.8,-0.9,40
-1.8,-0.75,41
-1.8,-0.6,41
-1.8,-0.45,40
-1.8,-0.3,39
-1.8,-0.15,37
-1.8,0.0,38
-1.8,0.15,38
-1.8,0.3,37
-1.8,0.45,34
-1.8,0.6,30
-1.8,0.75,28
-1.8,0.9,27
-1.8,1.05,25
-1.8,1.2,23
-1.8,1.35,23
-1.8,1.5,23
-1.65,-1.5,36
-1.65,-1.35,37
-1.65,-1.2,38
-1.65,-1.05,39
-1.65,-0.9,41
-1.65,-0.75,43
-1.65,-0.6,43
-1.65,-0.45,42
-1.65,-0.3,39
-1.65,-0.15,37
-1.65,0.0,38
-1.65,0.15,38
-1.65,0.3,36
-1.65,0.45,33
-1.65,0.6,30
-1.65,0.75,28
-1.65,0.9,26
-1.65,1.05,24
-1.65,1.2,23
-1.65,1.35,23
-1.65,1.5,23
-1.5,-1.5,36
-1.5,-1.35,37
-1.5,-1.2,39
-1.5,-1.05,41
-1.5,-0.9,43
-1.5,-0.75,44
-1.5,-0.6,45
-1.5,-0.45,43
-1.5,-0.3,39
-1.5,-0.15,36
-1.5,0.0,36
-1.5,0.15,37
-1.5,0.3,36
-1.5,0.45,32
-1.5,0.6,30
-1.5,0.75,27
-1.5,0.9,26
-1.5,1.05,24
-1.5,1.2,23
-1.5,1.35,23
-1.5,1.5,23
-1.35,-1.5,34
-1.35,-1.35,36
-1.35,-1.2,39
-1.35,-1.05,42
-1.35,-0.9,43
-1.35,-0.75,45
-1.35,-0.6,45
-1.35,-0.45,43
-1.35,-0.3,38
-1.35,-0.15,34
-1.35,0.0,34
-1.35,0.15,36
-1.35,0.3,34
-1.35,0.45,32
-1.35,0.6,30
-1.35,0.75,28
-1.35,0.9,26
-1.35,1.05,24
-1.35,1.2,23
-1.35,1.35,23
-1.35,1.5,23
-1.2,-1.5,33
-1.2,-1.35,35
-1.2,-1.2,38
-1.2,-1.05,42
-1.2,-0.9,43
-1.2,-0.75,44
-1.2,-0.6,44
-1.2,-0.45,41
-1.2,-0.3,36
-1.2,-0.15,34
-1.2,0.0,34
-1.2,0.15,34
-1.2,0.3,34
-1.2,0.45,32
-1.2,0.6,30
-1.2,0.75,28
-1.2,0.9,27
-1.2,1.05,25
-1.2,1.2,24
-1.2,1.35,23
-1.2,1.5,23
-1.05,-1.5,33
-1.05,-1.35,33
-1.05,-1.2,35
-1.05,-1.05,38
-1.05,-0.9,42
-1.05,-0.75,43
-1.05,-0.6,41
-1.05,-0.45,38
-1.05,-0.3,34
-1.05,-0.15,34
-1.05,0.0,34
-1.05,0.15,34
-1.05,0.3,35
-1.05,0.45,33
-1.05,0.6,31
-1.05,0.75,30
-1.05,0.9,28
-1.05,1.05,26
-1.05,1.2,25
-1.05,1.35,24
-1.05,1.5,23
-0.9,-1.5,32
-0.9,-1.35,32
-0.9,-1.2,34
-0.9,-1.05,36
-0.9,-0.9,39
-0.9,-0.75,40
-0.9,-0.6,38
-0.9,-0.45,35
-0.9,-0.3,34
-0.9,-0.15,34
-0.9,0.0,34
-0.9,0.15,35
-0.9,0.3,35
-0.9,0.45,35
-0.9,0.6,33
-0.9,0.75,31
-0.9,0.9,29
-0.9,1.05,27
-0.9,1.2,26
-0.9,1.35,24
-0.9,1.5,23
-0.75,-1.5,32
-0.75,-1.35,32
-0.75,-1.2,33
-0.75,-1.05,34
-0.75,-0.9,36
-0.75,-0.75,37
-0.75,-0.6,36
-0.75,-0.45,35
-0.75,-0.3,34
-0.75,-0.15,34
-0.75,0.0,34
-0.75,0.15,35
-0.75,0.3,35
-0.75,0.45,35
-0.75,0.6,34
-0.75,0.75,32
-0.75,0.9,30
-0.75,1.05,28
-0.75,1.2,24
-0.75,1.35,21
-0.75,1.5,18
-0.6,-1.5,31
-0.6,-1.35,31
-0.6,-1.2,31
-0.6,-1.05,32
-0.6,-0.9,33
-0.6,-0.75,34
-0.6,-0.6,35
-0.6,-0.45,35
-0.6,-0.3,34
-0.6,-0.15,34
-0.6,0.0,35
-0.6,0.15,35
-0.6,0.3,35
-0.6,0.45,35
-0.6,0.6,35
-0.6,0.75,33
-0.6,0.9,31
-0.6,1.05,28
-0.6,1.2,23
-0.6,1.35,19
-0.6,1.5,16
-0.45,-1.5,31
-0.45,-1.35,30
-0.45,-1.2,29
-0.45,-1.05,29
-0.45,-0.9,30
-0.45,-0.75,32
-0.45,-0.6,33
-0.45,-0.45,34
-0.45,-0.3,35
-0.45,-0.15,34
-0.45,0.0,34
-0.45,0.15,35
-0.45,0.3,35
-0.45,0.45,35
-0.45,0.6,33
-0.45,0.75,33
-0.45,0.9,33
-0.45,1.05,32
-0.45,1.2,30
-0.45,1.35,28
-0.45,1.5,27
-0.3,-1.5,30
-0.3,-1.35,30
-0.3,-1.2,28
-0.3,-1.05,28
-0.3,-0.9,29
-0.3,-0.75,31
-0.3,-0.6,33
-0.3,-0.45,35
-0.3,-0.3,36
-0.3,-0.15,35
-0.3,0.0,34
-0.3,0.15,35
-0.3,0.3,35
-0.3,0.45,34
-0.3,0.6,33
-0.3,0.75,33
-0.3,0.9,35
-0.3,1.05,36
-0.3,1.2,37
-0.3,1.35,37
-0.3,1.5,37
-0.15,-1.5,29
-0.15,-1.35,29
-0.15,-1.2,28
-0.15,-1.05,28
-0.15,-0.9,29
-0.15,-0.75,31
-0.15,-0.6,34
-0.15,-0.45,36
-0.15,-0.3,36
-0.15,-0.15,36
-0.15,0.0,35
-0.15,0.15,34
-0.15,0.3,35
-0.15,0.45,35
-0.15,0.6,33
-0.15,0.75,35
-0.15,0.9,37
-0.15,1.05,38
-0.15,1.2,38
-0.15,1.35,38
-0.15,1.5,39
0.0,-1.5,28
0.0,-1.35,28
0.0,-1.2,28
0.0,-1.05,28
0.0,-0.9,30
0.0,-0.75,32
0.0,-0.6,35
0.0,-0.45,36
0.0,-0.3,36
0.0,-0.15,36
0.0,0.0,35
0.0,0.15,35
0.0,0.3,36
0.0,0.45,37
0.0,0.6,38
0.0,0.75,38
0.0,0.9,39
0.0,1.05,40
0.0,1.2,40
0.0,1.35,40
0.0,1.5,41
0.15,-1.5,28
0.15,-1.35,28
0.15,-1.2,28
0.15,-1.05,29
0.15,-0.9,31
0.15,-0.75,34
0.15,-0.6,36
0.15,-0.45,36
0.15,-0.3,36
0.15,-0.15,35
0.15,0.0,35
0.15,0.15,36
0.15,0.3,37
0.15,0.45,38
0.15,0.6,39
0.15,0.75,40
0.15,0.9,42
0.15,1.05,42
0.15,1.2,42
0.15,1.35,43
0.15,1.5,43
0.3,-1.5,28
0.3,-1.35,28
0.3,-1.2,29
0.3,-1.05,31
0.3,-0.9,33
0.3,-0.75,35
0.3,-0.6,36
0.3,-0.45,36
0.3,-0.3,35
0.3,-0.15,35
0.3,0.0,38
0.3,0.15,38
0.3,0.3,38
0.3,0.45,38
0.3,0.6,39
0.3,0.75,42
0.3,0.9,46
0.3,1.05,46
0.3,1.2,45
0.3,1.35,47
0.3,1.5,49
0.45,-1.5,28
0.45,-1.35,28
0.45,-1.2,30
0.45,-1.05,32
0.45,-0.9,34
0.45,-0.75,36
0.45,-0.6,36
0.45,-0.45,36
0.45,-0.3,36
0.45,-0.15,36
0.45,0.0,38
0.45,0.15,38
0.45,0.3,38
0.45,0.45,36
0.45,0.6,37
0.45,0.75,41
0.45,0.9,46
0.45,1.05,47
0.45,1.2,47
0.45,1.35,50
0.45,1.5,52
0.6,-1.5,28
0.6,-1.35,28
0.6,-1.2,30
0.6,-1.05,33
0.6,-0.9,34
0.6,-0.75,35
0.6,-0.6,36
0.6,-0.45,36
0.6,-0.3,36
0.6,-0.15,35
0.6,0.0,37
0.6,0.15,38
0.6,0.3,36
0.6,0.45,34
0.6,0.6,36
0.6,0.75,41
0.6,0.9,45
0.6,1.05,48
0.6,1.2,49
0.6,1.35,51
0.6,1.5,53
0.75,-1.5,28
0.75,-1.35,28
0.75,-1.2,30
0.75,-1.05,32
0.75,-0.9,33
0.75,-0.75,33
0.75,-0.6,34
0.75,-0.45,35
0.75,-0.3,35
0.75,-0.15,34
0.75,0.0,34
0.75,0.15,34
0.75,0.3,34
0.75,0.45,34
0.75,0.6,35
0.75,0.75,40
0.75,0.9,45
0.75,1.05,47
0.75,1.2,48
0.75,1.35,50
0.75,1.5,51
0.9,-1.5,28
0.9,-1.35,29
0.9,-1.2,30
0.9,-1.05,31
0.9,-0.9,31
0.9,-0.75,32
0.9,-0.6,32
0.9,-0.45,33
0.9,-0.3,34
0.9,-0.15,34
0.9,0.0,34
0.9,0.15,34
0.9,0.3,34
0.9,0.45,34
0.9,0.6,34
0.9,0.75,39
0.9,0.9,43
0.9,1.05,45
0.9,1.2,45
0.9,1.35,47
0.9,1.5,48
1.05,-1.5,28
1.05,-1.35,29
1.05,-1.2,29
1.05,-1.05,29
1.05,-0.9,30
1.05,-0.75,32
1.05,-0.6,33
1.05,-0.45,34
1.05,-0.3,34
1.05,-0.15,34
1.05,0.0,34
1.05,0.15,34
1.05,0.3,34
1.05,0.45,34
1.05,0.6,35
1.05,0.75,39
1.05,0.9,41
1.05,1.05,43
1.05,1.2,43
1.05,1.35,44
1.05,1.5,45
1.2,-1.5,27
1.2,-1.35,27
1.2,-1.2,28
1.2,-1.05,28
1.2,-0.9,29
1.2,-0.75,31
1.2,-0.6,34
1.2,-0.45,34
1.2,-0.3,34
1.2,-0.15,34
1.2,0.0,34
1.2,0.15,34
1.2,0.3,34
1.2,0.45,34
1.2,0.6,35
1.2,0.75,38
1.2,0.9,41
1.2,1.05,42
1.2,1.2,42
1.2,1.35,43
1.2,1.5,43
1.35,-1.5,26
1.35,-1.35,27
1.35,-1.2,27
1.35,-1.05,28
1.35,-0.9,29
1.35,-0.75,31
1.35,-0.6,34
1.35,-0.45,34
1.35,-0.3,34
1.35,-0.15,34
1.35,0.0,34
1.35,0.15,34
1.35,0.3,34
1.35,0.45,34
1.35,0.6,34
1.35,0.75,37
1.35,0.9,39
1.35,1.05,40
1.35,1.2,41
1.35,1.35,41
1.35,1.5,41
1.5,-1.5,25
1.5,-1.35,25
1.5,-1.2,26
1.5,-1.05,27
1.5,-0.9,28
1.5,-0.75,31
1.5,-0.6,33
1.5,-0.45,34
1.5,-0.3,34
1.5,-0.15,34
1.5,0.0,34
1.5,0.15,34
1.5,0.3,34
1.5,0.45,35
1.5,0.6,35
1.5,0.75,36
1.5,0.9,37
1.5,1.05,38
1.5,1.2,39
1.5,1.35,39
1.5,1.5,39
1.65,-1.5,24
1.65,-1.35,24
1.65,-1.2,25
1.65,-1.05,27
1.65,-0.9,29
1.65,-0.75,31
1.65,-0.6,33
1.65,-0.45,34
1.65,-0.3,34
1.65,-0.15,34
1.65,0.0,34
1.65,0.15,34
1.65,0.3,34
1.65,0.45,35
1.65,0.6,35
1.65,0.75,35
1.65,0.9,35
1.65,1.05,36
1.65,1.2,38
1.65,1.35,39
1.65,1.5,39
1.8,-1.5,27
1.8,-1.35,27
1.8,-1.2,27
1.8,-1.05,28
1.8,-0.9,30
1.8,-0.75,32
1.8,-0.6,34
1.8,-0.45,34
1.8,-0.3,34
1.8,-0.15,34
1.8,0.0,34
1.8,0.15,34
1.8,0.3,34
1.8,0.45,35
1.8,0.6,35
1.8,0.75,35
1.8,0.9,35
1.8,1.05,36
1.8,1.2,39
1.8,1.35,39
1.8,1.5,39
1.95,-1.5,42
1.95,-1.35,40
1.95,-1.2,35
1.95,-1.05,32
1.95,-0.9,33
1.95,-0.75,34
1.95,-0.6,34
1.95,-0.45,34
1.95,-0.3,34
1.95,-0.15,34
1.95,0.0,34
1.95,0.15,34
1.95,0.3,34
1.95,0.45,34
1.95,0.6,34
1.95,0.75,35
1.95,0.9,36
1.95,1.05,38
1.95,1.2,39
1.95,1.35,39
1.95,1.5,39
2.1,-1.5,51
2.1,-1.35,49
2.1,-1.2,40
2.1,-1.05,33
2.1,-0.9,34
2.1,-0.75,34
2.1,-0.6,34
2.1,-0.45,34
2.1,-0.3,34
2.1,-0.15,34
2.1,0.0,34
2.1,0.15,35
2.1,0.3,34
2.1,0.45,34
2.1,0.6,34
2.1,0.75,35
2.1,0.9,37
2.1,1.05,39
2.1,1.2,39
2.1,1.35,39
2.1,1.5,39
2.25,-1.5,59
2.25,-1.35,56
2.25,-1.2,48
2.25,-1.05,39
2.25,-0.9,36
2.25,-0.75,34
2.25,-0.6,34
2.25,-0.45,34
2.25,-0.3,34
2.25,-0.15,34
2.25,0.0,34
2.25,0.15,35
2.25,0.3,34
2.25,0.45,33
2.25,0.6,33
2.25,0.75,35
2.25,0.9,37
2.25,1.05,38
2.25,1.2,39
2.25,1.35,39
2.25,1.5,39
2.4,-1.5,62
2.4,-1.35,60
2.4,-1.2,53
2.4,-1.05,44
2.4,-0.9,38
2.4,-0.75,34
2.4,-0.6,34
2.4,-0.45,34
2.4,-0.3,34
2.4,-0.15,34
2.4,0.0,35
2.4,0.15,35
2.4,0.3,35
2.4,0.45,33
2.4,0.6,34
2.4,0.75,36
2.4,0.9,38
2.4,1.05,38
2.4,1.2,37
2.4,1.35,37
2.4,1.5,37
2.55,-1.5,61
2.55,-1.35,60
2.55,-1.2,56
2.55,-1.05,49
2.55,-0.9,41
2.55,-0.75,34
2.55,-0.6,34
2.55,-0.45,35
2.55,-0.3,34
2.55,-0.15,34
2.55,0.0,34
2.55,0.15,35
2.55,0.3,35
2.55,0.45,33
2.55,0.6,33
2.55,0.75,35
2.55,0.9,37
2.55,1.05,35
2.55,1.2,33
2.55,1.35,32
2.55,1.5,32
2.7,-1.5,58
2.7,-1.35,57
2.7,-1.2,57
2.7,-1.05,53
2.7,-0.9,43
2.7,-0.75,34
2.7,-0.6,34
2.7,-0.45,35
2.7,-0.3,36
2.7,-0.15,34
2.7,0.0,35
2.7,0.15,35
2.7,0.3,35
2.7,0.45,33
2.7,0.6,33
2.7,0.75,33
2.7,0.9,35
2.7,1.05,32
2.7,1.2,28
2.7,1.35,27
2.7,1.5,26
2.85,-1.5,53
2.85,-1.35,53
2.85,-1.2,53
2.85,-1.05,50
2.85,-0.9,43
2.85,-0.75,34
2.85,-0.6,34
2.85,-0.45,34
2.85,-0.3,36
2.85,-0.15,34
2.85,0.0,35
2.85,0.15,34
2.85,0.3,34
2.85,0.45,35
2.85,0.6,33
2.85,0.75,33
2.85,0.9,34
2.85,1.05,30
2.85,1.2,27
2.85,1.35,26
2.85,1.5,25
3.0,-1.5,46
3.0,-1.35,45
3.0,-1.2,44
3.0,-1.05,43
3.0,-0.9,40
3.0,-0.75,34
3.0,-0.6,35
3.0,-0.45,34
3.0,-0.3,36
3.0,-0.15,34
3.0,0.0,35
3.0,0.15,34
3.0,0.3,36
3.0,0.45,34
3.0,0.6,31
3.0,0.75,30
3.0,0.9,31
3.0,1.05,28
3.0,1.2,24
3.0,1.35,23
3.0,1.5,22
3.15,-1.5,37
3.15,-1.35,35
3.15,-1.2,34
3.15,-1.05,34
3.15,-0.9,34
3.15,-0.75,36
3.15,-0.6,38
3.15,-0.45,38
3.15,-0.3,36
3.15,-0.15,36
3.15,0.0,46
3.15,0.15,36
3.15,0.3,36
3.15,0.45,34
3.15,0.6,29
3.15,0.75,28
3.15,0.9,29
3.15,1.05,26
3.15,1.2,23
3.15,1.35,22
3.15,1.5,21
3.3,-1.5,31
3.3,-1.35,29
3.3,-1.2,26
3.3,-1.05,29
3.3,-0.9,34
3.3,-0.75,38
3.3,-0.6,38
3.3,-0.45,36
3.3,-0.3,36
3.3,-0.15,38
3.3,0.0,35
3.3,0.15,35
3.3,0.3,36
3.3,0.45,32
3.3,0.6,26
3.3,0.75,26
3.3,0.9,27
3.3,1.05,25
3.3,1.2,23
3.3,1.35,22
3.3,1.5,21
3.45,-1.5,26
3.45,-1.35,24
3.45,-1.2,23
3.45,-1.05,30
3.45,-0.9,37
3.45,-0.75,38
3.45,-0.6,38
3.45,-0.45,37
3.45,-0.3,37
3.45,-0.15,38
3.45,0.0,35
3.45,0.15,34
3.45,0.3,35
3.45,0.45,32
3.45,0.6,27
3.45,0.75,26
3.45,0.9,26
3.45,1.05,24
3.45,1.2,23
3.45,1.35,22
3.45,1.5,21
3.6,-1.5,19
3.6,-1.35,20
3.6,-1.2,31
3.6,-1.05,38
3.6,-0.9,38
3.6,-0.75,36
3.6,-0.6,36
3.6,-0.45,38
3.6,-0.3,38
3.6,-0.15,34
3.6,0.0,36
3.6,0.15,34
3.6,0.3,35
3.6,0.45,35
3.6,0.6,31
3.6,0.75,27
3.6,0.9,26
3.6,1.05,24
3.6,1.2,23
3.6,1.35,21
3.6,1.5,20
3.75,-1.5,15
3.75,-1.35,19
3.75,-1.2,34
3.75,-1.05,38
3.75,-0.9,35
3.75,-0.75,34
3.75,-0.6,34
3.75,-0.45,34
3.75,-0.3,37
3.75,-0.15,35
3.75,0.0,34
3.75,0.15,35
3.75,0.3,37
3.75,0.45,37
3.75,0.6,36
3.75,0.75,30
3.75,0.9,27
3.75,1.05,25
3.75,1.2,23
3.75,1.35,21
3.75,1.5,20
3.9,-1.5,32
3.9,-1.35,32
3.9,-1.2,35
3.9,-1.05,34
3.9,-0.9,34
3.9,-0.75,36
3.9,-0.6,37
3.9,-0.45,37
3.9,-0.3,37
3.9,-0.15,34
3.9,0.0,34
3.9,0.15,37
3.9,0.3,36
3.9,0.45,37
3.9,0.6,37
3.9,0.75,33
3.9,0.9,30
3.9,1.05,27
3.9,1.2,24
3.9,1.35,21
3.9,1.5,19
4.05,-1.5,53
4.05,-1.35,45
4.05,-1.2,37
4.05,-1.05,34
4.05,-0.9,34
4.05,-0.75,34
4.05,-0.6,34
4.05,-0.45,34
4.05,-0.3,34
4.05,-0.15,37
4.05,0.0,35
4.05,0.15,34
4.05,0.3,34
4.05,0.45,34
4.05,0.6,37
4.05,0.75,35
4.05,0.9,32
4.05,1.05,28
4.05,1.2,24
4.05,1.35,21
4.05,1.5,18
4.2,-1.5,47
4.2,-1.35,42
4.2,-1.2,37
4.2,-1.05,35
4.2,-0.9,34
4.2,-0.75,34
4.2,-0.6,38
4.2,-0.45,38
4.2,-0.3,37
4.2,-0.15,34
4.2,0.0,49
4.2,0.15,37
4.2,0.3,34
4.2,0.45,34
4.2,0.6,37
4.2,0.75,38
4.2,0.9,38
4.2,1.05,32
4.2,1.2,26
4.2,1.35,22
4.2,1.5,19
4.35,-1.5,37
4.35,-1.35,37
4.35,-1.2,38
4.35,-1.05,40
4.35,-0.9,42
4.35,-0.75,38
4.35,-0.6,34
4.35,-0.45,37
4.35,-0.3,34
4.35,-0.15,35
4.35,0.0,41
4.35,0.15,39
4.35,0.3,43
4.35,0.45,43
4.35,0.6,49
4.35,0.75,54
4.35,0.9,56
4.35,1.05,41
4.35,1.2,28
4.35,1.35,25
4.35,1.5,22
4.5,-1.5,37
4.5,-1.35,37
4.5,-1.2,41
4.5,-1.05,42
4.5,-0.9,41
4.5,-0.75,41
4.5,-0.6,39
4.5,-0.45,35
4.5,-0.3,34
4.5,-0.15,34
4.5,0.0,34
4.5,0.15,35
4.5,0.3,39
4.5,0.45,48
4.5,0.6,61
4.5,0.75,66
4.5,0.9,70
4.5,1.05,47
4.5,1.2,29
4.5,1.35,27
4.5,1.5,24
4.65,-1.5,37
4.65,-1.35,38
4.65,-1.2,45
4.65,-1.05,43
4.65,-0.9,35
4.65,-0.75,34
4.65,-0.6,35
4.65,-0.45,34
4.65,-0.3,34
4.65,-0.15,34
4.65,0.0,35
4.65,0.15,35
4.65,0.3,37
4.65,0.45,52
4.65,0.6,70
4.65,0.75,77
4.65,0.9,79
4.65,1.05,53
4.65,1.2,31
4.65,1.35,29
4.65,1.5,28
4.8,-1.5,37
4.8,-1.35,37
4.8,-1.2,46
4.8,-1.05,42
4.8,-0.9,34
4.8,-0.75,34
4.8,-0.6,34
4.8,-0.45,34
4.8,-0.3,34
4.8,-0.15,35
4.8,0.0,34
4.8,0.15,34
4.8,0.3,34
4.8,0.45,47
4.8,0.6,67
4.8,0.75,77
4.8,0.9,79
4.8,1.05,54
4.8,1.2,32
4.8,1.35,31
4.8,1.5,30
4.95,-1.5,40
4.95,-1.35,41
4.95,-1.2,47
4.95,-1.05,44
4.95,-0.9,37
4.95,-0.75,35
4.95,-0.6,34
4.95,-0.45,35
4.95,-0.3,34
4.95,-0.15,35
4.95,0.0,35
4.95,0.15,35
4.95,0.3,32
4.95,0.45,38
4.95,0.6,57
4.95,0.75,58
4.95,0.9,52
4.95,1.05,42
4.95,1.2,33
4.95,1.35,33
4.95,1.5,32
5.1,-1.5,40
5.1,-1.35,40
5.1,-1.2,48
5.1,-1.05,48
5.1,-0.9,38
5.1,-0.75,34
5.1,-0.6,35
5.1,-0.45,35
5.1,-0.3,34
5.1,-0.15,35
5.1,0.0,35
5.1,0.15,35
5.1,0.3,32
5.1,0.45,33
5.1,0.6,49
5.1,0.75,44
5.1,0.9,33
5.1,1.05,33
5.1,1.2,33
5.1,1.35,33
5.1,1.5,33
5.25,-1.5,56
5.25,-1.35,52
5.25,-1.2,58
5.25,-1.05,56
5.25,-0.9,40
5.25,-0.75,34
5.25,-0.6,34
5.25,-0.45,34
5.25,-0.3,35
5.25,-0.15,35
5.25,0.0,35
5.25,0.15,34
5.25,0.3,32
5.25,0.45,32
5.25,0.6,40
5.25,0.75,38
5.25,0.9,33
5.25,1.05,33
5.25,1.2,33
5.25,1.35,33
5.25,1.5,33
5.4,-1.5,89
5.4,-1.35,83
5.4,-1.2,75
5.4,-1.05,64
5.4,-0.9,47
5.4,-0.75,41
5.4,-0.6,40
5.4,-0.45,35
5.4,-0.3,33
5.4,-0.15,35
5.4,0.0,33
5.4,0.15,33
5.4,0.3,32
5.4,0.45,32
5.4,0.6,37
5.4,0.75,35
5.4,0.9,33
5.4,1.05,33
5.4,1.2,33
5.4,1.35,33
5.4,1.5,33
5.55,-1.5,97
5.55,-1.35,87
5.55,-1.2,74
5.55,-1.05,60
5.55,-0.9,45
5.55,-0.75,35
5.55,-0.6,35
5.55,-0.45,35
5.55,-0.3,33
5.55,-0.15,35
5.55,0.0,34
5.55,0.15,35
5.55,0.3,32
5.55,0.45,32
5.55,0.6,34
5.55,0.75,34
5.55,0.9,35
5.55,1.05,34
5.55,1.2,33
5.55,1.35,33
5.55,1.5,33
5.7,-1.5,109
5.7,-1.35,94
5.7,-1.2,71
5.7,-1.05,50
5.7,-0.9,35
5.7,-0.75,40
5.7,-0.6,37
5.7,-0.45,37
5.7,-0.3,32
5.7,-0.15,35
5.7,0.0,35
5.7,0.15,34
5.7,0.3,34
5.7,0.45,33
5.7,0.6,32
5.7,0.75,33
5.7,0.9,35
5.7,1.05,35
5.7,1.2,33
5.7,1.35,33
5.7,1.5,33
5.85,-1.5,104
5.85,-1.35,87
5.85,-1.2,61
5.85,-1.05,37
5.85,-0.9,23
5.85,-0.75,33
5.85,-0.6,33
5.85,-0.45,16
5.85,-0.3,32
5.85,-0.15,35
5.85,0.0,34
5.85,0.15,34
5.85,0.3,35
5.85,0.45,36
5.85,0.6,32
5.85,0.75,30
5.85,0.9,35
5.85,1.05,35
5.85,1.2,33
5.85,1.35,33
5.85,1.5,33
6.0,-1.5,90
6.0,-1.35,75
6.0,-1.2,54
6.0,-1.05,38
6.0,-0.9,32
6.0,-0.75,31
6.0,-0.6,43
6.0,-0.45,33
6.0,-0.3,34
6.0,-0.15,34
6.0,0.0,35
6.0,0.15,46
6.0,0.3,37
6.0,0.45,26
6.0,0.6,22
6.0,0.75,28
6.0,0.9,34
6.0,1.05,35
6.0,1.2,34
6.0,1.35,34
6.0,1.5,34
6.15,-1.5,80
6.15,-1.35,66
6.15,-1.2,51
6.15,-1.05,43
6.15,-0.9,40
6.15,-0.75,34
6.15,-0.6,40
6.15,-0.45,34
6.15,-0.3,34
6.15,-0.15,31
6.15,0.0,30
6.15,0.15,39
6.15,0.3,13
6.15,0.45,2
6.15,0.6,7
6.15,0.75,27
6.15,0.9,34
6.15,1.05,35
6.15,1.2,35
6.15,1.35,35
6.15,1.5,35
6.3,-1.5,59
6.3,-1.35,52
6.3,-1.2,45
6.3,-1.05,36
6.3,-0.9,28
6.3,-0.75,26
6.3,-0.6,35
6.3,-0.45,34
6.3,-0.3,35
6.3,-0.15,35
6.3,0.0,35
6.3,0.15,23
6.3,0.3,0
6.3,0.45,0
6.3,0.6,1
6.3,0.75,30
6.3,0.9,35
6.3,1.05,35
6.3,1.2,33
6.3,1.35,32
6.3,1.5,31
6.45,-1.5,46
6.45,-1.35,43
6.45,-1.2,37
6.45,-1.05,25
6.45,-0.9,15
6.45,-0.75,20
6.45,-0.6,35
6.45,-0.45,35
6.45,-0.3,34
6.45,-0.15,35
6.45,0.0,32
6.45,0.15,35
6.45,0.3,14
6.45,0.45,0
6.45,0.6,6
6.45,0.75,32
6.45,0.9,35
6.45,1.05,34
6.45,1.2,32
6.45,1.35,30
6.45,1.5,28
6.6,-1.5,46
6.6,-1.35,40
6.6,-1.2,33
6.6,-1.05,24
6.6,-0.9,18
6.6,-0.75,25
6.6,-0.6,32
6.6,-0.45,32
6.6,-0.3,34
6.6,-0.15,33
6.6,0.0,31
6.6,0.15,31
6.6,0.3,30
6.6,0.45,25
6.6,0.6,25
6.6,0.75,34
6.6,0.9,35
6.6,1.05,33
6.6,1.2,31
6.6,1.35,29
6.6,1.5,27
6.75,-1.5,45
6.75,-1.35,39
6.75,-1.2,33
6.75,-1.05,30
6.75,-0.9,30
6.75,-0.75,32
6.75,-0.6,34
6.75,-0.45,34
6.75,-0.3,34
6.75,-0.15,34
6.75,0.0,34
6.75,0.15,34
6.75,0.3,33
6.75,0.45,34
6.75,0.6,34
6.75,0.75,34
6.75,0.9,33
6.75,1.05,31
6.75,1.2,30
6.75,1.35,28
6.75,1.5,26
6.9,-1.5,18
6.9,-1.35,23
6.9,-1.2,29
6.9,-1.05,34
6.9,-0.9,35
6.9,-0.75,35
6.9,-0.6,34
6.9,-0.45,34
6.9,-0.3,34
6.9,-0.15,33
6.9,0.0,33
6.9,0.15,34
6.9,0.3,33
6.9,0.45,34
6.9,0.6,34
6.9,0.75,33
6.9,0.9,32
6.9,1.05,30
6.9,1.2,28
6.9,1.35,26
6.9,1.5,24
7.05,-1.5,0
7.05,-1.35,0
7.05,-1.2,22
7.05,-1.05,32
7.05,-0.9,33
7.05,-0.75,33
7.05,-0.6,35
7.05,-0.45,33
7.05,-0.3,33
7.05,-0.15,34
7.05,0.0,33
7.05,0.15,34
7.05,0.3,34
7.05,0.45,34
7.05,0.6,33
7.05,0.75,31
7.05,0.9,30
7.05,1.05,28
7.05,1.2,26
7.05,1.35,25
7.05,1.5,23
7.2,-1.5,0
7.2,-1.35,7
7.2,-1.2,25
7.2,-1.05,32
7.2,-0.9,33
7.2,-0.75,33
7.2,-0.6,35
7.2,-0.45,35
7.2,-0.3,35
7.2,-0.15,37
7.2,0.0,33
7.2,0.15,34
7.2,0.3,35
7.2,0.45,35
7.2,0.6,32
7.2,0.75,30
7.2,0.9,29
7.2,1.05,27
7.2,1.2,25
7.2,1.35,23
7.2,1.5,21
7.35,-1.5,28
7.35,-1.35,33
7.35,-1.2,34
7.35,-1.05,36
7.35,-0.9,37
7.35,-0.75,35
7.35,-0.6,33
7.35,-0.45,35
7.35,-0.3,35
7.35,-0.15,33
7.35,0.0,37
7.35,0.15,36
7.35,0.3,36
7.35,0.45,36
7.35,0.6,31
7.35,0.75,28
7.35,0.9,27
7.35,1.05,26
7.35,1.2,23
7.35,1.35,22
7.35,1.5,20
7.5,-1.5,46
7.5,-1.35,45
7.5,-1.2,41
7.5,-1.05,41
7.5,-0.9,39
7.5,-0.75,38
7.5,-0.6,38
7.5,-0.45,34
7.5,-0.3,33
7.5,-0.15,45
7.5,0.0,33
7.5,0.15,33
7.5,0.3,34
7.5,0.45,36
7.5,0.6,32
7.5,0.75,29
7.5,0.9,27
7.5,1.05,25
7.5,1.2,22
7.5,1.35,20
7.5,1.5,18
7.65,-1.5,49
7.65,-1.35,48
7.65,-1.2,46
7.65,-1.05,44
7.65,-0.9,37
7.65,-0.75,33
7.65,-0.6,33
7.65,-0.45,33
7.65,-0.3,50
7.65,-0.15,33
7.65,0.0,34
7.65,0.15,33
7.65,0.3,33
7.65,0.45,37
7.65,0.6,33
7.65,0.75,30
7.65,0.9,26
7.65,1.05,21
7.65,1.2,15
7.65,1.35,11
7.65,1.5,8
7.8,-1.5,51
7.8,-1.35,49
7.8,-1.2,47
7.8,-1.05,41
7.8,-0.9,33
7.8,-0.75,34
7.8,-0.6,33
7.8,-0.45,35
7.8,-0.3,34
7.8,-0.15,33
7.8,0.0,34
7.8,0.15,33
7.8,0.3,34
7.8,0.45,39
7.8,0.6,36
7.8,0.75,31
7.8,0.9,25
7.8,1.05,16
7.8,1.2,8
7.8,1.35,3
7.8,1.5,0
7.95,-1.5,52
7.95,-1.35,48
7.95,-1.2,43
7.95,-1.05,35
7.95,-0.9,31
7.95,-0.75,35
7.95,-0.6,36
7.95,-0.45,36
7.95,-0.3,34
7.95,-0.15,34
7.95,0.0,34
7.95,0.15,34
7.95,0.3,40
7.95,0.45,41
7.95,0.6,38
7.95,0.75,33
7.95,0.9,26
7.95,1.05,28
7.95,1.2,36
7.95,1.35,40
7.95,1.5,45
8.1,-1.5,49
8.1,-1.35,44
8.1,-1.2,37
8.1,-1.05,30
8.1,-0.9,27
8.1,-0.75,19
8.1,-0.6,16
8.1,-0.45,36
8.1,-0.3,34
8.1,-0.15,34
8.1,0.0,22
8.1,0.15,34
8.1,0.3,40
8.1,0.45,41
8.1,0.6,40
8.1,0.75,33
8.1,0.9,26
8.1,1.05,49
8.1,1.2,84
8.1,1.35,101
8.1,1.5,119
8.25,-1.5,45
8.25,-1.35,39
8.25,-1.2,34
8.25,-1.05,30
8.25,-0.9,30
8.25,-0.75,31
8.25,-0.6,33
8.25,-0.45,36
8.25,-0.3,34
8.25,-0.15,37
8.25,0.0,39
8.25,0.15,39
8.25,0.3,39
8.25,0.45,42
8.25,0.6,44
8.25,0.75,45
8.25,0.9,46
8.25,1.05,75
8.25,1.2,113
8.25,1.35,135
8.25,1.5,158
8.4,-1.5,40
8.4,-1.35,36
8.4,-1.2,31
8.4,-1.05,30
8.4,-0.9,31
8.4,-0.75,34
8.4,-0.6,36
8.4,-0.45,36
8.4,-0.3,33
8.4,-0.15,33
8.4,0.0,39
8.4,0.15,33
8.4,0.3,36
8.4,0.45,44
8.4,0.6,63
8.4,0.75,88
8.4,0.9,113
8.4,1.05,133
8.4,1.2,162
8.4,1.35,193
8.4,1.5,225
8.55,-1.5,37
8.55,-1.35,34
8.55,-1.2,30
8.55,-1.05,30
8.55,-0.9,33
8.55,-0.75,34
8.55,-0.6,36
8.55,-0.45,33
8.55,-0.3,33
8.55,-0.15,34
8.55,0.0,33
8.55,0.15,33
8.55,0.3,34
8.55,0.45,45
8.55,0.6,78
8.55,0.75,114
8.55,0.9,146
8.55,1.05,158
8.55,1.2,182
8.55,1.35,215
8.55,1.5,248
8.7,-1.5,25
8.7,-1.35,27
8.7,-1.2,29
8.7,-1.05,32
8.7,-0.9,34
8.7,-0.75,33
8.7,-0.6,33
8.7,-0.45,36
8.7,-0.3,36
8.7,-0.15,34
8.7,0.0,36
8.7,0.15,35
8.7,0.3,40
8.7,0.45,62
8.7,0.6,102
8.7,0.75,140
8.7,0.9,170
8.7,1.05,177
8.7,1.2,198
8.7,1.35,231
8.7,1.5,255
8.85,-1.5,19
8.85,-1.35,24
8.85,-1.2,30
8.85,-1.05,34
8.85,-0.9,35
8.85,-0.75,34
8.85,-0.6,35
8.85,-0.45,36
8.85,-0.3,36
8.85,-0.15,35
8.85,0.0,36
8.85,0.15,36
8.85,0.3,55
8.85,0.45,94
8.85,0.6,133
8.85,0.75,165
8.85,0.9,189
8.85,1.05,194
8.85,1.2,216
8.85,1.35,247
8.85,1.5,255
9.0,-1.5,48
9.0,-1.35,45
9.0,-1.2,39
9.0,-1.05,36
9.0,-0.9,36
9.0,-0.75,34
9.0,-0.6,33
9.0,-0.45,36
9.0,-0.3,33
9.0,-0.15,33
9.0,0.0,33
9.0,0.15,33
9.0,0.3,59
9.0,0.45,117
9.0,0.6,155
9.0,0.75,179
9.0,0.9,197
9.0,1.05,207
9.0,1.2,233
9.0,1.35,255
9.0,1.5,255
9.15,-1.5,82
9.15,-1.35,72
9.15,-1.2,51
9.15,-1.05,38
9.15,-0.9,38
9.15,-0.75,35
9.15,-0.6,36
9.15,-0.45,33
9.15,-0.3,34
9.15,-0.15,33
9.15,0.0,36
9.15,0.15,36
9.15,0.3,37
9.15,0.45,99
9.15,0.6,144
9.15,0.75,172
9.15,0.9,191
9.15,1.05,214
9.15,1.2,248
9.15,1.35,255
9.15,1.5,255
9.3,-1.5,75
9.3,-1.35,68
9.3,-1.2,57
9.3,-1.05,48
9.3,-0.9,42
9.3,-0.75,36
9.3,-0.6,36
9.3,-0.45,34
9.3,-0.3,34
9.3,-0.15,36
9.3,0.0,33
9.3,0.15,35
9.3,0.3,33
9.3,0.45,66
9.3,0.6,116
9.3,0.75,150
9.3,0.9,171
9.3,1.05,202
9.3,1.2,233
9.3,1.35,255
9.3,1.5,255
9.45,-1.5,52
9.45,-1.35,50
9.45,-1.2,63
9.45,-1.05,69
9.45,-0.9,51
9.45,-0.75,36
9.45,-0.6,34
9.45,-0.45,34
9.45,-0.3,36
9.45,-0.15,36
9.45,0.0,33
9.45,0.15,33
9.45,0.3,33
9.45,0.45,47
9.45,0.6,89
9.45,0.75,123
9.45,0.9,141
9.45,1.05,162
9.45,1.2,179
9.45,1.35,192
9.45,1.5,203
9.6,-1.5,50
9.6,-1.35,48
9.6,-1.2,67
9.6,-1.05,81
9.6,-0.9,60
9.6,-0.75,39
9.6,-0.6,34
9.6,-0.45,36
9.6,-0.3,34
9.6,-0.15,34
9.6,0.0,34
9.6,0.15,40
9.6,0.3,30
9.6,0.45,35
9.6,0.6,59
9.6,0.75,93
9.6,0.9,127
9.6,1.05,156
9.6,1.2,181
9.6,1.35,204
9.6,1.5,224
9.75,-1.5,43
9.75,-1.35,43
9.75,-1.2,63
9.75,-1.05,86
9.75,-0.9,71
9.75,-0.75,44
9.75,-0.6,34
9.75,-0.45,34
9.75,-0.3,36
9.75,-0.15,34
9.75,0.0,34
9.75,0.15,53
9.75,0.3,43
9.75,0.45,30
9.75,0.6,36
9.75,0.75,71
9.75,0.9,129
9.75,1.05,173
9.75,1.2,216
9.75,1.35,255
9.75,1.5,255
9.9,-1.5,43
9.9,-1.35,43
9.9,-1.2,63
9.9,-1.05,87
9.9,-0.9,75
9.9,-0.75,51
9.9,-0.6,34
9.9,-0.45,34
9.9,-0.3,36
9.9,-0.15,35
9.9,0.0,34
9.9,0.15,38
9.9,0.3,36
9.9,0.45,25
9.9,0.6,23
9.9,0.75,53
9.9,0.9,105
9.9,1.05,153
9.9,1.2,204
9.9,1.35,247
9.9,1.5,255
10.05,-1.5,53
10.05,-1.35,55
10.05,-1.2,66
10.05,-1.05,74
10.05,-0.9,62
10.05,-0.75,43
10.05,-0.6,34
10.05,-0.45,36
10.05,-0.3,34
10.05,-0.15,36
10.05,0.0,35
10.05,0.15,36
10.05,0.3,23
10.05,0.45,10
10.05,0.6,0
10.05,0.75,20
10.05,0.9,54
10.05,1.05,111
10.05,1.2,181
10.05,1.35,224
10.05,1.5,255
10.2,-1.5,48
10.2,-1.35,48
10.2,-1.2,51
10.2,-1.05,50
10.2,-0.9,44
10.2,-0.75,36
10.2,-0.6,35
10.2,-0.45,34
10.2,-0.3,35
10.2,-0.15,36
10.2,0.0,35
10.2,0.15,36
10.2,0.3,17
10.2,0.45,0
10.2,0.6,0
10.2,0.75,10
10.2,0.9,36
10.2,1.05,89
10.2,1.2,159
10.2,1.35,198
10.2,1.5,239
10.35,-1.5,33
10.35,-1.35,33
10.35,-1.2,34
10.35,-1.05,34
10.35,-0.9,35
10.35,-0.75,35
10.35,-0.6,34
10.35,-0.45,34
10.35,-0.3,35
10.35,-0.15,36
10.35,0.0,35
10.35,0.15,36
10.35,0.3,19
10.35,0.45,9
10.35,0.6,3
10.35,0.75,18
10.35,0.9,34
10.35,1.05,57
10.35,1.2,86
10.35,1.35,103
10.35,1.5,120
10.5,-1.5,33
10.5,-1.35,33
10.5,-1.2,34
10.5,-1.05,35
10.5,-0.9,35
10.5,-0.75,34
10.5,-0.6,34
10.5,-0.45,35
10.5,-0.3,34
10.5,-0.15,36
10.5,0.0,36
10.5,0.15,34
10.5,0.3,24
10.5,0.45,22
10.5,0.6,20
10.5,0.75,26
10.5,0.9,34
10.5,1.05,38
10.5,1.2,41
10.5,1.35,42
10.5,1.5,43
10.65,-1.5,33
10.65,-1.35,35
10.65,-1.2,36
10.65,-1.05,36
10.65,-0.9,36
10.65,-0.75,36
10.65,-0.6,35
10.65,-0.45,34
10.65,-0.3,35
10.65,-0.15,36
10.65,0.0,35
10.65,0.15,35
10.65,0.3,33
10.65,0.45,31
10.65,0.6,29
10.65,0.75,28
10.65,0.9,29
10.65,1.05,35
10.65,1.2,42
10.65,1.35,43
10.65,1.5,43
10.8,-1.5,33
10.8,-1.35,34
10.8,-1.2,36
10.8,-1.05,36
10.8,-0.9,36
10.8,-0.75,36
10.8,-0.6,34
10.8,-0.45,33
10.8,-0.3,36
10.8,-0.15,35
10.8,0.0,34
10.8,0.15,33
10.8,0.3,34
10.8,0.45,35
10.8,0.6,34
10.8,0.75,30
10.8,0.9,28
10.8,1.05,32
10.8,1.2,43
10.8,1.35,43
10.8,1.5,43
10.95,-1.5,30
10.95,-1.35,31
10.95,-1.2,30
10.95,-1.05,32
10.95,-0.9,36
10.95,-0.75,36
10.95,-0.6,36
10.95,-0.45,26
10.95,-0.3,20
10.95,-0.15,29
10.95,0.0,33
10.95,0.15,34
10.95,0.3,34
10.95,0.45,35
10.95,0.6,35
10.95,0.75,33
10.95,0.9,29
10.95,1.05,32
10.95,1.2,37
10.95,1.35,36
10.95,1.5,35
11.1,-1.5,21
11.1,-1.35,23
11.1,-1.2,22
11.1,-1.05,24
11.1,-0.9,33
11.1,-0.75,36
11.1,-0.6,36
11.1,-0.45,37
11.1,-0.3,43
11.1,-0.15,33
11.1,0.0,34
11.1,0.15,33
11.1,0.3,34
11.1,0.45,35
11.1,0.6,35
11.1,0.75,35
11.1,0.9,33
11.1,1.05,29
11.1,1.2,24
11.1,1.35,19
11.1,1.5,14
11.25,-1.5,12
11.25,-1.35,16
11.25,-1.2,18
11.25,-1.05,23
11.25,-0.9,31
11.25,-0.75,35
11.25,-0.6,35
11.25,-0.45,35
11.25,-0.3,35
11.25,-0.15,32
11.25,0.0,33
11.25,0.15,33
11.25,0.3,33
11.25,0.45,35
11.25,0.6,35
11.25,0.75,35
11.25,0.9,35
11.25,1.05,30
11.25,1.2,23
11.25,1.35,19
11.25,1.5,14
11.4,-1.5,0
11.4,-1.35,7
11.4,-1.2,15
11.4,-1.05,23
11.4,-0.9,30
11.4,-0.75,33
11.4,-0.6,35
11.4,-0.45,35
11.4,-0.3,32
11.4,-0.15,32
11.4,0.0,35
11.4,0.15,33
11.4,0.3,33
11.4,0.45,35
11.4,0.6,35
11.4,0.75,35
11.4,0.9,35
11.4,1.05,35
11.4,1.2,32
11.4,1.35,30
11.4,1.5,29
11.55,-1.5,0
11.55,-1.35,5
11.55,-1.2,16
11.55,-1.05,25
11.55,-0.9,31
11.55,-0.75,31
11.55,-0.6,33
11.55,-0.45,33
11.55,-0.3,34
11.55,-0.15,30
11.55,0.0,34
11.55,0.15,35
11.55,0.3,34
11.55,0.45,35
11.55,0.6,35
11.55,0.75,35
11.55,0.9,35
11.55,1.05,35
11.55,1.2,35
11.55,1.35,35
11.55,1.5,34
11.7,-1.5,0
11.7,-1.35,7
11.7,-1.2,17
11.7,-1.05,28
11.7,-0.9,34
11.7,-0.75,34
11.7,-0.6,33
11.7,-0.45,34
11.7,-0.3,32
11.7,-0.15,28
11.7,0.0,32
11.7,0.15,36
11.7,0.3,36
11.7,0.45,35
11.7,0.6,35
11.7,0.75,35
11.7,0.9,35
11.7,1.05,35
11.7,1.2,35
11.7,1.35,35
11.7,1.5,35
11.85,-1.5,0
11.85,-1.35,8
11.85,-1.2,18
11.85,-1.05,30
11.85,-0.9,34
11.85,-0.75,34
11.85,-0.6,34
11.85,-0.45,34
11.85,-0.3,24
11.85,-0.15,31
11.85,0.0,36
11.85,0.15,38
11.85,0.3,37
11.85,0.45,35
11.85,0.6,35
11.85,0.75,35
11.85,0.9,35
11.85,1.05,35
11.85,1.2,35
11.85,1.35,35
11.85,1.5,35
12.0,-1.5,4
12.0,-1.35,12
12.0,-1.2,20
12.0,-1.05,30
12.0,-0.9,34
12.0,-0.75,34
12.0,-0.6,34
12.0,-0.45,33
12.0,-0.3,32
12.0,-0.15,41
12.0,0.0,46
12.0,0.15,41
12.0,0.3,38
12.0,0.45,37
12.0,0.6,35
12.0,0.75,35
12.0,0.9,35
12.0,1.05,35
12.0,1.2,35
12.0,1.35,35
12.0,1.5,35
12.15,-1.5,9
12.15,-1.35,15
12.15,-1.2,22
12.15,-1.05,30
12.15,-0.9,34
12.15,-0.75,34
12.15,-0.6,34
12.15,-0.45,33
12.15,-0.3,42
12.15,-0.15,54
12.15,0.0,61
12.15,0.15,44
12.15,0.3,38
12.15,0.45,37
12.15,0.6,35
12.15,0.75,35
12.15,0.9,35
12.15,1.05,35
12.15,1.2,35
12.15,1.35,35
12.15,1.5,35
12.3,-1.5,12
12.3,-1.35,18
12.3,-1.2,25
12.3,-1.05,31
12.3,-0.9,34
12.3,-0.75,34
12.3,-0.6,34
12.3,-0.45,34
12.3,-0.3,39
12.3,-0.15,49
12.3,0.0,56
12.3,0.15,44
12.3,0.3,38
12.3,0.45,36
12.3,0.6,36
12.3,0.75,35
12.3,0.9,35
12.3,1.05,35
12.3,1.2,35
12.3,1.35,35
12.3,1.5,35
12.45,-1.5,17
12.45,-1.35,22
12.45,-1.2,28
12.45,-1.05,32
12.45,-0.9,33
12.45,-0.75,34
12.45,-0.6,34
12.45,-0.45,34
12.45,-0.3,35
12.45,-0.15,36
12.45,0.0,38
12.45,0.15,40
12.45,0.3,37
12.45,0.45,35
12.45,0.6,36
12.45,0.75,35
12.45,0.9,34
12.45,1.05,34
12.45,1.2,35
12.45,1.35,35
12.45,1.5,35
12.6,-1.5,22
12.6,-1.35,26
12.6,-1.2,30
12.6,-1.05,32
12.6,-0.9,32
12.6,-0.75,33
12.6,-0.6,34
12.6,-0.45,34
12.6,-0.3,34
12.6,-0.15,34
12.6,0.0,35
12.6,0.15,35
12.6,0.3,33
12.6,0.45,33
12.6,0.6,35
12.6,0.75,34
12.6,0.9,34
12.6,1.05,34
12.6,1.2,34
12.6,1.35,35
12.6,1.5,35
12.75,-1.5,29
12.75,-1.35,30
12.75,-1.2,32
12.75,-1.05,33
12.75,-0.9,33
12.75,-0.75,34
12.75,-0.6,35
12.75,-0.45,34
12.75,-0.3,34
12.75,-0.15,35
12.75,0.0,35
12.75,0.15,34
12.75,0.3,32
12.75,0.45,29
12.75,0.6,29
12.75,0.75,33
12.75,0.9,34
12.75,1.05,34
12.75,1.2,34
12.75,1.35,34
12.75,1.5,34
12.9,-1.5,32
12.9,-1.35,33
12.9,-1.2,34
12.9,-1.05,35
12.9,-0.9,35
12.9,-0.75,35
12.9,-0.6,35
12.9,-0.45,35
12.9,-0.3,35
12.9,-0.15,35
12.9,0.0,35
12.9,0.15,34
12.9,0.3,32
12.9,0.45,26
12.9,0.6,25
12.9,0.75,31
12.9,0.9,34
12.9,1.05,34
12.9,1.2,34
12.9,1.35,34
12.9,1.5,34
13.05,-1.5,34
13.05,-1.35,35
13.05,-1.2,35
13.05,-1.05,35
13.05,-0.9,35
13.05,-0.75,35
13.05,-0.6,35
13.05,-0.45,35
13.05,-0.3,35
13.05,-0.15,35
13.05,0.0,35
13.05,0.15,34
13.05,0.3,32
13.05,0.45,25
13.05,0.6,24
13.05,0.75,30
13.05,0.9,33
13.05,1.05,34
13.05,1.2,34
13.05,1.35,34
13.05,1.5,34
