-3.0,-1.5,204
-3.0,-1.35,205
-3.0,-1.2,205
-3.0,-1.05,205
-3.0,-0.9,205
-3.0,-0.75,205
-3.0,-0.6,205
-3.0,-0.45,205
-3.0,-0.3,205
-3.0,-0.15,205
-3.0,0.0,205
-3.0,0.15,205
-3.0,0.3,205
-3.0,0.45,205
-3.0,0.6,205
-3.0,0.75,205
-3.0,0.9,205
-3.0,1.05,205
-3.0,1.2,205
-3.0,1.35,205
-3.0,1.5,205
-2.85,-1.5,203
-2.85,-1.35,204
-2.85,-1.2,205
-2.85,-1.05,205
-2.85,-0.9,205
-2.85,-0.75,205
-2.85,-0.6,205
-2.85,-0.45,205
-2.85,-0.3,205
-2.85,-0.15,205
-2.85,0.0,205
-2.85,0.15,205
-2.85,0.3,205
-2.85,0.45,205
-2.85,0.6,205
-2.85,0.75,205
-2.85,0.9,205
-2.85,1.05,205
-2.85,1.2,205
-2.85,1.35,205
-2.85,1.5,205
-2.7,-1.5,203
-2.7,-1.35,203
-2.7,-1.2,204
-2.7,-1.05,205
-2.7,-0.9,205
-2.7,-0.75,205
-2.7,-0.6,205
-2.7,-0.45,205
-2.7,-0.3,205
-2.7,-0.15,205
-2.7,0.0,205
-2.7,0.15,205
-2.7,0.3,205
-2.7,0.45,205
-2.7,0.6,205
-2.7,0.75,205
-2.7,0.9,205
-2.7,1.05,205
-2.7,1.2,205
-2.7,1.35,205
-2.7,1.5,205
-2.55,-1.5,203
-2.55,-1.35,203
-2.55,-1.2,203
-2.55,-1.05,204
-2.55,-0.9,205
-2.55,-0.75,205
-2.55,-0.6,205
-2.55,-0.45,205
-2.55,-0.3,205
-2.55,-0.15,205
-2.55,0.0,205
-2.55,0.15,205
-2.55,0.3,205
-2.55,0.45,205
-2.55,0.6,205
-2.55,0.75,205
-2.55,0.9,205
-2.55,1.05,205
-2.55,1.2,205
-2.55,1.35,205
-2.55,1.5,205
-2.4,-1.5,203
-2.4,-1.35,203
-2.4,-1.2,203
-2.4,-1.05,203
-2.4,-0.9,204
-2.4,-0.75,205
-2.4,-0.6,205
-2.4,-0.45,205
-2.4,-0.3,205
-2.4,-0.15,205
-2.4,0.0,205
-2.4,0.15,205
-2.4,0.3,205
-2.4,0.45,205
-2.4,0.6,205
-2.4,0.75,205
-2.4,0.9,205
-2.4,1.05,205
-2.4,1.2,205
-2.4,1.35,205
-2.4,1.5,205
-2.25,-1.5,203
-2.25,-1.35,203
-2.25,-1.2,203
-2.25,-1.05,203
-2.25,-0.9,203
-2.25,-0.75,204
-2.25,-0.6,205
-2.25,-0.45,205
-2.25,-0.3,205
-2.25,-0.15,205
-2.25,0.0,205
-2.25,0.15,205
-2.25,0.3,205
-2.25,0.45,205
-2.25,0.6,205
-2.25,0.75,205
-2.25,0.9,205
-2.25,1.05,205
-2.25,1.2,205
-2.25,1.35,205
-2.25,1.5,205
-2.1,-1.5,203
-2.1,-1.35,203
-2.1,-1.2,203
-2.1,-1.05,203
-2.1,-0.9,203
-2.1,-0.75,203
-2.1,-0.6,204
-2.1,-0.45,205
-2.1,-0.3,205
-2.1,-0.15,205
-2.1,0.0,205
-2.1,0.15,205
-2.1,0.3,205
-2.1,0.45,205
-2.1,0.6,205
-2.1,0.75,205
-2.1,0.9,205
-2.1,1.05,205
-2.1,1.2,205
-2.1,1.35,205
-2.1,1.5,205
-1.95,-1.5,203
-1.95,-1.35,203
-1.95,-1.2,203
-1.95,-1.05,203
-1.95,-0.9,203
-1.95,-0.75,203
-1.95,-0.6,204
-1.95,-0.45,204
-1.95,-0.3,205
-1.95,-0.15,205
-1.95,0.0,205
-1.95,0.15,205
-1.95,0.3,205
-1.95,0.45,205
-1.95,0.6,205
-1.95,0.75,205
-1.95,0.9,205
-1.95,1.05,205
-1.95,1.2,205
-1.95,1.35,205
-1.95,1.5,205
-1.8,-1.5,203
-1.8,-1.35,203
-1.8,-1.2,203
-1.8,-1.05,203
-1.8,-0.9,203
-1.8,-0.75,203
-1.8,-0.6,203
-1.8,-0.45,204
-1.8,-0.3,204
-1.8,-0.15,205
-1.8,0.0,205
-1.8,0.15,205
-1.8,0.3,205
-1.8,0.45,205
-1.8,0.6,205
-1.8,0.75,205
-1.8,0.9,205
-1.8,1.05,205
-1.8,1.2,205
-1.8,1.35,205
-1.8,1.5,205
-1.65,-1.5,203
-1.65,-1.35,203
-1.65,-1.2,203
-1.65,-1.05,203
-1.65,-0.9,203
-1.65,-0.75,203
-1.65,-0.6,203
-1.65,-0.45,203
-1.65,-0.3,204
-1.65,-0.15,205
-1.65,0.0,205
-1.65,0.15,205
-1.65,0.3,205
-1.65,0.45,205
-1.65,0.6,205
-1.65,0.75,205
-1.65,0.9,205
-1.65,1.05,205
-1.65,1.2,205
-1.65,1.35,205
-1.65,1.5,205
-1.5,-1.5,203
-1.5,-1.35,203
-1.5,-1.2,203
-1.5,-1.05,203
-1.5,-0.9,203
-1.5,-0.75,204
-1.5,-0.6,204
-1.5,-0.45,205
-1.5,-0.3,205
-1.5,-0.15,205
-1.5,0.0,205
-1.5,0.15,205
-1.5,0.3,205
-1.5,0.45,205
-1.5,0.6,205
-1.5,0.75,205
-1.5,0.9,205
-1.5,1.05,205
-1.5,1.2,205
-1.5,1.35,205
-1.5,1.5,205
-1.35,-1.5,203
-1.35,-1.35,203
-1.35,-1.2,203
-1.35,-1.05,204
-1.35,-0.9,205
-1.35,-0.75,205
-1.35,-0.6,205
-1.35,-0.45,205
-1.35,-0.3,205
-1.35,-0.15,205
-1.35,0.0,205
-1.35,0.15,206
-1.35,0.3,206
-1.35,0.45,206
-1.35,0.6,205
-1.35,0.75,205
-1.35,0.9,205
-1.35,1.05,205
-1.35,1.2,205
-1.35,1.35,205
-1.35,1.5,205
-1.2,-1.5,202
-1.2,-1.35,201
-1.2,-1.2,202
-1.2,-1.05,204
-1.2,-0.9,204
-1.2,-0.75,205
-1.2,-0.6,204
-1.2,-0.45,204
-1.2,-0.3,204
-1.2,-0.15,204
-1.2,0.0,205
-1.2,0.15,206
-1.2,0.3,206
-1.2,0.45,206
-1.2,0.6,206
-1.2,0.75,205
-1.2,0.9,205
-1.2,1.05,205
-1.2,1.2,205
-1.2,1.35,205
-1.2,1.5,205
-1.05,-1.5,198
-1.05,-1.35,198
-1.05,-1.2,200
-1.05,-1.05,203
-1.05,-0.9,202
-1.05,-0.75,202
-1.05,-0.6,202
-1.05,-0.45,201
-1.05,-0.3,201
-1.05,-0.15,203
-1.05,0.0,204
-1.05,0.15,206
-1.05,0.3,206
-1.05,0.45,206
-1.05,0.6,206
-1.05,0.75,205
-1.05,0.9,205
-1.05,1.05,205
-1.05,1.2,205
-1.05,1.35,205
-1.05,1.5,205
-0.9,-1.5,198
-0.9,-1.35,198
-0.9,-1.2,200
-0.9,-1.05,202
-0.9,-0.9,202
-0.9,-0.75,202
-0.9,-0.6,201
-0.9,-0.45,201
-0.9,-0.3,201
-0.9,-0.15,202
-0.9,0.0,203
-0.9,0.15,205
-0.9,0.3,206
-0.9,0.45,206
-0.9,0.6,206
-0.9,0.75,205
-0.9,0.9,205
-0.9,1.05,205
-0.9,1.2,205
-0.9,1.35,205
-0.9,1.5,206
-0.75,-1.5,195
-0.75,-1.35,196
-0.75,-1.2,199
-0.75,-1.05,200
-0.75,-0.9,201
-0.75,-0.75,201
-0.75,-0.6,201
-0.75,-0.45,201
-0.75,-0.3,201
-0.75,-0.15,202
-0.75,0.0,203
-0.75,0.15,204
-0.75,0.3,204
-0.75,0.45,205
-0.75,0.6,205
-0.75,0.75,206
-0.75,0.9,206
-0.75,1.05,209
-0.75,1.2,210
-0.75,1.35,210
-0.75,1.5,209
-0.6,-1.5,194
-0.6,-1.35,195
-0.6,-1.2,198
-0.6,-1.05,201
-0.6,-0.9,201
-0.6,-0.75,202
-0.6,-0.6,201
-0.6,-0.45,201
-0.6,-0.3,202
-0.6,-0.15,202
-0.6,0.0,203
-0.6,0.15,204
-0.6,0.3,204
-0.6,0.45,204
-0.6,0.6,204
-0.6,0.75,206
-0.6,0.9,207
-0.6,1.05,211
-0.6,1.2,213
-0.6,1.35,212
-0.6,1.5,211
-0.45,-1.5,194
-0.45,-1.35,195
-0.45,-1.2,198
-0.45,-1.05,200
-0.45,-0.9,201
-0.45,-0.75,202
-0.45,-0.6,202
-0.45,-0.45,202
-0.45,-0.3,202
-0.45,-0.15,203
-0.45,0.0,204
-0.45,0.15,204
-0.45,0.3,204
-0.45,0.45,204
-0.45,0.6,204
-0.45,0.75,207
-0.45,0.9,211
-0.45,1.05,214
-0.45,1.2,215
-0.45,1.35,214
-0.45,1.5,214
-0.3,-1.5,194
-0.3,-1.35,195
-0.3,-1.2,197
-0.3,-1.05,199
-0.3,-0.9,201
-0.3,-0.75,204
-0.3,-0.6,203
-0.3,-0.45,202
-0.3,-0.3,202
-0.3,-0.15,203
-0.3,0.0,204
-0.3,0.15,204
-0.3,0.3,204
-0.3,0.45,203
-0.3,0.6,204
-0.3,0.75,209
-0.3,0.9,213
-0.3,1.05,215
-0.3,1.2,215
-0.3,1.35,214
-0.3,1.5,214
-0.15,-1.5,199
-0.15,-1.35,200
-0.15,-1.2,200
-0.15,-1.05,200
-0.15,-0.9,202
-0.15,-0.75,204
-0.15,-0.6,204
-0.15,-0.45,204
-0.15,-0.3,204
-0.15,-0.15,203
-0.15,0.0,203
-0.15,0.15,203
-0.15,0.3,203
-0.15,0.45,203
-0.15,0.6,204
-0.15,0.75,210
-0.15,0.9,214
-0.15,1.05,214
-0.15,1.2,213
-0.15,1.35,212
-0.15,1.5,211
0.0,-1.5,205
0.0,-1.35,205
0.0,-1.2,203
0.0,-1.05,200
0.0,-0.9,202
0.0,-0.75,204
0.0,-0.6,205
0.0,-0.45,206
0.0,-0.3,205
0.0,-0.15,204
0.0,0.0,203
0.0,0.15,203
0.0,0.3,203
0.0,0.45,203
0.0,0.6,206
0.0,0.75,212
0.0,0.9,214
0.0,1.05,212
0.0,1.2,210
0.0,1.35,208
0.0,1.5,208
0.15,-1.5,205
0.15,-1.35,206
0.15,-1.2,204
0.15,-1.05,202
0.15,-0.9,204
0.15,-0.75,205
0.15,-0.6,206
0.15,-0.45,206
0.15,-0.3,206
0.15,-0.15,204
0.15,0.0,203
0.15,0.15,203
0.15,0.3,203
0.15,0.45,203
0.15,0.6,208
0.15,0.75,212
0.15,0.9,210
0.15,1.05,207
0.15,1.2,205
0.15,1.35,204
0.15,1.5,204
0.3,-1.5,206
0.3,-1.35,206
0.3,-1.2,206
0.3,-1.05,206
0.3,-0.9,206
0.3,-0.75,206
0.3,-0.6,206
0.3,-0.45,206
0.3,-0.3,206
0.3,-0.15,206
0.3,0.0,203
0.3,0.15,203
0.3,0.3,206
0.3,0.45,207
0.3,0.6,208
0.3,0.75,207
0.3,0.9,203
0.3,1.05,202
0.3,1.2,200
0.3,1.35,199
0.3,1.5,199
0.45,-1.5,206
0.45,-1.35,206
0.45,-1.2,206
0.45,-1.05,206
0.45,-0.9,206
0.45,-0.75,206
0.45,-0.6,206
0.45,-0.45,206
0.45,-0.3,206
0.45,-0.15,206
0.45,0.0,206
0.45,0.15,204
0.45,0.3,207
0.45,0.45,208
0.45,0.6,206
0.45,0.75,205
0.45,0.9,203
0.45,1.05,201
0.45,1.2,199
0.45,1.35,197
0.45,1.5,196
0.6,-1.5,204
0.6,-1.35,205
0.6,-1.2,206
0.6,-1.05,206
0.6,-0.9,206
0.6,-0.75,206
0.6,-0.6,206
0.6,-0.45,206
0.6,-0.3,206
0.6,-0.15,206
0.6,0.0,206
0.6,0.15,205
0.6,0.3,204
0.6,0.45,205
0.6,0.6,205
0.6,0.75,206
0.6,0.9,206
0.6,1.05,202
0.6,1.2,195
0.6,1.35,190
0.6,1.5,186
0.75,-1.5,204
0.75,-1.35,204
0.75,-1.2,206
0.75,-1.05,206
0.75,-0.9,206
0.75,-0.75,205
0.75,-0.6,206
0.75,-0.45,206
0.75,-0.3,206
0.75,-0.15,206
0.75,0.0,206
0.75,0.15,206
0.75,0.3,206
0.75,0.45,206
0.75,0.6,206
0.75,0.75,206
0.75,0.9,206
0.75,1.05,201
0.75,1.2,192
0.75,1.35,185
0.75,1.5,179
0.9,-1.5,204
0.9,-1.35,204
0.9,-1.2,204
0.9,-1.05,206
0.9,-0.9,206
0.9,-0.75,205
0.9,-0.6,206
0.9,-0.45,206
0.9,-0.3,206
0.9,-0.15,206
0.9,0.0,206
0.9,0.15,206
0.9,0.3,206
0.9,0.45,206
0.9,0.6,206
0.9,0.75,206
0.9,0.9,205
0.9,1.05,198
0.9,1.2,191
0.9,1.35,185
0.9,1.5,181
1.05,-1.5,204
1.05,-1.35,204
1.05,-1.2,204
1.05,-1.05,205
1.05,-0.9,205
1.05,-0.75,206
1.05,-0.6,205
1.05,-0.45,204
1.05,-0.3,204
1.05,-0.15,204
1.05,0.0,206
1.05,0.15,206
1.05,0.3,206
1.05,0.45,206
1.05,0.6,206
1.05,0.75,206
1.05,0.9,202
1.05,1.05,195
1.05,1.2,188
1.05,1.35,185
1.05,1.5,183
1.2,-1.5,204
1.2,-1.35,204
1.2,-1.2,204
1.2,-1.05,204
1.2,-0.9,204
1.2,-0.75,204
1.2,-0.6,204
1.2,-0.45,204
1.2,-0.3,204
1.2,-0.15,204
1.2,0.0,206
1.2,0.15,206
1.2,0.3,206
1.2,0.45,206
1.2,0.6,206
1.2,0.75,201
1.2,0.9,192
1.2,1.05,186
1.2,1.2,183
1.2,1.35,183
1.2,1.5,183
1.35,-1.5,204
1.35,-1.35,204
1.35,-1.2,204
1.35,-1.05,204
1.35,-0.9,204
1.35,-0.75,204
1.35,-0.6,204
1.35,-0.45,204
1.35,-0.3,204
1.35,-0.15,204
1.35,0.0,205
1.35,0.15,205
1.35,0.3,205
1.35,0.45,206
1.35,0.6,206
1.35,0.75,195
1.35,0.9,183
1.35,1.05,183
1.35,1.2,183
1.35,1.35,183
1.35,1.5,183
1.5,-1.5,204
1.5,-1.35,204
1.5,-1.2,204
1.5,-1.05,204
1.5,-0.9,204
1.5,-0.75,204
1.5,-0.6,204
1.5,-0.45,204
1.5,-0.3,204
1.5,-0.15,204
1.5,0.0,205
1.5,0.15,206
1.5,0.3,206
1.5,0.45,206
1.5,0.6,205
1.5,0.75,194
1.5,0.9,186
1.5,1.05,183
1.5,1.2,184
1.5,1.35,183
1.5,1.5,183
1.65,-1.5,204
1.65,-1.35,204
1.65,-1.2,204
1.65,-1.05,204
1.65,-0.9,204
1.65,-0.75,204
1.65,-0.6,204
1.65,-0.45,204
1.65,-0.3,204
1.65,-0.15,204
1.65,0.0,206
1.65,0.15,204
1.65,0.3,204
1.65,0.45,206
1.65,0.6,206
1.65,0.75,200
1.65,0.9,194
1.65,1.05,190
1.65,1.2,188
1.65,1.35,186
1.65,1.5,186
1.8,-1.5,204
1.8,-1.35,204
1.8,-1.2,204
1.8,-1.05,204
1.8,-0.9,204
1.8,-0.75,204
1.8,-0.6,204
1.8,-0.45,204
1.8,-0.3,205
1.8,-0.15,205
1.8,0.0,205
1.8,0.15,205
1.8,0.3,204
1.8,0.45,204
1.8,0.6,206
1.8,0.75,206
1.8,0.9,204
1.8,1.05,198
1.8,1.2,194
1.8,1.35,192
1.8,1.5,191
1.95,-1.5,204
1.95,-1.35,204
1.95,-1.2,204
1.95,-1.05,204
1.95,-0.9,204
1.95,-0.75,204
1.95,-0.6,204
1.95,-0.45,205
1.95,-0.3,205
1.95,-0.15,204
1.95,0.0,204
1.95,0.15,205
1.95,0.3,204
1.95,0.45,206
1.95,0.6,206
1.95,0.75,206
1.95,0.9,206
1.95,1.05,204
1.95,1.2,199
1.95,1.35,198
1.95,1.5,196
2.1,-1.5,204
2.1,-1.35,204
2.1,-1.2,204
2.1,-1.05,204
2.1,-0.9,204
2.1,-0.75,204
2.1,-0.6,204
2.1,-0.45,204
2.1,-0.3,204
2.1,-0.15,204
2.1,0.0,204
2.1,0.15,204
2.1,0.3,204
2.1,0.45,204
2.1,0.6,204
2.1,0.75,205
2.1,0.9,205
2.1,1.05,204
2.1,1.2,203
2.1,1.35,203
2.1,1.5,201
2.25,-1.5,204
2.25,-1.35,204
2.25,-1.2,204
2.25,-1.05,204
2.25,-0.9,204
2.25,-0.75,204
2.25,-0.6,204
2.25,-0.45,204
2.25,-0.3,205
2.25,-0.15,205
2.25,0.0,204
2.25,0.15,204
2.25,0.3,204
2.25,0.45,204
2.25,0.6,204
2.25,0.75,204
2.25,0.9,204
2.25,1.05,204
2.25,1.2,204
2.25,1.35,204
2.25,1.5,204
2.4,-1.5,204
2.4,-1.35,204
2.4,-1.2,204
2.4,-1.05,204
2.4,-0.9,204
2.4,-0.75,204
2.4,-0.6,204
2.4,-0.45,205
2.4,-0.3,206
2.4,-0.15,205
2.4,0.0,204
2.4,0.15,204
2.4,0.3,204
2.4,0.45,204
2.4,0.6,204
2.4,0.75,204
2.4,0.9,205
2.4,1.05,204
2.4,1.2,203
2.4,1.35,203
2.4,1.5,204
2.55,-1.5,204
2.55,-1.35,204
2.55,-1.2,204
2.55,-1.05,204
2.55,-0.9,204
2.55,-0.75,204
2.55,-0.6,205
2.55,-0.45,206
2.55,-0.3,206
2.55,-0.15,206
2.55,0.0,204
2.55,0.15,205
2.55,0.3,204
2.55,0.45,204
2.55,0.6,205
2.55,0.75,205
2.55,0.9,205
2.55,1.05,204
2.55,1.2,201
2.55,1.35,199
2.55,1.5,198
2.7,-1.5,208
2.7,-1.35,207
2.7,-1.2,204
2.7,-1.05,204
2.7,-0.9,204
2.7,-0.75,204
2.7,-0.6,205
2.7,-0.45,206
2.7,-0.3,206
2.7,-0.15,205
2.7,0.0,204
2.7,0.15,205
2.7,0.3,204
2.7,0.45,205
2.7,0.6,205
2.7,0.75,205
2.7,0.9,205
2.7,1.05,199
2.7,1.2,193
2.7,1.35,189
2.7,1.5,185
2.85,-1.5,209
2.85,-1.35,208
2.85,-1.2,206
2.85,-1.05,204
2.85,-0.9,204
2.85,-0.75,204
2.85,-0.6,205
2.85,-0.45,206
2.85,-0.3,205
2.85,-0.15,205
2.85,0.0,205
2.85,0.15,206
2.85,0.3,205
2.85,0.45,205
2.85,0.6,205
2.85,0.75,205
2.85,0.9,200
2.85,1.05,193
2.85,1.2,186
2.85,1.35,180
2.85,1.5,175
3.0,-1.5,209
3.0,-1.35,209
3.0,-1.2,208
3.0,-1.05,206
3.0,-0.9,207
3.0,-0.75,208
3.0,-0.6,206
3.0,-0.45,206
3.0,-0.3,205
3.0,-0.15,206
3.0,0.0,204
3.0,0.15,206
3.0,0.3,205
3.0,0.45,205
3.0,0.6,202
3.0,0.75,198
3.0,0.9,190
3.0,1.05,184
3.0,1.2,177
3.0,1.35,169
3.0,1.5,163
3.15,-1.5,208
3.15,-1.35,208
3.15,-1.2,209
3.15,-1.05,209
3.15,-0.9,209
3.15,-0.75,208
3.15,-0.6,207
3.15,-0.45,207
3.15,-0.3,205
3.15,-0.15,206
3.15,0.0,204
3.15,0.15,206
3.15,0.3,205
3.15,0.45,202
3.15,0.6,202
3.15,0.75,196
3.15,0.9,185
3.15,1.05,178
3.15,1.2,171
3.15,1.35,165
3.15,1.5,162
3.3,-1.5,179
3.3,-1.35,186
3.3,-1.2,202
3.3,-1.05,215
3.3,-0.9,212
3.3,-0.75,210
3.3,-0.6,209
3.3,-0.45,208
3.3,-0.3,206
3.3,-0.15,204
3.3,0.0,204
3.3,0.15,206
3.3,0.3,204
3.3,0.45,203
3.3,0.6,205
3.3,0.75,195
3.3,0.9,181
3.3,1.05,173
3.3,1.2,169
3.3,1.35,165
3.3,1.5,162
3.45,-1.5,167
3.45,-1.35,176
3.45,-1.2,199
3.45,-1.05,217
3.45,-0.9,214
3.45,-0.75,210
3.45,-0.6,209
3.45,-0.45,208
3.45,-0.3,206
3.45,-0.15,205
3.45,0.0,204
3.45,0.15,204
3.45,0.3,206
3.45,0.45,206
3.45,0.6,206
3.45,0.75,195
3.45,0.9,180
3.45,1.05,172
3.45,1.2,168
3.45,1.35,164
3.45,1.5,162
3.6,-1.5,200
3.6,-1.35,203
3.6,-1.2,203
3.6,-1.05,203
3.6,-0.9,208
3.6,-0.75,210
3.6,-0.6,208
3.6,-0.45,205
3.6,-0.3,205
3.6,-0.15,205
3.6,0.0,205
3.6,0.15,203
3.6,0.3,203
3.6,0.45,206
3.6,0.6,206
3.6,0.75,198
3.6,0.9,183
3.6,1.05,172
3.6,1.2,165
3.6,1.35,159
3.6,1.5,154
3.75,-1.5,228
3.75,-1.35,225
3.75,-1.2,205
3.75,-1.05,190
3.75,-0.9,203
3.75,-0.75,210
3.75,-0.6,208
3.75,-0.45,205
3.75,-0.3,205
3.75,-0.15,205
3.75,0.0,205
3.75,0.15,203
3.75,0.3,206
3.75,0.45,206
3.75,0.6,206
3.75,0.75,200
3.75,0.9,187
3.75,1.05,176
3.75,1.2,167
3.75,1.35,159
3.75,1.5,152
3.9,-1.5,231
3.9,-1.35,227
3.9,-1.2,211
3.9,-1.05,199
3.9,-0.9,204
3.9,-0.75,208
3.9,-0.6,209
3.9,-0.45,208
3.9,-0.3,206
3.9,-0.15,205
3.9,0.0,206
3.9,0.15,197
3.9,0.3,195
3.9,0.45,206
3.9,0.6,196
3.9,0.75,196
3.9,0.9,193
3.9,1.05,183
3.9,1.2,172
3.9,1.35,163
3.9,1.5,156
4.05,-1.5,235
4.05,-1.35,230
4.05,-1.2,222
4.05,-1.05,214
4.05,-0.9,206
4.05,-0.75,201
4.05,-0.6,208
4.05,-0.45,209
4.05,-0.3,206
4.05,-0.15,205
4.05,0.0,205
4.05,0.15,206
4.05,0.3,202
4.05,0.45,224
4.05,0.6,198
4.05,0.75,197
4.05,0.9,199
4.05,1.05,189
4.05,1.2,178
4.05,1.35,169
4.05,1.5,160
4.2,-1.5,222
4.2,-1.35,218
4.2,-1.2,217
4.2,-1.05,218
4.2,-0.9,204
4.2,-0.75,194
4.2,-0.6,206
4.2,-0.45,209
4.2,-0.3,205
4.2,-0.15,207
4.2,0.0,207
4.2,0.15,204
4.2,0.3,202
4.2,0.45,247
4.2,0.6,220
4.2,0.75,199
4.2,0.9,204
4.2,1.05,197
4.2,1.2,185
4.2,1.35,177
4.2,1.5,170
4.35,-1.5,179
4.35,-1.35,178
4.35,-1.2,198
4.35,-1.05,218
4.35,-0.9,198
4.35,-0.75,178
4.35,-0.6,196
4.35,-0.45,207
4.35,-0.3,205
4.35,-0.15,207
4.35,0.0,207
4.35,0.15,204
4.35,0.3,210
4.35,0.45,210
4.35,0.6,201
4.35,0.75,199
4.35,0.9,204
4.35,1.05,203
4.35,1.2,194
4.35,1.35,189
4.35,1.5,184
4.5,-1.5,151
4.5,-1.35,152
4.5,-1.2,182
4.5,-1.05,217
4.5,-0.9,193
4.5,-0.75,175
4.5,-0.6,187
4.5,-0.45,203
4.5,-0.3,207
4.5,-0.15,206
4.5,0.0,204
4.5,0.15,205
4.5,0.3,208
4.5,0.45,201
4.5,0.6,199
4.5,0.75,199
4.5,0.9,204
4.5,1.05,203
4.5,1.2,198
4.5,1.35,195
4.5,1.5,191
4.65,-1.5,91
4.65,-1.35,100
4.65,-1.2,137
4.65,-1.05,174
4.65,-0.9,175
4.65,-0.75,181
4.65,-0.6,184
4.65,-0.45,191
4.65,-0.3,207
4.65,-0.15,205
4.65,0.0,205
4.65,0.15,204
4.65,0.3,205
4.65,0.45,207
4.65,0.6,208
4.65,0.75,205
4.65,0.9,202
4.65,1.05,203
4.65,1.2,202
4.65,1.35,201
4.65,1.5,199
4.8,-1.5,59
4.8,-1.35,72
4.8,-1.2,108
4.8,-1.05,141
4.8,-0.9,155
4.8,-0.75,179
4.8,-0.6,181
4.8,-0.45,194
4.8,-0.3,207
4.8,-0.15,204
4.8,0.0,206
4.8,0.15,206
4.8,0.3,206
4.8,0.45,205
4.8,0.6,208
4.8,0.75,207
4.8,0.9,204
4.8,1.05,203
4.8,1.2,202
4.8,1.35,201
4.8,1.5,199
4.95,-1.5,82
4.95,-1.35,87
4.95,-1.2,95
4.95,-1.05,106
4.95,-0.9,119
4.95,-0.75,140
4.95,-0.6,164
4.95,-0.45,196
4.95,-0.3,204
4.95,-0.15,204
4.95,0.0,205
4.95,0.15,204
4.95,0.3,206
4.95,0.45,206
4.95,0.6,208
4.95,0.75,204
4.95,0.9,202
4.95,1.05,201
4.95,1.2,198
4.95,1.35,195
4.95,1.5,191
5.1,-1.5,95
5.1,-1.35,95
5.1,-1.2,83
5.1,-1.05,76
5.1,-0.9,94
5.1,-0.75,113
5.1,-0.6,146
5.1,-0.45,188
5.1,-0.3,214
5.1,-0.15,204
5.1,0.0,205
5.1,0.15,204
5.1,0.3,204
5.1,0.45,209
5.1,0.6,212
5.1,0.75,205
5.1,0.9,203
5.1,1.05,199
5.1,1.2,194
5.1,1.35,188
5.1,1.5,181
5.25,-1.5,37
5.25,-1.35,49
5.25,-1.2,59
5.25,-1.05,69
5.25,-0.9,84
5.25,-0.75,103
5.25,-0.6,139
5.25,-0.45,181
5.25,-0.3,221
5.25,-0.15,204
5.25,0.0,204
5.25,0.15,204
5.25,0.3,217
5.25,0.45,207
5.25,0.6,217
5.25,0.75,205
5.25,0.9,201
5.25,1.05,198
5.25,1.2,197
5.25,1.35,194
5.25,1.5,192
5.4,-1.5,0
5.4,-1.35,0
5.4,-1.2,34
5.4,-1.05,72
5.4,-0.9,80
5.4,-0.75,94
5.4,-0.6,133
5.4,-0.45,170
5.4,-0.3,207
5.4,-0.15,206
5.4,0.0,215
5.4,0.15,205
5.4,0.3,207
5.4,0.45,209
5.4,0.6,210
5.4,0.75,201
5.4,0.9,198
5.4,1.05,198
5.4,1.2,205
5.4,1.35,209
5.4,1.5,210
5.55,-1.5,0
5.55,-1.35,0
5.55,-1.2,21
5.55,-1.05,62
5.55,-0.9,93
5.55,-0.75,125
5.55,-0.6,156
5.55,-0.45,191
5.55,-0.3,206
5.55,-0.15,206
5.55,0.0,209
5.55,0.15,204
5.55,0.3,207
5.55,0.45,206
5.55,0.6,200
5.55,0.75,199
5.55,0.9,199
5.55,1.05,199
5.55,1.2,206
5.55,1.35,210
5.55,1.5,210
5.7,-1.5,0
5.7,-1.35,0
5.7,-1.2,0
5.7,-1.05,26
5.7,-0.9,101
5.7,-0.75,168
5.7,-0.6,187
5.7,-0.45,215
5.7,-0.3,219
5.7,-0.15,203
5.7,0.0,203
5.7,0.15,204
5.7,0.3,207
5.7,0.45,205
5.7,0.6,204
5.7,0.75,204
5.7,0.9,205
5.7,1.05,205
5.7,1.2,206
5.7,1.35,208
5.7,1.5,210
5.85,-1.5,0
5.85,-1.35,0
5.85,-1.2,5
5.85,-1.05,33
5.85,-0.9,110
5.85,-0.75,179
5.85,-0.6,196
5.85,-0.45,204
5.85,-0.3,204
5.85,-0.15,203
5.85,0.0,205
5.85,0.15,204
5.85,0.3,204
5.85,0.45,204
5.85,0.6,208
5.85,0.75,207
5.85,0.9,211
5.85,1.05,210
5.85,1.2,208
5.85,1.35,210
5.85,1.5,212
6.0,-1.5,0
6.0,-1.35,0
6.0,-1.2,42
6.0,-1.05,85
6.0,-0.9,136
6.0,-0.75,187
6.0,-0.6,197
6.0,-0.45,204
6.0,-0.3,204
6.0,-0.15,206
6.0,0.0,203
6.0,0.15,205
6.0,0.3,208
6.0,0.45,208
6.0,0.6,204
6.0,0.75,208
6.0,0.9,218
6.0,1.05,217
6.0,1.2,210
6.0,1.35,213
6.0,1.5,214
6.15,-1.5,0
6.15,-1.35,20
6.15,-1.2,62
6.15,-1.05,101
6.15,-0.9,138
6.15,-0.75,178
6.15,-0.6,180
6.15,-0.45,188
6.15,-0.3,202
6.15,-0.15,203
6.15,0.0,206
6.15,0.15,203
6.15,0.3,203
6.15,0.45,206
6.15,0.6,206
6.15,0.75,207
6.15,0.9,217
6.15,1.05,219
6.15,1.2,214
6.15,1.35,217
6.15,1.5,219
6.3,-1.5,45
6.3,-1.35,58
6.3,-1.2,90
6.3,-1.05,119
6.3,-0.9,132
6.3,-0.75,150
6.3,-0.6,153
6.3,-0.45,170
6.3,-0.3,205
6.3,-0.15,202
6.3,0.0,204
6.3,0.15,209
6.3,0.3,204
6.3,0.45,206
6.3,0.6,204
6.3,0.75,205
6.3,0.9,213
6.3,1.05,222
6.3,1.2,230
6.3,1.35,237
6.3,1.5,244
6.45,-1.5,70
6.45,-1.35,79
6.45,-1.2,110
6.45,-1.05,135
6.45,-0.9,128
6.45,-0.75,125
6.45,-0.6,137
6.45,-0.45,168
6.45,-0.3,201
6.45,-0.15,205
6.45,0.0,213
6.45,0.15,213
6.45,0.3,204
6.45,0.45,205
6.45,0.6,202
6.45,0.75,206
6.45,0.9,211
6.45,1.05,219
6.45,1.2,235
6.45,1.35,248
6.45,1.5,255
6.6,-1.5,100
6.6,-1.35,106
6.6,-1.2,125
6.6,-1.05,138
6.6,-0.9,121
6.6,-0.75,112
6.6,-0.6,142
6.6,-0.45,178
6.6,-0.3,193
6.6,-0.15,208
6.6,0.0,204
6.6,0.15,205
6.6,0.3,214
6.6,0.45,204
6.6,0.6,205
6.6,0.75,200
6.6,0.9,203
6.6,1.05,212
6.6,1.2,229
6.6,1.35,247
6.6,1.5,255
6.75,-1.5,140
6.75,-1.35,142
6.75,-1.2,145
6.75,-1.05,146
6.75,-0.9,132
6.75,-0.75,129
6.75,-0.6,163
6.75,-0.45,200
6.75,-0.3,206
6.75,-0.15,204
6.75,0.0,205
6.75,0.15,204
6.75,0.3,205
6.75,0.45,203
6.75,0.6,206
6.75,0.75,198
6.75,0.9,191
6.75,1.05,205
6.75,1.2,227
6.75,1.35,251
6.75,1.5,255
6.9,-1.5,151
6.9,-1.35,155
6.9,-1.2,157
6.9,-1.05,161
6.9,-0.9,162
6.9,-0.75,170
6.9,-0.6,191
6.9,-0.45,208
6.9,-0.3,204
6.9,-0.15,204
6.9,0.0,206
6.9,0.15,205
6.9,0.3,192
6.9,0.45,207
6.9,0.6,219
6.9,0.75,224
6.9,0.9,203
6.9,1.05,209
6.9,1.2,226
6.9,1.35,247
6.9,1.5,255
7.05,-1.5,157
7.05,-1.35,162
7.05,-1.2,164
7.05,-1.05,172
7.05,-0.9,185
7.05,-0.75,201
7.05,-0.6,212
7.05,-0.45,207
7.05,-0.3,206
7.05,-0.15,204
7.05,0.0,206
7.05,0.15,204
7.05,0.3,202
7.05,0.45,209
7.05,0.6,224
7.05,0.75,228
7.05,0.9,210
7.05,1.05,219
7.05,1.2,232
7.05,1.35,248
7.05,1.5,255
7.2,-1.5,158
7.2,-1.35,167
7.2,-1.2,172
7.2,-1.05,183
7.2,-0.9,200
7.2,-0.75,214
7.2,-0.6,217
7.2,-0.45,210
7.2,-0.3,204
7.2,-0.15,206
7.2,0.0,206
7.2,0.15,202
7.2,0.3,202
7.2,0.45,204
7.2,0.6,207
7.2,0.75,204
7.2,0.9,210
7.2,1.05,225
7.2,1.2,242
7.2,1.35,255
7.2,1.5,255
7.35,-1.5,143
7.35,-1.35,158
7.35,-1.2,167
7.35,-1.05,180
7.35,-0.9,203
7.35,-0.75,213
7.35,-0.6,213
7.35,-0.45,207
7.35,-0.3,204
7.35,-0.15,205
7.35,0.0,206
7.35,0.15,206
7.35,0.3,205
7.35,0.45,208
7.35,0.6,204
7.35,0.75,209
7.35,0.9,209
7.35,1.05,225
7.35,1.2,248
7.35,1.35,255
7.35,1.5,255
7.5,-1.5,139
7.5,-1.35,155
7.5,-1.2,165
7.5,-1.05,176
7.5,-0.9,196
7.5,-0.75,205
7.5,-0.6,207
7.5,-0.45,205
7.5,-0.3,205
7.5,-0.15,205
7.5,0.0,206
7.5,0.15,204
7.5,0.3,205
7.5,0.45,204
7.5,0.6,212
7.5,0.75,224
7.5,0.9,220
7.5,1.05,228
7.5,1.2,249
7.5,1.35,255
7.5,1.5,255
7.65,-1.5,138
7.65,-1.35,153
7.65,-1.2,170
7.65,-1.05,181
7.65,-0.9,186
7.65,-0.75,188
7.65,-0.6,197
7.65,-0.45,203
7.65,-0.3,204
7.65,-0.15,204
7.65,0.0,204
7.65,0.15,205
7.65,0.3,204
7.65,0.45,214
7.65,0.6,227
7.65,0.75,231
7.65,0.9,233
7.65,1.05,234
7.65,1.2,236
7.65,1.35,240
7.65,1.5,245
7.8,-1.5,132
7.8,-1.35,148
7.8,-1.2,171
7.8,-1.05,181
7.8,-0.9,177
7.8,-0.75,175
7.8,-0.6,186
7.8,-0.45,197
7.8,-0.3,206
7.8,-0.15,204
7.8,0.0,204
7.8,0.15,206
7.8,0.3,204
7.8,0.45,213
7.8,0.6,223
7.8,0.75,222
7.8,0.9,230
7.8,1.05,230
7.8,1.2,223
7.8,1.35,223
7.8,1.5,223
7.95,-1.5,119
7.95,-1.35,133
7.95,-1.2,148
7.95,-1.05,157
7.95,-0.9,165
7.95,-0.75,172
7.95,-0.6,184
7.95,-0.45,201
7.95,-0.3,202
7.95,-0.15,207
7.95,0.0,205
7.95,0.15,204
7.95,0.3,208
7.95,0.45,210
7.95,0.6,211
7.95,0.75,210
7.95,0.9,214
7.95,1.05,221
7.95,1.2,227
7.95,1.35,231
7.95,1.5,234
8.1,-1.5,100
8.1,-1.35,111
8.1,-1.2,115
8.1,-1.05,123
8.1,-0.9,154
8.1,-0.75,177
8.1,-0.6,191
8.1,-0.45,205
8.1,-0.3,201
8.1,-0.15,204
8.1,0.0,215
8.1,0.15,207
8.1,0.3,204
8.1,0.45,204
8.1,0.6,204
8.1,0.75,204
8.1,0.9,204
8.1,1.05,214
8.1,1.2,232
8.1,1.35,244
8.1,1.5,254
8.25,-1.5,94
8.25,-1.35,106
8.25,-1.2,106
8.25,-1.05,109
8.25,-0.9,150
8.25,-0.75,187
8.25,-0.6,199
8.25,-0.45,205
8.25,-0.3,205
8.25,-0.15,203
8.25,0.0,207
8.25,0.15,207
8.25,0.3,205
8.25,0.45,204
8.25,0.6,204
8.25,0.75,205
8.25,0.9,204
8.25,1.05,211
8.25,1.2,225
8.25,1.35,234
8.25,1.5,243
8.4,-1.5,94
8.4,-1.35,107
8.4,-1.2,106
8.4,-1.05,98
8.4,-0.9,135
8.4,-0.75,173
8.4,-0.6,191
8.4,-0.45,202
8.4,-0.3,205
8.4,-0.15,205
8.4,0.0,203
8.4,0.15,205
8.4,0.3,204
8.4,0.45,204
8.4,0.6,207
8.4,0.75,211
8.4,0.9,211
8.4,1.05,212
8.4,1.2,214
8.4,1.35,216
8.4,1.5,220
8.55,-1.5,91
8.55,-1.35,106
8.55,-1.2,107
8.55,-1.05,102
8.55,-0.9,121
8.55,-0.75,146
8.55,-0.6,171
8.55,-0.45,194
8.55,-0.3,205
8.55,-0.15,204
8.55,0.0,206
8.55,0.15,205
8.55,0.3,206
8.55,0.45,204
8.55,0.6,212
8.55,0.75,213
8.55,0.9,213
8.55,1.05,213
8.55,1.2,209
8.55,1.35,210
8.55,1.5,211
8.7,-1.5,112
8.7,-1.35,119
8.7,-1.2,126
8.7,-1.05,125
8.7,-0.9,120
8.7,-0.75,127
8.7,-0.6,156
8.7,-0.45,191
8.7,-0.3,204
8.7,-0.15,206
8.7,0.0,205
8.7,0.15,206
8.7,0.3,203
8.7,0.45,205
8.7,0.6,206
8.7,0.75,213
8.7,0.9,213
8.7,1.05,208
8.7,1.2,194
8.7,1.35,188
8.7,1.5,183
8.85,-1.5,124
8.85,-1.35,127
8.85,-1.2,132
8.85,-1.05,132
8.85,-0.9,125
8.85,-0.75,132
8.85,-0.6,162
8.85,-0.45,205
8.85,-0.3,206
8.85,-0.15,206
8.85,0.0,204
8.85,0.15,192
8.85,0.3,202
8.85,0.45,205
8.85,0.6,205
8.85,0.75,209
8.85,0.9,211
8.85,1.05,201
8.85,1.2,183
8.85,1.35,174
8.85,1.5,166
9.0,-1.5,131
9.0,-1.35,132
9.0,-1.2,123
9.0,-1.05,119
9.0,-0.9,129
9.0,-0.75,147
9.0,-0.6,177
9.0,-0.45,206
9.0,-0.3,206
9.0,-0.15,204
9.0,0.0,204
9.0,0.15,219
9.0,0.3,203
9.0,0.45,202
9.0,0.6,202
9.0,0.75,199
9.0,0.9,191
9.0,1.05,186
9.0,1.2,180
9.0,1.35,173
9.0,1.5,165
9.15,-1.5,140
9.15,-1.35,139
9.15,-1.2,122
9.15,-1.05,116
9.15,-0.9,138
9.15,-0.75,169
9.15,-0.6,192
9.15,-0.45,202
9.15,-0.3,205
9.15,-0.15,206
9.15,0.0,204
9.15,0.15,204
9.15,0.3,205
9.15,0.45,204
9.15,0.6,202
9.15,0.75,193
9.15,0.9,180
9.15,1.05,176
9.15,1.2,176
9.15,1.35,169
9.15,1.5,163
9.3,-1.5,123
9.3,-1.35,129
9.3,-1.2,132
9.3,-1.05,140
9.3,-0.9,175
9.3,-0.75,216
9.3,-0.6,217
9.3,-0.45,208
9.3,-0.3,206
9.3,-0.15,204
9.3,0.0,206
9.3,0.15,205
9.3,0.3,204
9.3,0.45,209
9.3,0.6,206
9.3,0.75,192
9.3,0.9,177
9.3,1.05,169
9.3,1.2,164
9.3,1.35,154
9.3,1.5,144
9.45,-1.5,109
9.45,-1.35,123
9.45,-1.2,144
9.45,-1.05,163
9.45,-0.9,205
9.45,-0.75,244
9.45,-0.6,228
9.45,-0.45,212
9.45,-0.3,204
9.45,-0.15,206
9.45,0.0,206
9.45,0.15,210
9.45,0.3,210
9.45,0.45,205
9.45,0.6,205
9.45,0.75,199
9.45,0.9,182
9.45,1.05,167
9.45,1.2,155
9.45,1.35,140
9.45,1.5,126
9.6,-1.5,148
9.6,-1.35,157
9.6,-1.2,171
9.6,-1.05,184
9.6,-0.9,212
9.6,-0.75,236
9.6,-0.6,219
9.6,-0.45,209
9.6,-0.3,204
9.6,-0.15,206
9.6,0.0,217
9.6,0.15,208
9.6,0.3,206
9.6,0.45,207
9.6,0.6,208
9.6,0.75,204
9.6,0.9,190
9.6,1.05,171
9.6,1.2,152
9.6,1.35,135
9.6,1.5,119
9.75,-1.5,212
9.75,-1.35,211
9.75,-1.2,211
9.75,-1.05,211
9.75,-0.9,220
9.75,-0.75,226
9.75,-0.6,211
9.75,-0.45,204
9.75,-0.3,204
9.75,-0.15,210
9.75,0.0,210
9.75,0.15,205
9.75,0.3,208
9.75,0.45,208
9.75,0.6,208
9.75,0.75,204
9.75,0.9,193
9.75,1.05,172
9.75,1.2,147
9.75,1.35,127
9.75,1.5,108
9.9,-1.5,227
9.9,-1.35,224
9.9,-1.2,224
9.9,-1.05,224
9.9,-0.9,226
9.9,-0.75,227
9.9,-0.6,216
9.9,-0.45,206
9.9,-0.3,209
9.9,-0.15,210
9.9,0.0,210
9.9,0.15,205
9.9,0.3,205
9.9,0.45,207
9.9,0.6,208
9.9,0.75,202
9.9,0.9,190
9.9,1.05,170
9.9,1.2,146
9.9,1.35,127
9.9,1.5,108
10.05,-1.5,231
10.05,-1.35,228
10.05,-1.2,235
10.05,-1.05,243
10.05,-0.9,234
10.05,-0.75,226
10.05,-0.6,221
10.05,-0.45,211
10.05,-0.3,206
10.05,-0.15,209
10.05,0.0,205
10.05,0.15,205
10.05,0.3,205
10.05,0.45,205
10.05,0.6,204
10.05,0.75,199
10.05,0.9,189
10.05,1.05,173
10.05,1.2,153
10.05,1.35,138
10.05,1.5,123
10.2,-1.5,234
10.2,-1.35,231
10.2,-1.2,238
10.2,-1.05,244
10.2,-0.9,232
10.2,-0.75,222
10.2,-0.6,215
10.2,-0.45,206
10.2,-0.3,206
10.2,-0.15,207
10.2,0.0,205
10.2,0.15,205
10.2,0.3,206
10.2,0.45,206
10.2,0.6,197
10.2,0.75,190
10.2,0.9,184
10.2,1.05,171
10.2,1.2,154
10.2,1.35,141
10.2,1.5,128
10.35,-1.5,235
10.35,-1.35,232
10.35,-1.2,233
10.35,-1.05,233
10.35,-0.9,225
10.35,-0.75,215
10.35,-0.6,208
10.35,-0.45,206
10.35,-0.3,209
10.35,-0.15,210
10.35,0.0,205
10.35,0.15,205
10.35,0.3,206
10.35,0.45,206
10.35,0.6,193
10.35,0.75,183
10.35,0.9,179
10.35,1.05,172
10.35,1.2,162
10.35,1.35,156
10.35,1.5,150
10.5,-1.5,236
10.5,-1.35,233
10.5,-1.2,229
10.5,-1.05,226
10.5,-0.9,220
10.5,-0.75,212
10.5,-0.6,209
10.5,-0.45,210
10.5,-0.3,210
10.5,-0.15,210
10.5,0.0,207
10.5,0.15,206
10.5,0.3,205
10.5,0.45,203
10.5,0.6,193
10.5,0.75,182
10.5,0.9,177
10.5,1.05,174
10.5,1.2,171
10.5,1.35,170
10.5,1.5,169
10.65,-1.5,239
10.65,-1.35,235
10.65,-1.2,230
10.65,-1.05,224
10.65,-0.9,217
10.65,-0.75,211
10.65,-0.6,210
10.65,-0.45,210
10.65,-0.3,210
10.65,-0.15,210
10.65,0.0,207
10.65,0.15,205
10.65,0.3,204
10.65,0.45,202
10.65,0.6,198
10.65,0.75,187
10.65,0.9,176
10.65,1.05,174
10.65,1.2,175
10.65,1.35,174
10.65,1.5,174
10.8,-1.5,242
10.8,-1.35,238
10.8,-1.2,232
10.8,-1.05,224
10.8,-0.9,215
10.8,-0.75,210
10.8,-0.6,210
10.8,-0.45,209
10.8,-0.3,208
10.8,-0.15,207
10.8,0.0,206
10.8,0.15,204
10.8,0.3,205
10.8,0.45,205
10.8,0.6,203
10.8,0.75,193
10.8,0.9,180
10.8,1.05,177
10.8,1.2,179
10.8,1.35,179
10.8,1.5,180
10.95,-1.5,236
10.95,-1.35,233
10.95,-1.2,228
10.95,-1.05,221
10.95,-0.9,215
10.95,-0.75,210
10.95,-0.6,208
10.95,-0.45,207
10.95,-0.3,206
10.95,-0.15,204
10.95,0.0,205
10.95,0.15,205
10.95,0.3,205
10.95,0.45,205
10.95,0.6,204
10.95,0.75,198
10.95,0.9,190
10.95,1.05,187
10.95,1.2,187
10.95,1.35,186
10.95,1.5,186
11.1,-1.5,219
11.1,-1.35,218
11.1,-1.2,218
11.1,-1.05,217
11.1,-0.9,215
11.1,-0.75,211
11.1,-0.6,209
11.1,-0.45,206
11.1,-0.3,204
11.1,-0.15,204
11.1,0.0,205
11.1,0.15,205
11.1,0.3,204
11.1,0.45,203
11.1,0.6,202
11.1,0.75,202
11.1,0.9,202
11.1,1.05,201
11.1,1.2,201
11.1,1.35,200
11.1,1.5,199
11.25,-1.5,217
11.25,-1.35,217
11.25,-1.2,217
11.25,-1.05,218
11.25,-0.9,216
11.25,-0.75,214
11.25,-0.6,210
11.25,-0.45,206
11.25,-0.3,204
11.25,-0.15,204
11.25,0.0,205
11.25,0.15,205
11.25,0.3,205
11.25,0.45,204
11.25,0.6,204
11.25,0.75,204
11.25,0.9,205
11.25,1.05,204
11.25,1.2,204
11.25,1.35,203
11.25,1.5,202
11.4,-1.5,218
11.4,-1.35,218
11.4,-1.2,218
11.4,-1.05,218
11.4,-0.9,217
11.4,-0.75,216
11.4,-0.6,212
11.4,-0.45,208
11.4,-0.3,204
11.4,-0.15,204
11.4,0.0,205
11.4,0.15,205
11.4,0.3,205
11.4,0.45,205
11.4,0.6,205
11.4,0.75,205
11.4,0.9,205
11.4,1.05,205
11.4,1.2,205
11.4,1.35,205
11.4,1.5,204
11.55,-1.5,218
11.55,-1.35,218
11.55,-1.2,218
11.55,-1.05,218
11.55,-0.9,218
11.55,-0.75,218
11.55,-0.6,215
11.55,-0.45,211
11.55,-0.3,206
11.55,-0.15,204
11.55,0.0,205
11.55,0.15,205
11.55,0.3,205
11.55,0.45,205
11.55,0.6,205
11.55,0.75,205
11.55,0.9,205
11.55,1.05,205
11.55,1.2,205
11.55,1.35,205
11.55,1.5,205
11.7,-1.5,218
11.7,-1.35,217
11.7,-1.2,218
11.7,-1.05,218
11.7,-0.9,218
11.7,-0.75,218
11.7,-0.6,217
11.7,-0.45,213
11.7,-0.3,208
11.7,-0.15,205
11.7,0.0,204
11.7,0.15,204
11.7,0.3,202
11.7,0.45,202
11.7,0.6,203
11.7,0.75,204
11.7,0.9,205
11.7,1.05,205
11.7,1.2,205
11.7,1.35,205
11.7,1.5,205
11.85,-1.5,217
11.85,-1.35,217
11.85,-1.2,218
11.85,-1.05,218
11.85,-0.9,218
11.85,-0.75,218
11.85,-0.6,217
11.85,-0.45,213
11.85,-0.3,210
11.85,-0.15,206
11.85,0.0,204
11.85,0.15,201
11.85,0.3,199
11.85,0.45,198
11.85,0.6,199
11.85,0.75,202
11.85,0.9,204
11.85,1.05,205
11.85,1.2,205
11.85,1.35,205
11.85,1.5,205
12.0,-1.5,217
12.0,-1.35,217
12.0,-1.2,218
12.0,-1.05,218
12.0,-0.9,218
12.0,-0.75,218
12.0,-0.6,215
12.0,-0.45,211
12.0,-0.3,207
12.0,-0.15,205
12.0,0.0,203
12.0,0.15,201
12.0,0.3,198
12.0,0.45,197
12.0,0.6,197
12.0,0.75,200
12.0,0.9,202
12.0,1.05,205
12.0,1.2,205
12.0,1.35,205
12.0,1.5,205
12.15,-1.5,217
12.15,-1.35,217
12.15,-1.2,217
12.15,-1.05,218
12.15,-0.9,217
12.15,-0.75,216
12.15,-0.6,213
12.15,-0.45,209
12.15,-0.3,206
12.15,-0.15,204
12.15,0.0,203
12.15,0.15,201
12.15,0.3,199
12.15,0.45,197
12.15,0.6,196
12.15,0.75,198
12.15,0.9,199
12.15,1.05,202
12.15,1.2,205
12.15,1.35,205
12.15,1.5,205
12.3,-1.5,216
12.3,-1.35,215
12.3,-1.2,215
12.3,-1.05,215
12.3,-0.9,214
12.3,-0.75,213
12.3,-0.6,211
12.3,-0.45,208
12.3,-0.3,206
12.3,-0.15,205
12.3,0.0,204
12.3,0.15,203
12.3,0.3,201
12.3,0.45,199
12.3,0.6,197
12.3,0.75,198
12.3,0.9,199
12.3,1.05,201
12.3,1.2,203
12.3,1.35,203
12.3,1.5,203
12.45,-1.5,215
12.45,-1.35,214
12.45,-1.2,213
12.45,-1.05,212
12.45,-0.9,212
12.45,-0.75,211
12.45,-0.6,210
12.45,-0.45,208
12.45,-0.3,206
12.45,-0.15,206
12.45,0.0,205
12.45,0.15,205
12.45,0.3,204
12.45,0.45,201
12.45,0.6,199
12.45,0.75,199
12.45,0.9,199
12.45,1.05,200
12.45,1.2,201
12.45,1.35,201
12.45,1.5,201
12.6,-1.5,212
12.6,-1.35,212
12.6,-1.2,211
12.6,-1.05,210
12.6,-0.9,209
12.6,-0.75,209
12.6,-0.6,208
12.6,-0.45,207
12.6,-0.3,205
12.6,-0.15,205
12.6,0.0,205
12.6,0.15,205
12.6,0.3,205
12.6,0.45,203
12.6,0.6,202
12.6,0.75,201
12.6,0.9,201
12.6,1.05,201
12.6,1.2,201
12.6,1.35,201
12.6,1.5,202
12.75,-1.5,209
12.75,-1.35,209
12.75,-1.2,208
12.75,-1.05,208
12.75,-0.9,207
12.75,-0.75,206
12.75,-0.6,205
12.75,-0.45,204
12.75,-0.3,204
12.75,-0.15,204
12.75,0.0,204
12.75,0.15,204
12.75,0.3,204
12.75,0.45,204
12.75,0.6,204
12.75,0.75,204
12.75,0.9,203
12.75,1.05,202
12.75,1.2,202
12.75,1.35,202
12.75,1.5,203
12.9,-1.5,206
12.9,-1.35,206
12.9,-1.2,205
12.9,-1.05,205
12.9,-0.9,204
12.9,-0.75,204
12.9,-0.6,204
12.9,-0.45,204
12.9,-0.3,204
12.9,-0.15,204
12.9,0.0,204
12.9,0.15,204
12.9,0.3,204
12.9,0.45,204
12.9,0.6,204
12.9,0.75,204
12.9,0.9,204
12.9,1.05,203
12.9,1.2,203
12.9,1.35,203
12.9,1.5,204
13.05,-1.5,204
13.05,-1.35,204
13.05,-1.2,204
13.05,-1.05,204
13.05,-0.9,204
13.05,-0.75,204
13.05,-0.6,204
13.05,-0.45,204
13.05,-0.3,204
13.05,-0.15,204
13.05,0.0,204
13.05,0.15,204
13.05,0.3,204
13.05,0.45,204
13.05,0.6,204
13.05,0.75,204
13.05,0.9,204
13.05,1.05,204
13.05,1.2,204
13.05,1.35,204
13.05,1.5,204
