-3.0,-1.5,147
-3.0,-1.35,143
-3.0,-1.2,139
-3.0,-1.05,134
-3.0,-0.9,129
-3.0,-0.75,127
-3.0,-0.6,127
-3.0,-0.45,134
-3.0,-0.3,141
-3.0,-0.15,142
-3.0,0.0,147
-3.0,0.15,161
-3.0,0.3,158
-3.0,0.45,154
-3.0,0.6,150
-3.0,0.75,148
-3.0,0.9,148
-3.0,1.05,148
-3.0,1.2,147
-3.0,1.35,147
-3.0,1.5,147
-2.85,-1.5,152
-2.85,-1.35,148
-2.85,-1.2,143
-2.85,-1.05,138
-2.85,-0.9,132
-2.85,-0.75,131
-2.85,-0.6,136
-2.85,-0.45,144
-2.85,-0.3,148
-2.85,-0.15,148
-2.85,0.0,149
-2.85,0.15,155
-2.85,0.3,152
-2.85,0.45,150
-2.85,0.6,149
-2.85,0.75,148
-2.85,0.9,148
-2.85,1.05,147
-2.85,1.2,147
-2.85,1.35,147
-2.85,1.5,146
-2.7,-1.5,157
-2.7,-1.35,153
-2.7,-1.2,148
-2.7,-1.05,142
-2.7,-0.9,136
-2.7,-0.75,137
-2.7,-0.6,146
-2.7,-0.45,154
-2.7,-0.3,154
-2.7,-0.15,150
-2.7,0.0,149
-2.7,0.15,150
-2.7,0.3,148
-2.7,0.45,148
-2.7,0.6,148
-2.7,0.75,148
-2.7,0.9,148
-2.7,1.05,147
-2.7,1.2,147
-2.7,1.35,146
-2.7,1.5,146
-2.55,-1.5,164
-2.55,-1.35,160
-2.55,-1.2,153
-2.55,-1.05,147
-2.55,-0.9,142
-2.55,-0.75,143
-2.55,-0.6,154
-2.55,-0.45,159
-2.55,-0.3,155
-2.55,-0.15,150
-2.55,0.0,148
-2.55,0.15,148
-2.55,0.3,148
-2.55,0.45,148
-2.55,0.6,148
-2.55,0.75,148
-2.55,0.9,147
-2.55,1.05,146
-2.55,1.2,143
-2.55,1.35,142
-2.55,1.5,142
-2.4,-1.5,168
-2.4,-1.35,163
-2.4,-1.2,155
-2.4,-1.05,149
-2.4,-0.9,145
-2.4,-0.75,147
-2.4,-0.6,156
-2.4,-0.45,157
-2.4,-0.3,152
-2.4,-0.15,148
-2.4,0.0,148
-2.4,0.15,148
-2.4,0.3,148
-2.4,0.45,148
-2.4,0.6,148
-2.4,0.75,147
-2.4,0.9,147
-2.4,1.05,145
-2.4,1.2,142
-2.4,1.35,142
-2.4,1.5,142
-2.25,-1.5,164
-2.25,-1.35,158
-2.25,-1.2,152
-2.25,-1.05,145
-2.25,-0.9,141
-2.25,-0.75,143
-2.25,-0.6,147
-2.25,-0.45,149
-2.25,-0.3,149
-2.25,-0.15,148
-2.25,0.0,148
-2.25,0.15,148
-2.25,0.3,148
-2.25,0.45,148
-2.25,0.6,147
-2.25,0.75,147
-2.25,0.9,143
-2.25,1.05,142
-2.25,1.2,142
-2.25,1.35,142
-2.25,1.5,142
-2.1,-1.5,161
-2.1,-1.35,151
-2.1,-1.2,144
-2.1,-1.05,135
-2.1,-0.9,134
-2.1,-0.75,137
-2.1,-0.6,147
-2.1,-0.45,149
-2.1,-0.3,149
-2.1,-0.15,149
-2.1,0.0,148
-2.1,0.15,148
-2.1,0.3,148
-2.1,0.45,148
-2.1,0.6,147
-2.1,0.75,146
-2.1,0.9,142
-2.1,1.05,142
-2.1,1.2,142
-2.1,1.35,142
-2.1,1.5,142
-1.95,-1.5,160
-1.95,-1.35,147
-1.95,-1.2,132
-1.95,-1.05,120
-1.95,-0.9,119
-1.95,-0.75,125
-1.95,-0.6,144
-1.95,-0.45,149
-1.95,-0.3,149
-1.95,-0.15,149
-1.95,0.0,149
-1.95,0.15,149
-1.95,0.3,148
-1.95,0.45,147
-1.95,0.6,145
-1.95,0.75,142
-1.95,0.9,142
-1.95,1.05,142
-1.95,1.2,142
-1.95,1.35,142
-1.95,1.5,142
-1.8,-1.5,158
-1.8,-1.35,145
-1.8,-1.2,128
-1.8,-1.05,111
-1.8,-0.9,101
-1.8,-0.75,107
-1.8,-0.6,128
-1.8,-0.45,146
-1.8,-0.3,148
-1.8,-0.15,148
-1.8,0.0,149
-1.8,0.15,149
-1.8,0.3,148
-1.8,0.45,147
-1.8,0.6,145
-1.8,0.75,142
-1.8,0.9,142
-1.8,1.05,142
-1.8,1.2,142
-1.8,1.35,142
-1.8,1.5,142
-1.65,-1.5,154
-1.65,-1.35,145
-1.65,-1.2,131
-1.65,-1.05,113
-1.65,-0.9,98
-1.65,-0.75,97
-1.65,-0.6,116
-1.65,-0.45,143
-1.65,-0.3,143
-1.65,-0.15,145
-1.65,0.0,148
-1.65,0.15,149
-1.65,0.3,149
-1.65,0.45,148
-1.65,0.6,145
-1.65,0.75,142
-1.65,0.9,142
-1.65,1.05,142
-1.65,1.2,142
-1.65,1.35,142
-1.65,1.5,142
-1.5,-1.5,155
-1.5,-1.35,149
-1.5,-1.2,141
-1.5,-1.05,125
-1.5,-0.9,111
-1.5,-0.75,105
-1.5,-0.6,124
-1.5,-0.45,156
-1.5,-0.3,149
-1.5,-0.15,144
-1.5,0.0,147
-1.5,0.15,151
-1.5,0.3,153
-1.5,0.45,150
-1.5,0.6,147
-1.5,0.75,143
-1.5,0.9,143
-1.5,1.05,143
-1.5,1.2,140
-1.5,1.35,138
-1.5,1.5,137
-1.35,-1.5,156
-1.35,-1.35,154
-1.35,-1.2,152
-1.35,-1.05,143
-1.35,-0.9,136
-1.35,-0.75,131
-1.35,-0.6,149
-1.35,-0.45,176
-1.35,-0.3,163
-1.35,-0.15,148
-1.35,0.0,145
-1.35,0.15,154
-1.35,0.3,157
-1.35,0.45,153
-1.35,0.6,148
-1.35,0.75,146
-1.35,0.9,145
-1.35,1.05,145
-1.35,1.2,139
-1.35,1.35,133
-1.35,1.5,127
-1.2,-1.5,156
-1.2,-1.35,156
-1.2,-1.2,155
-1.2,-1.05,156
-1.2,-0.9,153
-1.2,-0.75,148
-1.2,-0.6,152
-1.2,-0.45,166
-1.2,-0.3,167
-1.2,-0.15,163
-1.2,0.0,155
-1.2,0.15,157
-1.2,0.3,156
-1.2,0.45,152
-1.2,0.6,153
-1.2,0.75,154
-1.2,0.9,152
-1.2,1.05,149
-1.2,1.2,145
-1.2,1.35,138
-1.2,1.5,132
-1.05,-1.5,153
-1.05,-1.35,154
-1.05,-1.2,156
-1.05,-1.05,163
-1.05,-0.9,162
-1.05,-0.75,151
-1.05,-0.6,148
-1.05,-0.45,153
-1.05,-0.3,163
-1.05,-0.15,167
-1.05,0.0,160
-1.05,0.15,152
-1.05,0.3,150
-1.05,0.45,151
-1.05,0.6,161
-1.05,0.75,170
-1.05,0.9,164
-1.05,1.05,157
-1.05,1.2,148
-1.05,1.35,142
-1.05,1.5,135
-0.9,-1.5,151
-0.9,-1.35,152
-0.9,-1.2,156
-0.9,-1.05,161
-0.9,-0.9,157
-0.9,-0.75,152
-0.9,-0.6,148
-0.9,-0.45,149
-0.9,-0.3,152
-0.9,-0.15,156
-0.9,0.0,153
-0.9,0.15,149
-0.9,0.3,152
-0.9,0.45,161
-0.9,0.6,173
-0.9,0.75,180
-0.9,0.9,169
-0.9,1.05,161
-0.9,1.2,156
-0.9,1.35,151
-0.9,1.5,146
-0.75,-1.5,151
-0.75,-1.35,152
-0.75,-1.2,154
-0.75,-1.05,156
-0.75,-0.9,152
-0.75,-0.75,153
-0.75,-0.6,152
-0.75,-0.45,153
-0.75,-0.3,152
-0.75,-0.15,151
-0.75,0.0,149
-0.75,0.15,150
-0.75,0.3,156
-0.75,0.45,171
-0.75,0.6,183
-0.75,0.75,187
-0.75,0.9,171
-0.75,1.05,162
-0.75,1.2,162
-0.75,1.35,158
-0.75,1.5,155
-0.6,-1.5,150
-0.6,-1.35,153
-0.6,-1.2,154
-0.6,-1.05,152
-0.6,-0.9,148
-0.6,-0.75,151
-0.6,-0.6,153
-0.6,-0.45,153
-0.6,-0.3,153
-0.6,-0.15,149
-0.6,0.0,148
-0.6,0.15,150
-0.6,0.3,161
-0.6,0.45,169
-0.6,0.6,179
-0.6,0.75,181
-0.6,0.9,176
-0.6,1.05,167
-0.6,1.2,146
-0.6,1.35,142
-0.6,1.5,139
-0.45,-1.5,147
-0.45,-1.35,151
-0.45,-1.2,154
-0.45,-1.05,153
-0.45,-0.9,148
-0.45,-0.75,150
-0.45,-0.6,153
-0.45,-0.45,153
-0.45,-0.3,151
-0.45,-0.15,148
-0.45,0.0,148
-0.45,0.15,149
-0.45,0.3,164
-0.45,0.45,169
-0.45,0.6,174
-0.45,0.75,174
-0.45,0.9,175
-0.45,1.05,168
-0.45,1.2,142
-0.45,1.35,137
-0.45,1.5,135
-0.3,-1.5,142
-0.3,-1.35,146
-0.3,-1.2,150
-0.3,-1.05,153
-0.3,-0.9,151
-0.3,-0.75,148
-0.3,-0.6,148
-0.3,-0.45,151
-0.3,-0.3,150
-0.3,-0.15,151
-0.3,0.0,149
-0.3,0.15,148
-0.3,0.3,162
-0.3,0.45,166
-0.3,0.6,167
-0.3,0.75,166
-0.3,0.9,160
-0.3,1.05,161
-0.3,1.2,167
-0.3,1.35,171
-0.3,1.5,175
-0.15,-1.5,139
-0.15,-1.35,141
-0.15,-1.2,145
-0.15,-1.05,151
-0.15,-0.9,154
-0.15,-0.75,148
-0.15,-0.6,148
-0.15,-0.45,151
-0.15,-0.3,150
-0.15,-0.15,151
-0.15,0.0,151
-0.15,0.15,148
-0.15,0.3,155
-0.15,0.45,158
-0.15,0.6,159
-0.15,0.75,161
-0.15,0.9,156
-0.15,1.05,160
-0.15,1.2,174
-0.15,1.35,181
-0.15,1.5,187
0.0,-1.5,136
0.0,-1.35,139
0.0,-1.2,145
0.0,-1.05,152
0.0,-0.9,157
0.0,-0.75,149
0.0,-0.6,148
0.0,-0.45,148
0.0,-0.3,148
0.0,-0.15,150
0.0,0.0,151
0.0,0.15,148
0.0,0.3,150
0.0,0.45,150
0.0,0.6,152
0.0,0.75,155
0.0,0.9,156
0.0,1.05,161
0.0,1.2,173
0.0,1.35,179
0.0,1.5,185
0.15,-1.5,137
0.15,-1.35,140
0.15,-1.2,148
0.15,-1.05,155
0.15,-0.9,160
0.15,-0.75,152
0.15,-0.6,148
0.15,-0.45,148
0.15,-0.3,148
0.15,-0.15,151
0.15,0.0,151
0.15,0.15,148
0.15,0.3,150
0.15,0.45,150
0.15,0.6,150
0.15,0.75,153
0.15,0.9,158
0.15,1.05,163
0.15,1.2,171
0.15,1.35,176
0.15,1.5,181
0.3,-1.5,143
0.3,-1.35,146
0.3,-1.2,152
0.3,-1.05,158
0.3,-0.9,162
0.3,-0.75,155
0.3,-0.6,147
0.3,-0.45,151
0.3,-0.3,151
0.3,-0.15,151
0.3,0.0,151
0.3,0.15,148
0.3,0.3,150
0.3,0.45,150
0.3,0.6,151
0.3,0.75,155
0.3,0.9,159
0.3,1.05,164
0.3,1.2,168
0.3,1.35,171
0.3,1.5,174
0.45,-1.5,145
0.45,-1.35,149
0.45,-1.2,153
0.45,-1.05,155
0.45,-0.9,154
0.45,-0.75,147
0.45,-0.6,147
0.45,-0.45,151
0.45,-0.3,149
0.45,-0.15,148
0.45,0.0,148
0.45,0.15,148
0.45,0.3,149
0.45,0.45,149
0.45,0.6,150
0.45,0.75,155
0.45,0.9,160
0.45,1.05,165
0.45,1.2,168
0.45,1.35,171
0.45,1.5,174
0.6,-1.5,147
0.6,-1.35,150
0.6,-1.2,152
0.6,-1.05,152
0.6,-0.9,147
0.6,-0.75,147
0.6,-0.6,147
0.6,-0.45,151
0.6,-0.3,148
0.6,-0.15,149
0.6,0.0,148
0.6,0.15,149
0.6,0.3,149
0.6,0.45,148
0.6,0.6,149
0.6,0.75,155
0.6,0.9,161
0.6,1.05,165
0.6,1.2,169
0.6,1.35,172
0.6,1.5,174
0.75,-1.5,151
0.75,-1.35,151
0.75,-1.2,150
0.75,-1.05,149
0.75,-0.9,147
0.75,-0.75,147
0.75,-0.6,149
0.75,-0.45,151
0.75,-0.3,148
0.75,-0.15,149
0.75,0.0,149
0.75,0.15,149
0.75,0.3,149
0.75,0.45,148
0.75,0.6,149
0.75,0.75,154
0.75,0.9,159
0.75,1.05,163
0.75,1.2,169
0.75,1.35,172
0.75,1.5,174
0.9,-1.5,151
0.9,-1.35,151
0.9,-1.2,148
0.9,-1.05,147
0.9,-0.9,147
0.9,-0.75,147
0.9,-0.6,151
0.9,-0.45,148
0.9,-0.3,148
0.9,-0.15,148
0.9,0.0,149
0.9,0.15,148
0.9,0.3,149
0.9,0.45,150
0.9,0.6,147
0.9,0.75,150
0.9,0.9,152
0.9,1.05,156
0.9,1.2,168
0.9,1.35,172
0.9,1.5,174
1.05,-1.5,151
1.05,-1.35,149
1.05,-1.2,147
1.05,-1.05,147
1.05,-0.9,147
1.05,-0.75,147
1.05,-0.6,151
1.05,-0.45,151
1.05,-0.3,148
1.05,-0.15,149
1.05,0.0,149
1.05,0.15,148
1.05,0.3,151
1.05,0.45,148
1.05,0.6,145
1.05,0.75,144
1.05,0.9,147
1.05,1.05,153
1.05,1.2,164
1.05,1.35,168
1.05,1.5,170
1.2,-1.5,149
1.2,-1.35,148
1.2,-1.2,147
1.2,-1.05,147
1.2,-0.9,147
1.2,-0.75,147
1.2,-0.6,147
1.2,-0.45,148
1.2,-0.3,148
1.2,-0.15,148
1.2,0.0,148
1.2,0.15,149
1.2,0.3,151
1.2,0.45,144
1.2,0.6,144
1.2,0.75,144
1.2,0.9,145
1.2,1.05,152
1.2,1.2,159
1.2,1.35,161
1.2,1.5,163
1.35,-1.5,146
1.35,-1.35,146
1.35,-1.2,147
1.35,-1.05,148
1.35,-0.9,147
1.35,-0.75,147
1.35,-0.6,149
1.35,-0.45,150
1.35,-0.3,150
1.35,-0.15,150
1.35,0.0,157
1.35,0.15,151
1.35,0.3,147
1.35,0.45,144
1.35,0.6,144
1.35,0.75,144
1.35,0.9,145
1.35,1.05,148
1.35,1.2,143
1.35,1.35,142
1.35,1.5,141
1.5,-1.5,143
1.5,-1.35,145
1.5,-1.2,147
1.5,-1.05,148
1.5,-0.9,148
1.5,-0.75,147
1.5,-0.6,148
1.5,-0.45,146
1.5,-0.3,149
1.5,-0.15,148
1.5,0.0,151
1.5,0.15,147
1.5,0.3,144
1.5,0.45,145
1.5,0.6,145
1.5,0.75,144
1.5,0.9,147
1.5,1.05,147
1.5,1.2,135
1.5,1.35,132
1.5,1.5,129
1.65,-1.5,141
1.65,-1.35,143
1.65,-1.2,145
1.65,-1.05,146
1.65,-0.9,148
1.65,-0.75,148
1.65,-0.6,146
1.65,-0.45,148
1.65,-0.3,149
1.65,-0.15,149
1.65,0.0,148
1.65,0.15,146
1.65,0.3,144
1.65,0.45,145
1.65,0.6,145
1.65,0.75,142
1.65,0.9,139
1.65,1.05,134
1.65,1.2,129
1.65,1.35,126
1.65,1.5,123
1.8,-1.5,139
1.8,-1.35,142
1.8,-1.2,144
1.8,-1.05,145
1.8,-0.9,145
1.8,-0.75,147
1.8,-0.6,146
1.8,-0.45,149
1.8,-0.3,148
1.8,-0.15,148
1.8,0.0,149
1.8,0.15,146
1.8,0.3,148
1.8,0.45,147
1.8,0.6,145
1.8,0.75,142
1.8,0.9,134
1.8,1.05,126
1.8,1.2,125
1.8,1.35,122
1.8,1.5,119
1.95,-1.5,139
1.95,-1.35,141
1.95,-1.2,145
1.95,-1.05,146
1.95,-0.9,145
1.95,-0.75,146
1.95,-0.6,148
1.95,-0.45,149
1.95,-0.3,149
1.95,-0.15,149
1.95,0.0,146
1.95,0.15,149
1.95,0.3,148
1.95,0.45,148
1.95,0.6,144
1.95,0.75,135
1.95,0.9,127
1.95,1.05,125
1.95,1.2,134
1.95,1.35,133
1.95,1.5,130
2.1,-1.5,139
2.1,-1.35,141
2.1,-1.2,146
2.1,-1.05,148
2.1,-0.9,148
2.1,-0.75,148
2.1,-0.6,147
2.1,-0.45,149
2.1,-0.3,148
2.1,-0.15,148
2.1,0.0,146
2.1,0.15,148
2.1,0.3,147
2.1,0.45,147
2.1,0.6,143
2.1,0.75,134
2.1,0.9,127
2.1,1.05,125
2.1,1.2,138
2.1,1.35,137
2.1,1.5,134
2.25,-1.5,139
2.25,-1.35,141
2.25,-1.2,145
2.25,-1.05,148
2.25,-0.9,149
2.25,-0.75,149
2.25,-0.6,149
2.25,-0.45,149
2.25,-0.3,148
2.25,-0.15,148
2.25,0.0,147
2.25,0.15,148
2.25,0.3,148
2.25,0.45,149
2.25,0.6,144
2.25,0.75,136
2.25,0.9,130
2.25,1.05,128
2.25,1.2,140
2.25,1.35,138
2.25,1.5,136
2.4,-1.5,139
2.4,-1.35,140
2.4,-1.2,143
2.4,-1.05,147
2.4,-0.9,147
2.4,-0.75,147
2.4,-0.6,148
2.4,-0.45,149
2.4,-0.3,148
2.4,-0.15,147
2.4,0.0,150
2.4,0.15,154
2.4,0.3,159
2.4,0.45,155
2.4,0.6,147
2.4,0.75,139
2.4,0.9,133
2.4,1.05,131
2.4,1.2,142
2.4,1.35,142
2.4,1.5,139
2.55,-1.5,139
2.55,-1.35,140
2.55,-1.2,141
2.55,-1.05,145
2.55,-0.9,148
2.55,-0.75,149
2.55,-0.6,147
2.55,-0.45,149
2.55,-0.3,148
2.55,-0.15,148
2.55,0.0,150
2.55,0.15,145
2.55,0.3,148
2.55,0.45,154
2.55,0.6,151
2.55,0.75,144
2.55,0.9,136
2.55,1.05,133
2.55,1.2,148
2.55,1.35,149
2.55,1.5,147
2.7,-1.5,139
2.7,-1.35,141
2.7,-1.2,142
2.7,-1.05,143
2.7,-0.9,146
2.7,-0.75,147
2.7,-0.6,149
2.7,-0.45,147
2.7,-0.3,149
2.7,-0.15,149
2.7,0.0,150
2.7,0.15,139
2.7,0.3,148
2.7,0.45,149
2.7,0.6,150
2.7,0.75,147
2.7,0.9,119
2.7,1.05,106
2.7,1.2,129
2.7,1.35,135
2.7,1.5,141
2.85,-1.5,139
2.85,-1.35,143
2.85,-1.2,155
2.85,-1.05,146
2.85,-0.9,146
2.85,-0.75,148
2.85,-0.6,150
2.85,-0.45,148
2.85,-0.3,147
2.85,-0.15,147
2.85,0.0,140
2.85,0.15,147
2.85,0.3,148
2.85,0.45,150
2.85,0.6,151
2.85,0.75,146
2.85,0.9,72
2.85,1.05,41
2.85,1.2,86
2.85,1.35,108
2.85,1.5,132
3.0,-1.5,133
3.0,-1.35,141
3.0,-1.2,166
3.0,-1.05,155
3.0,-0.9,147
3.0,-0.75,148
3.0,-0.6,146
3.0,-0.45,150
3.0,-0.3,150
3.0,-0.15,141
3.0,0.0,145
3.0,0.15,149
3.0,0.3,150
3.0,0.45,151
3.0,0.6,140
3.0,0.75,106
3.0,0.9,52
3.0,1.05,36
3.0,1.2,62
3.0,1.35,84
3.0,1.5,108
3.15,-1.5,127
3.15,-1.35,139
3.15,-1.2,178
3.15,-1.05,172
3.15,-0.9,156
3.15,-0.75,142
3.15,-0.6,148
3.15,-0.45,151
3.15,-0.3,146
3.15,-0.15,144
3.15,0.0,144
3.15,0.15,150
3.15,0.3,151
3.15,0.45,151
3.15,0.6,112
3.15,0.75,41
3.15,0.9,36
3.15,1.05,49
3.15,1.2,48
3.15,1.35,66
3.15,1.5,87
3.3,-1.5,133
3.3,-1.35,141
3.3,-1.2,178
3.3,-1.05,180
3.3,-0.9,159
3.3,-0.75,139
3.3,-0.6,145
3.3,-0.45,151
3.3,-0.3,150
3.3,-0.15,149
3.3,0.0,148
3.3,0.15,146
3.3,0.3,146
3.3,0.45,151
3.3,0.6,100
3.3,0.75,32
3.3,0.9,35
3.3,1.05,54
3.3,1.2,71
3.3,1.35,92
3.3,1.5,111
3.45,-1.5,137
3.45,-1.35,141
3.45,-1.2,170
3.45,-1.05,170
3.45,-0.9,148
3.45,-0.75,145
3.45,-0.6,151
3.45,-0.45,150
3.45,-0.3,148
3.45,-0.15,149
3.45,0.0,150
3.45,0.15,147
3.45,0.3,165
3.45,0.45,175
3.45,0.6,119
3.45,0.75,69
3.45,0.9,77
3.45,1.05,92
3.45,1.2,114
3.45,1.35,131
3.45,1.5,145
3.6,-1.5,123
3.6,-1.35,129
3.6,-1.2,143
3.6,-1.05,151
3.6,-0.9,149
3.6,-0.75,151
3.6,-0.6,148
3.6,-0.45,147
3.6,-0.3,151
3.6,-0.15,148
3.6,0.0,151
3.6,0.15,147
3.6,0.3,160
3.6,0.45,185
3.6,0.6,171
3.6,0.75,154
3.6,0.9,149
3.6,1.05,142
3.6,1.2,137
3.6,1.35,127
3.6,1.5,116
3.75,-1.5,117
3.75,-1.35,122
3.75,-1.2,134
3.75,-1.05,146
3.75,-0.9,147
3.75,-0.75,147
3.75,-0.6,151
3.75,-0.45,147
3.75,-0.3,147
3.75,-0.15,151
3.75,0.0,148
3.75,0.15,150
3.75,0.3,147
3.75,0.45,158
3.75,0.6,195
3.75,0.75,230
3.75,0.9,227
3.75,1.05,206
3.75,1.2,171
3.75,1.35,141
3.75,1.5,113
3.9,-1.5,117
3.9,-1.35,124
3.9,-1.2,138
3.9,-1.05,148
3.9,-0.9,148
3.9,-0.75,148
3.9,-0.6,151
3.9,-0.45,147
3.9,-0.3,151
3.9,-0.15,150
3.9,0.0,148
3.9,0.15,148
3.9,0.3,147
3.9,0.45,154
3.9,0.6,202
3.9,0.75,255
3.9,0.9,255
3.9,1.05,229
3.9,1.2,191
3.9,1.35,153
3.9,1.5,116
4.05,-1.5,117
4.05,-1.35,127
4.05,-1.2,142
4.05,-1.05,158
4.05,-0.9,155
4.05,-0.75,149
4.05,-0.6,147
4.05,-0.45,151
4.05,-0.3,147
4.05,-0.15,154
4.05,0.0,148
4.05,0.15,150
4.05,0.3,150
4.05,0.45,160
4.05,0.6,194
4.05,0.75,238
4.05,0.9,249
4.05,1.05,230
4.05,1.2,204
4.05,1.35,169
4.05,1.5,132
4.2,-1.5,106
4.2,-1.35,124
4.2,-1.2,147
4.2,-1.05,159
4.2,-0.9,145
4.2,-0.75,144
4.2,-0.6,146
4.2,-0.45,149
4.2,-0.3,155
4.2,-0.15,154
4.2,0.0,149
4.2,0.15,142
4.2,0.3,138
4.2,0.45,138
4.2,0.6,165
4.2,0.75,174
4.2,0.9,216
4.2,1.05,219
4.2,1.2,201
4.2,1.35,173
4.2,1.5,141
4.35,-1.5,102
4.35,-1.35,121
4.35,-1.2,147
4.35,-1.05,153
4.35,-0.9,144
4.35,-0.75,144
4.35,-0.6,153
4.35,-0.45,162
4.35,-0.3,162
4.35,-0.15,150
4.35,0.0,145
4.35,0.15,149
4.35,0.3,129
4.35,0.45,71
4.35,0.6,126
4.35,0.75,162
4.35,0.9,185
4.35,1.05,190
4.35,1.2,186
4.35,1.35,165
4.35,1.5,140
4.5,-1.5,100
4.5,-1.35,116
4.5,-1.2,138
4.5,-1.05,146
4.5,-0.9,144
4.5,-0.75,145
4.5,-0.6,146
4.5,-0.45,148
4.5,-0.3,154
4.5,-0.15,146
4.5,0.0,152
4.5,0.15,156
4.5,0.3,145
4.5,0.45,39
4.5,0.6,75
4.5,0.75,154
4.5,0.9,154
4.5,1.05,159
4.5,1.2,165
4.5,1.35,150
4.5,1.5,130
4.65,-1.5,104
4.65,-1.35,115
4.65,-1.2,130
4.65,-1.05,139
4.65,-0.9,146
4.65,-0.75,145
4.65,-0.6,154
4.65,-0.45,156
4.65,-0.3,148
4.65,-0.15,152
4.65,0.0,156
4.65,0.15,149
4.65,0.3,159
4.65,0.45,98
4.65,0.6,94
4.65,0.75,125
4.65,0.9,140
4.65,1.05,147
4.65,1.2,147
4.65,1.35,141
4.65,1.5,132
4.8,-1.5,118
4.8,-1.35,123
4.8,-1.2,129
4.8,-1.05,136
4.8,-0.9,145
4.8,-0.75,146
4.8,-0.6,157
4.8,-0.45,158
4.8,-0.3,147
4.8,-0.15,150
4.8,0.0,154
4.8,0.15,147
4.8,0.3,160
4.8,0.45,160
4.8,0.6,132
4.8,0.75,119
4.8,0.9,130
4.8,1.05,135
4.8,1.2,142
4.8,1.35,147
4.8,1.5,147
4.95,-1.5,121
4.95,-1.35,125
4.95,-1.2,130
4.95,-1.05,135
4.95,-0.9,141
4.95,-0.75,158
4.95,-0.6,158
4.95,-0.45,169
4.95,-0.3,148
4.95,-0.15,147
4.95,0.0,147
4.95,0.15,147
4.95,0.3,152
4.95,0.45,162
4.95,0.6,143
4.95,0.75,137
4.95,0.9,129
4.95,1.05,128
4.95,1.2,137
4.95,1.35,143
4.95,1.5,147
5.1,-1.5,122
5.1,-1.35,126
5.1,-1.2,133
5.1,-1.05,138
5.1,-0.9,144
5.1,-0.75,158
5.1,-0.6,146
5.1,-0.45,169
5.1,-0.3,149
5.1,-0.15,147
5.1,0.0,148
5.1,0.15,147
5.1,0.3,147
5.1,0.45,154
5.1,0.6,142
5.1,0.75,133
5.1,0.9,127
5.1,1.05,129
5.1,1.2,134
5.1,1.35,140
5.1,1.5,146
5.25,-1.5,127
5.25,-1.35,133
5.25,-1.2,137
5.25,-1.05,143
5.25,-0.9,146
5.25,-0.75,145
5.25,-0.6,150
5.25,-0.45,185
5.25,-0.3,148
5.25,-0.15,147
5.25,0.0,148
5.25,0.15,147
5.25,0.3,147
5.25,0.45,149
5.25,0.6,138
5.25,0.75,109
5.25,0.9,99
5.25,1.05,106
5.25,1.2,132
5.25,1.35,139
5.25,1.5,146
5.4,-1.5,127
5.4,-1.35,136
5.4,-1.2,137
5.4,-1.05,144
5.4,-0.9,147
5.4,-0.75,148
5.4,-0.6,153
5.4,-0.45,189
5.4,-0.3,147
5.4,-0.15,148
5.4,0.0,147
5.4,0.15,147
5.4,0.3,156
5.4,0.45,162
5.4,0.6,133
5.4,0.75,83
5.4,0.9,71
5.4,1.05,80
5.4,1.2,132
5.4,1.35,140
5.4,1.5,146
5.55,-1.5,136
5.55,-1.35,140
5.55,-1.2,141
5.55,-1.05,144
5.55,-0.9,148
5.55,-0.75,149
5.55,-0.6,117
5.55,-0.45,158
5.55,-0.3,148
5.55,-0.15,150
5.55,0.0,147
5.55,0.15,147
5.55,0.3,161
5.55,0.45,162
5.55,0.6,125
5.55,0.75,79
5.55,0.9,45
5.55,1.05,36
5.55,1.2,115
5.55,1.35,120
5.55,1.5,119
5.7,-1.5,140
5.7,-1.35,141
5.7,-1.2,144
5.7,-1.05,146
5.7,-0.9,148
5.7,-0.75,148
5.7,-0.6,158
5.7,-0.45,156
5.7,-0.3,146
5.7,-0.15,152
5.7,0.0,148
5.7,0.15,145
5.7,0.3,146
5.7,0.45,177
5.7,0.6,146
5.7,0.75,86
5.7,0.9,37
5.7,1.05,15
5.7,1.2,101
5.7,1.35,103
5.7,1.5,96
5.85,-1.5,146
5.85,-1.35,145
5.85,-1.2,147
5.85,-1.05,151
5.85,-0.9,151
5.85,-0.75,147
5.85,-0.6,149
5.85,-0.45,147
5.85,-0.3,136
5.85,-0.15,148
5.85,0.0,155
5.85,0.15,134
5.85,0.3,170
5.85,0.45,214
5.85,0.6,174
5.85,0.75,103
5.85,0.9,45
5.85,1.05,0
5.85,1.2,0
5.85,1.35,0
5.85,1.5,0
6.0,-1.5,151
6.0,-1.35,151
6.0,-1.2,150
6.0,-1.05,151
6.0,-0.9,151
6.0,-0.75,147
6.0,-0.6,152
6.0,-0.45,152
6.0,-0.3,144
6.0,-0.15,148
6.0,0.0,145
6.0,0.15,156
6.0,0.3,162
6.0,0.45,205
6.0,0.6,173
6.0,0.75,110
6.0,0.9,52
6.0,1.05,1
6.0,1.2,0
6.0,1.35,0
6.0,1.5,0
6.15,-1.5,152
6.15,-1.35,153
6.15,-1.2,152
6.15,-1.05,147
6.15,-0.9,140
6.15,-0.75,147
6.15,-0.6,152
6.15,-0.45,148
6.15,-0.3,146
6.15,-0.15,148
6.15,0.0,151
6.15,0.15,145
6.15,0.3,146
6.15,0.45,170
6.15,0.6,152
6.15,0.75,105
6.15,0.9,51
6.15,1.05,22
6.15,1.2,114
6.15,1.35,118
6.15,1.5,112
6.3,-1.5,155
6.3,-1.35,155
6.3,-1.2,155
6.3,-1.05,153
6.3,-0.9,151
6.3,-0.75,149
6.3,-0.6,152
6.3,-0.45,145
6.3,-0.3,146
6.3,-0.15,150
6.3,0.0,145
6.3,0.15,145
6.3,0.3,146
6.3,0.45,142
6.3,0.6,127
6.3,0.75,95
6.3,0.9,50
6.3,1.05,24
6.3,1.2,102
6.3,1.35,102
6.3,1.5,93
6.45,-1.5,160
6.45,-1.35,157
6.45,-1.2,155
6.45,-1.05,150
6.45,-0.9,152
6.45,-0.75,152
6.45,-0.6,146
6.45,-0.45,122
6.45,-0.3,150
6.45,-0.15,150
6.45,0.0,145
6.45,0.15,148
6.45,0.3,148
6.45,0.45,148
6.45,0.6,123
6.45,0.75,79
6.45,0.9,51
6.45,1.05,13
6.45,1.2,0
6.45,1.35,0
6.45,1.5,0
6.6,-1.5,168
6.6,-1.35,161
6.6,-1.2,151
6.6,-1.05,147
6.6,-0.9,147
6.6,-0.75,149
6.6,-0.6,145
6.6,-0.45,133
6.6,-0.3,148
6.6,-0.15,147
6.6,0.0,148
6.6,0.15,148
6.6,0.3,148
6.6,0.45,148
6.6,0.6,131
6.6,0.75,95
6.6,0.9,76
6.6,1.05,50
6.6,1.2,33
6.6,1.35,7
6.6,1.5,0
6.75,-1.5,180
6.75,-1.35,171
6.75,-1.2,155
6.75,-1.05,148
6.75,-0.9,147
6.75,-0.75,147
6.75,-0.6,143
6.75,-0.45,141
6.75,-0.3,148
6.75,-0.15,149
6.75,0.0,147
6.75,0.15,147
6.75,0.3,143
6.75,0.45,146
6.75,0.6,145
6.75,0.75,138
6.75,0.9,133
6.75,1.05,132
6.75,1.2,148
6.75,1.35,151
6.75,1.5,151
6.9,-1.5,225
6.9,-1.35,199
6.9,-1.2,158
6.9,-1.05,153
6.9,-0.9,148
6.9,-0.75,148
6.9,-0.6,146
6.9,-0.45,149
6.9,-0.3,149
6.9,-0.15,147
6.9,0.0,149
6.9,0.15,149
6.9,0.3,141
6.9,0.45,139
6.9,0.6,139
6.9,0.75,140
6.9,0.9,143
6.9,1.05,146
6.9,1.2,154
6.9,1.35,157
6.9,1.5,157
7.05,-1.5,255
7.05,-1.35,255
7.05,-1.2,145
7.05,-1.05,140
7.05,-0.9,141
7.05,-0.75,140
7.05,-0.6,146
7.05,-0.45,149
7.05,-0.3,148
7.05,-0.15,146
7.05,0.0,147
7.05,0.15,148
7.05,0.3,142
7.05,0.45,139
7.05,0.6,139
7.05,0.75,142
7.05,0.9,154
7.05,1.05,162
7.05,1.2,157
7.05,1.35,157
7.05,1.5,157
7.2,-1.5,255
7.2,-1.35,255
7.2,-1.2,177
7.2,-1.05,141
7.2,-0.9,132
7.2,-0.75,149
7.2,-0.6,148
7.2,-0.45,146
7.2,-0.3,161
7.2,-0.15,153
7.2,0.0,146
7.2,0.15,148
7.2,0.3,144
7.2,0.45,139
7.2,0.6,139
7.2,0.75,143
7.2,0.9,152
7.2,1.05,158
7.2,1.2,149
7.2,1.35,147
7.2,1.5,146
7.35,-1.5,255
7.35,-1.35,247
7.35,-1.2,255
7.35,-1.05,187
7.35,-0.9,141
7.35,-0.75,147
7.35,-0.6,158
7.35,-0.45,148
7.35,-0.3,146
7.35,-0.15,146
7.35,0.0,148
7.35,0.15,147
7.35,0.3,142
7.35,0.45,139
7.35,0.6,140
7.35,0.75,146
7.35,0.9,153
7.35,1.05,156
7.35,1.2,142
7.35,1.35,136
7.35,1.5,132
7.5,-1.5,255
7.5,-1.35,255
7.5,-1.2,255
7.5,-1.05,202
7.5,-0.9,155
7.5,-0.75,159
7.5,-0.6,153
7.5,-0.45,145
7.5,-0.3,154
7.5,-0.15,145
7.5,0.0,145
7.5,0.15,151
7.5,0.3,146
7.5,0.45,142
7.5,0.6,145
7.5,0.75,149
7.5,0.9,150
7.5,1.05,148
7.5,1.2,140
7.5,1.35,135
7.5,1.5,130
7.65,-1.5,250
7.65,-1.35,255
7.65,-1.2,252
7.65,-1.05,221
7.65,-0.9,157
7.65,-0.75,159
7.65,-0.6,154
7.65,-0.45,165
7.65,-0.3,145
7.65,-0.15,149
7.65,0.0,145
7.65,0.15,151
7.65,0.3,148
7.65,0.45,149
7.65,0.6,149
7.65,0.75,149
7.65,0.9,147
7.65,1.05,143
7.65,1.2,138
7.65,1.35,134
7.65,1.5,129
7.8,-1.5,132
7.8,-1.35,174
7.8,-1.2,209
7.8,-1.05,220
7.8,-0.9,179
7.8,-0.75,125
7.8,-0.6,149
7.8,-0.45,147
7.8,-0.3,156
7.8,-0.15,152
7.8,0.0,151
7.8,0.15,145
7.8,0.3,144
7.8,0.45,147
7.8,0.6,146
7.8,0.75,147
7.8,0.9,145
7.8,1.05,142
7.8,1.2,136
7.8,1.35,131
7.8,1.5,126
7.95,-1.5,100
7.95,-1.35,141
7.95,-1.2,173
7.95,-1.05,192
7.95,-0.9,169
7.95,-0.75,146
7.95,-0.6,142
7.95,-0.45,152
7.95,-0.3,147
7.95,-0.15,148
7.95,0.0,151
7.95,0.15,151
7.95,0.3,147
7.95,0.45,144
7.95,0.6,140
7.95,0.75,142
7.95,0.9,141
7.95,1.05,138
7.95,1.2,132
7.95,1.35,128
7.95,1.5,124
8.1,-1.5,100
8.1,-1.35,125
8.1,-1.2,136
8.1,-1.05,146
8.1,-0.9,158
8.1,-0.75,152
8.1,-0.6,150
8.1,-0.45,147
8.1,-0.3,152
8.1,-0.15,150
8.1,0.0,147
8.1,0.15,149
8.1,0.3,145
8.1,0.45,139
8.1,0.6,134
8.1,0.75,136
8.1,0.9,135
8.1,1.05,132
8.1,1.2,129
8.1,1.35,126
8.1,1.5,123
8.25,-1.5,95
8.25,-1.35,109
8.25,-1.2,116
8.25,-1.05,126
8.25,-0.9,140
8.25,-0.75,141
8.25,-0.6,149
8.25,-0.45,152
8.25,-0.3,152
8.25,-0.15,150
8.25,0.0,151
8.25,0.15,145
8.25,0.3,149
8.25,0.45,139
8.25,0.6,132
8.25,0.75,132
8.25,0.9,128
8.25,1.05,125
8.25,1.2,122
8.25,1.35,119
8.25,1.5,115
8.4,-1.5,100
8.4,-1.35,109
8.4,-1.2,124
8.4,-1.05,136
8.4,-0.9,142
8.4,-0.75,140
8.4,-0.6,152
8.4,-0.45,146
8.4,-0.3,146
8.4,-0.15,146
8.4,0.0,158
8.4,0.15,147
8.4,0.3,149
8.4,0.45,141
8.4,0.6,132
8.4,0.75,127
8.4,0.9,125
8.4,1.05,121
8.4,1.2,103
8.4,1.35,96
8.4,1.5,89
8.55,-1.5,117
8.55,-1.35,124
8.55,-1.2,135
8.55,-1.05,143
8.55,-0.9,147
8.55,-0.75,152
8.55,-0.6,146
8.55,-0.45,152
8.55,-0.3,146
8.55,-0.15,154
8.55,0.0,150
8.55,0.15,146
8.55,0.3,146
8.55,0.45,142
8.55,0.6,135
8.55,0.75,131
8.55,0.9,131
8.55,1.05,125
8.55,1.2,104
8.55,1.35,98
8.55,1.5,93
8.7,-1.5,163
8.7,-1.35,157
8.7,-1.2,152
8.7,-1.05,148
8.7,-0.9,144
8.7,-0.75,152
8.7,-0.6,147
8.7,-0.45,148
8.7,-0.3,146
8.7,-0.15,150
8.7,0.0,149
8.7,0.15,155
8.7,0.3,148
8.7,0.45,145
8.7,0.6,144
8.7,0.75,143
8.7,0.9,140
8.7,1.05,136
8.7,1.2,126
8.7,1.35,123
8.7,1.5,121
8.85,-1.5,182
8.85,-1.35,176
8.85,-1.2,168
8.85,-1.05,158
8.85,-0.9,145
8.85,-0.75,144
8.85,-0.6,165
8.85,-0.45,147
8.85,-0.3,148
8.85,-0.15,146
8.85,0.0,149
8.85,0.15,151
8.85,0.3,155
8.85,0.45,155
8.85,0.6,154
8.85,0.75,153
8.85,0.9,148
8.85,1.05,142
8.85,1.2,130
8.85,1.35,125
8.85,1.5,121
9.0,-1.5,189
9.0,-1.35,188
9.0,-1.2,185
9.0,-1.05,171
9.0,-0.9,152
9.0,-0.75,145
9.0,-0.6,153
9.0,-0.45,150
9.0,-0.3,150
9.0,-0.15,148
9.0,0.0,142
9.0,0.15,142
9.0,0.3,143
9.0,0.45,152
9.0,0.6,156
9.0,0.75,157
9.0,0.9,153
9.0,1.05,145
9.0,1.2,133
9.0,1.35,126
9.0,1.5,121
9.15,-1.5,198
9.15,-1.35,198
9.15,-1.2,196
9.15,-1.05,185
9.15,-0.9,163
9.15,-0.75,146
9.15,-0.6,153
9.15,-0.45,151
9.15,-0.3,148
9.15,-0.15,151
9.15,0.0,151
9.15,0.15,142
9.15,0.3,127
9.15,0.45,144
9.15,0.6,155
9.15,0.75,157
9.15,0.9,153
9.15,1.05,146
9.15,1.2,137
9.15,1.35,131
9.15,1.5,125
9.3,-1.5,201
9.3,-1.35,201
9.3,-1.2,197
9.3,-1.05,188
9.3,-0.9,168
9.3,-0.75,155
9.3,-0.6,147
9.3,-0.45,153
9.3,-0.3,153
9.3,-0.15,149
9.3,0.0,151
9.3,0.15,147
9.3,0.3,139
9.3,0.45,151
9.3,0.6,157
9.3,0.75,153
9.3,0.9,150
9.3,1.05,145
9.3,1.2,138
9.3,1.35,132
9.3,1.5,127
9.45,-1.5,215
9.45,-1.35,208
9.45,-1.2,199
9.45,-1.05,182
9.45,-0.9,161
9.45,-0.75,147
9.45,-0.6,149
9.45,-0.45,150
9.45,-0.3,148
9.45,-0.15,147
9.45,0.0,147
9.45,0.15,151
9.45,0.3,157
9.45,0.45,163
9.45,0.6,163
9.45,0.75,157
9.45,0.9,152
9.45,1.05,146
9.45,1.2,138
9.45,1.35,132
9.45,1.5,127
9.6,-1.5,215
9.6,-1.35,204
9.6,-1.2,190
9.6,-1.05,170
9.6,-0.9,150
9.6,-0.75,147
9.6,-0.6,148
9.6,-0.45,148
9.6,-0.3,147
9.6,-0.15,150
9.6,0.0,148
9.6,0.15,159
9.6,0.3,160
9.6,0.45,163
9.6,0.6,163
9.6,0.75,156
9.6,0.9,149
9.6,1.05,143
9.6,1.2,137
9.6,1.35,131
9.6,1.5,127
9.75,-1.5,192
9.75,-1.35,182
9.75,-1.2,168
9.75,-1.05,155
9.75,-0.9,149
9.75,-0.75,148
9.75,-0.6,149
9.75,-0.45,148
9.75,-0.3,147
9.75,-0.15,150
9.75,0.0,150
9.75,0.15,147
9.75,0.3,149
9.75,0.45,154
9.75,0.6,155
9.75,0.75,151
9.75,0.9,145
9.75,1.05,140
9.75,1.2,136
9.75,1.35,131
9.75,1.5,127
9.9,-1.5,179
9.9,-1.35,170
9.9,-1.2,158
9.9,-1.05,150
9.9,-0.9,147
9.9,-0.75,148
9.9,-0.6,138
9.9,-0.45,149
9.9,-0.3,147
9.9,-0.15,149
9.9,0.0,146
9.9,0.15,151
9.9,0.3,151
9.9,0.45,152
9.9,0.6,152
9.9,0.75,150
9.9,0.9,142
9.9,1.05,136
9.9,1.2,132
9.9,1.35,128
9.9,1.5,127
10.05,-1.5,152
10.05,-1.35,150
10.05,-1.2,148
10.05,-1.05,147
10.05,-0.9,147
10.05,-0.75,149
10.05,-0.6,149
10.05,-0.45,144
10.05,-0.3,148
10.05,-0.15,144
10.05,0.0,130
10.05,0.15,149
10.05,0.3,152
10.05,0.45,152
10.05,0.6,152
10.05,0.75,151
10.05,0.9,147
10.05,1.05,143
10.05,1.2,129
10.05,1.35,127
10.05,1.5,127
10.2,-1.5,146
10.2,-1.35,146
10.2,-1.2,147
10.2,-1.05,147
10.2,-0.9,147
10.2,-0.75,149
10.2,-0.6,148
10.2,-0.45,149
10.2,-0.3,150
10.2,-0.15,137
10.2,0.0,106
10.2,0.15,144
10.2,0.3,151
10.2,0.45,152
10.2,0.6,152
10.2,0.75,152
10.2,0.9,149
10.2,1.05,146
10.2,1.2,129
10.2,1.35,127
10.2,1.5,127
10.35,-1.5,145
10.35,-1.35,146
10.35,-1.2,148
10.35,-1.05,148
10.35,-0.9,148
10.35,-0.75,148
10.35,-0.6,148
10.35,-0.45,148
10.35,-0.3,150
10.35,-0.15,138
10.35,0.0,97
10.35,0.15,142
10.35,0.3,148
10.35,0.45,148
10.35,0.6,152
10.35,0.75,152
10.35,0.9,152
10.35,1.05,149
10.35,1.2,143
10.35,1.35,143
10.35,1.5,143
10.5,-1.5,143
10.5,-1.35,145
10.5,-1.2,150
10.5,-1.05,150
10.5,-0.9,149
10.5,-0.75,148
10.5,-0.6,148
10.5,-0.45,148
10.5,-0.3,150
10.5,-0.15,140
10.5,0.0,101
10.5,0.15,140
10.5,0.3,145
10.5,0.45,145
10.5,0.6,149
10.5,0.75,152
10.5,0.9,152
10.5,1.05,151
10.5,1.2,147
10.5,1.35,147
10.5,1.5,149
10.65,-1.5,135
10.65,-1.35,141
10.65,-1.2,151
10.65,-1.05,153
10.65,-0.9,152
10.65,-0.75,149
10.65,-0.6,148
10.65,-0.45,149
10.65,-0.3,150
10.65,-0.15,133
10.65,0.0,124
10.65,0.15,147
10.65,0.3,145
10.65,0.45,145
10.65,0.6,145
10.65,0.75,150
10.65,0.9,152
10.65,1.05,152
10.65,1.2,150
10.65,1.35,150
10.65,1.5,151
10.8,-1.5,135
10.8,-1.35,141
10.8,-1.2,150
10.8,-1.05,153
10.8,-0.9,153
10.8,-0.75,153
10.8,-0.6,149
10.8,-0.45,150
10.8,-0.3,142
10.8,-0.15,139
10.8,0.0,145
10.8,0.15,150
10.8,0.3,145
10.8,0.45,145
10.8,0.6,145
10.8,0.75,145
10.8,0.9,149
10.8,1.05,151
10.8,1.2,152
10.8,1.35,152
10.8,1.5,152
10.95,-1.5,136
10.95,-1.35,140
10.95,-1.2,146
10.95,-1.05,151
10.95,-0.9,153
10.95,-0.75,153
10.95,-0.6,150
10.95,-0.45,150
10.95,-0.3,150
10.95,-0.15,150
10.95,0.0,150
10.95,0.15,150
10.95,0.3,145
10.95,0.45,145
10.95,0.6,145
10.95,0.75,145
10.95,0.9,145
10.95,1.05,146
10.95,1.2,152
10.95,1.35,152
10.95,1.5,152
11.1,-1.5,174
11.1,-1.35,167
11.1,-1.2,161
11.1,-1.05,153
11.1,-0.9,148
11.1,-0.75,150
11.1,-0.6,150
11.1,-0.45,148
11.1,-0.3,148
11.1,-0.15,150
11.1,0.0,150
11.1,0.15,149
11.1,0.3,145
11.1,0.45,145
11.1,0.6,145
11.1,0.75,145
11.1,0.9,145
11.1,1.05,146
11.1,1.2,150
11.1,1.35,150
11.1,1.5,151
11.25,-1.5,230
11.25,-1.35,208
11.25,-1.2,187
11.25,-1.05,158
11.25,-0.9,139
11.25,-0.75,152
11.25,-0.6,156
11.25,-0.45,148
11.25,-0.3,148
11.25,-0.15,150
11.25,0.0,150
11.25,0.15,149
11.25,0.3,146
11.25,0.45,145
11.25,0.6,146
11.25,0.75,147
11.25,0.9,148
11.25,1.05,148
11.25,1.2,146
11.25,1.35,146
11.25,1.5,146
11.4,-1.5,239
11.4,-1.35,224
11.4,-1.2,196
11.4,-1.05,168
11.4,-0.9,143
11.4,-0.75,142
11.4,-0.6,157
11.4,-0.45,150
11.4,-0.3,148
11.4,-0.15,148
11.4,0.0,148
11.4,0.15,148
11.4,0.3,147
11.4,0.45,147
11.4,0.6,148
11.4,0.75,150
11.4,0.9,151
11.4,1.05,151
11.4,1.2,148
11.4,1.35,147
11.4,1.5,146
11.55,-1.5,233
11.55,-1.35,227
11.55,-1.2,206
11.55,-1.05,185
11.55,-0.9,163
11.55,-0.75,145
11.55,-0.6,157
11.55,-0.45,152
11.55,-0.3,154
11.55,-0.15,153
11.55,0.0,148
11.55,0.15,150
11.55,0.3,149
11.55,0.45,149
11.55,0.6,151
11.55,0.75,153
11.55,0.9,154
11.55,1.05,153
11.55,1.2,149
11.55,1.35,149
11.55,1.5,148
11.7,-1.5,206
11.7,-1.35,209
11.7,-1.2,209
11.7,-1.05,200
11.7,-0.9,182
11.7,-0.75,163
11.7,-0.6,151
11.7,-0.45,154
11.7,-0.3,142
11.7,-0.15,141
11.7,0.0,152
11.7,0.15,157
11.7,0.3,154
11.7,0.45,151
11.7,0.6,151
11.7,0.75,153
11.7,0.9,156
11.7,1.05,155
11.7,1.2,150
11.7,1.35,150
11.7,1.5,150
11.85,-1.5,181
11.85,-1.35,189
11.85,-1.2,206
11.85,-1.05,209
11.85,-0.9,197
11.85,-0.75,167
11.85,-0.6,163
11.85,-0.45,146
11.85,-0.3,141
11.85,-0.15,139
11.85,0.0,158
11.85,0.15,167
11.85,0.3,163
11.85,0.45,152
11.85,0.6,152
11.85,0.75,153
11.85,0.9,157
11.85,1.05,157
11.85,1.2,151
11.85,1.35,150
11.85,1.5,150
12.0,-1.5,165
12.0,-1.35,169
12.0,-1.2,181
12.0,-1.05,195
12.0,-0.9,193
12.0,-0.75,151
12.0,-0.6,148
12.0,-0.45,148
12.0,-0.3,147
12.0,-0.15,147
12.0,0.0,167
12.0,0.15,177
12.0,0.3,176
12.0,0.45,161
12.0,0.6,158
12.0,0.75,157
12.0,0.9,156
12.0,1.05,155
12.0,1.2,154
12.0,1.35,153
12.0,1.5,152
12.15,-1.5,145
12.15,-1.35,145
12.15,-1.2,147
12.15,-1.05,160
12.15,-0.9,172
12.15,-0.75,153
12.15,-0.6,149
12.15,-0.45,148
12.15,-0.3,147
12.15,-0.15,139
12.15,0.0,160
12.15,0.15,170
12.15,0.3,174
12.15,0.45,165
12.15,0.6,161
12.15,0.75,159
12.15,0.9,156
12.15,1.05,155
12.15,1.2,155
12.15,1.35,154
12.15,1.5,152
12.3,-1.5,144
12.3,-1.35,133
12.3,-1.2,122
12.3,-1.05,128
12.3,-0.9,142
12.3,-0.75,153
12.3,-0.6,152
12.3,-0.45,148
12.3,-0.3,151
12.3,-0.15,144
12.3,0.0,156
12.3,0.15,161
12.3,0.3,166
12.3,0.45,166
12.3,0.6,162
12.3,0.75,158
12.3,0.9,156
12.3,1.05,155
12.3,1.2,154
12.3,1.35,153
12.3,1.5,152
12.45,-1.5,136
12.45,-1.35,124
12.45,-1.2,113
12.45,-1.05,123
12.45,-0.9,144
12.45,-0.75,153
12.45,-0.6,148
12.45,-0.45,151
12.45,-0.3,151
12.45,-0.15,149
12.45,0.0,153
12.45,0.15,156
12.45,0.3,161
12.45,0.45,164
12.45,0.6,162
12.45,0.75,159
12.45,0.9,157
12.45,1.05,155
12.45,1.2,153
12.45,1.35,152
12.45,1.5,152
12.6,-1.5,132
12.6,-1.35,122
12.6,-1.2,119
12.6,-1.05,124
12.6,-0.9,137
12.6,-0.75,148
12.6,-0.6,147
12.6,-0.45,151
12.6,-0.3,144
12.6,-0.15,141
12.6,0.0,146
12.6,0.15,153
12.6,0.3,157
12.6,0.45,163
12.6,0.6,163
12.6,0.75,160
12.6,0.9,158
12.6,1.05,155
12.6,1.2,152
12.6,1.35,152
12.6,1.5,152
12.75,-1.5,138
12.75,-1.35,129
12.75,-1.2,125
12.75,-1.05,127
12.75,-0.9,136
12.75,-0.75,145
12.75,-0.6,147
12.75,-0.45,150
12.75,-0.3,144
12.75,-0.15,142
12.75,0.0,148
12.75,0.15,151
12.75,0.3,155
12.75,0.45,160
12.75,0.6,160
12.75,0.75,158
12.75,0.9,157
12.75,1.05,155
12.75,1.2,152
12.75,1.35,152
12.75,1.5,152
12.9,-1.5,142
12.9,-1.35,136
12.9,-1.2,134
12.9,-1.05,138
12.9,-0.9,146
12.9,-0.75,151
12.9,-0.6,152
12.9,-0.45,154
12.9,-0.3,153
12.9,-0.15,150
12.9,0.0,150
12.9,0.15,152
12.9,0.3,154
12.9,0.45,159
12.9,0.6,157
12.9,0.75,153
12.9,0.9,153
12.9,1.05,152
12.9,1.2,152
12.9,1.35,152
12.9,1.5,152
13.05,-1.5,142
13.05,-1.35,142
13.05,-1.2,144
13.05,-1.05,147
13.05,-0.9,154
13.05,-0.75,154
13.05,-0.6,154
13.05,-0.45,154
13.05,-0.3,154
13.05,-0.15,154
13.05,0.0,154
13.05,0.15,154
13.05,0.3,154
13.05,0.45,157
13.05,0.6,153
13.05,0.75,152
13.05,0.9,152
13.05,1.05,152
13.05,1.2,152
13.05,1.35,152
13.05,1.5,152
