-3.0,-1.5,157
-3.0,-1.35,157
-3.0,-1.2,157
-3.0,-1.05,157
-3.0,-0.9,157
-3.0,-0.75,157
-3.0,-0.6,157
-3.0,-0.45,157
-3.0,-0.3,157
-3.0,-0.15,157
-3.0,0.0,157
-3.0,0.15,157
-3.0,0.3,157
-3.0,0.45,157
-3.0,0.6,157
-3.0,0.75,157
-3.0,0.9,157
-3.0,1.05,158
-3.0,1.2,159
-3.0,1.35,160
-3.0,1.5,162
-2.85,-1.5,157
-2.85,-1.35,157
-2.85,-1.2,157
-2.85,-1.05,157
-2.85,-0.9,157
-2.85,-0.75,157
-2.85,-0.6,157
-2.85,-0.45,157
-2.85,-0.3,158
-2.85,-0.15,158
-2.85,0.0,158
-2.85,0.15,157
-2.85,0.3,157
-2.85,0.45,157
-2.85,0.6,157
-2.85,0.75,157
-2.85,0.9,157
-2.85,1.05,158
-2.85,1.2,159
-2.85,1.35,161
-2.85,1.5,162
-2.7,-1.5,157
-2.7,-1.35,157
-2.7,-1.2,157
-2.7,-1.05,157
-2.7,-0.9,157
-2.7,-0.75,157
-2.7,-0.6,157
-2.7,-0.45,157
-2.7,-0.3,158
-2.7,-0.15,158
-2.7,0.0,158
-2.7,0.15,158
-2.7,0.3,157
-2.7,0.45,157
-2.7,0.6,157
-2.7,0.75,157
-2.7,0.9,157
-2.7,1.05,158
-2.7,1.2,160
-2.7,1.35,161
-2.7,1.5,162
-2.55,-1.5,157
-2.55,-1.35,157
-2.55,-1.2,157
-2.55,-1.05,157
-2.55,-0.9,157
-2.55,-0.75,157
-2.55,-0.6,157
-2.55,-0.45,157
-2.55,-0.3,158
-2.55,-0.15,158
-2.55,0.0,158
-2.55,0.15,158
-2.55,0.3,157
-2.55,0.45,157
-2.55,0.6,157
-2.55,0.75,158
-2.55,0.9,158
-2.55,1.05,159
-2.55,1.2,161
-2.55,1.35,163
-2.55,1.5,164
-2.4,-1.5,157
-2.4,-1.35,157
-2.4,-1.2,157
-2.4,-1.05,157
-2.4,-0.9,157
-2.4,-0.75,157
-2.4,-0.6,157
-2.4,-0.45,157
-2.4,-0.3,157
-2.4,-0.15,158
-2.4,0.0,158
-2.4,0.15,158
-2.4,0.3,159
-2.4,0.45,159
-2.4,0.6,159
-2.4,0.75,159
-2.4,0.9,160
-2.4,1.05,161
-2.4,1.2,163
-2.4,1.35,165
-2.4,1.5,167
-2.25,-1.5,157
-2.25,-1.35,157
-2.25,-1.2,157
-2.25,-1.05,157
-2.25,-0.9,157
-2.25,-0.75,157
-2.25,-0.6,157
-2.25,-0.45,157
-2.25,-0.3,158
-2.25,-0.15,159
-2.25,0.0,159
-2.25,0.15,160
-2.25,0.3,160
-2.25,0.45,161
-2.25,0.6,161
-2.25,0.75,161
-2.25,0.9,162
-2.25,1.05,163
-2.25,1.2,166
-2.25,1.35,167
-2.25,1.5,169
-2.1,-1.5,157
-2.1,-1.35,157
-2.1,-1.2,157
-2.1,-1.05,157
-2.1,-0.9,157
-2.1,-0.75,157
-2.1,-0.6,157
-2.1,-0.45,157
-2.1,-0.3,158
-2.1,-0.15,159
-2.1,0.0,161
-2.1,0.15,162
-2.1,0.3,163
-2.1,0.45,164
-2.1,0.6,164
-2.1,0.75,164
-2.1,0.9,165
-2.1,1.05,167
-2.1,1.2,168
-2.1,1.35,170
-2.1,1.5,171
-1.95,-1.5,157
-1.95,-1.35,157
-1.95,-1.2,157
-1.95,-1.05,156
-1.95,-0.9,156
-1.95,-0.75,156
-1.95,-0.6,157
-1.95,-0.45,158
-1.95,-0.3,159
-1.95,-0.15,160
-1.95,0.0,162
-1.95,0.15,164
-1.95,0.3,165
-1.95,0.45,166
-1.95,0.6,167
-1.95,0.75,168
-1.95,0.9,169
-1.95,1.05,170
-1.95,1.2,171
-1.95,1.35,172
-1.95,1.5,173
-1.8,-1.5,156
-1.8,-1.35,156
-1.8,-1.2,156
-1.8,-1.05,156
-1.8,-0.9,156
-1.8,-0.75,156
-1.8,-0.6,157
-1.8,-0.45,158
-1.8,-0.3,160
-1.8,-0.15,161
-1.8,0.0,164
-1.8,0.15,166
-1.8,0.3,168
-1.8,0.45,169
-1.8,0.6,170
-1.8,0.75,171
-1.8,0.9,172
-1.8,1.05,173
-1.8,1.2,173
-1.8,1.35,174
-1.8,1.5,175
-1.65,-1.5,155
-1.65,-1.35,155
-1.65,-1.2,156
-1.65,-1.05,156
-1.65,-0.9,156
-1.65,-0.75,156
-1.65,-0.6,157
-1.65,-0.45,158
-1.65,-0.3,160
-1.65,-0.15,163
-1.65,0.0,165
-1.65,0.15,168
-1.65,0.3,170
-1.65,0.45,172
-1.65,0.6,173
-1.65,0.75,174
-1.65,0.9,175
-1.65,1.05,175
-1.65,1.2,176
-1.65,1.35,177
-1.65,1.5,178
-1.5,-1.5,154
-1.5,-1.35,154
-1.5,-1.2,155
-1.5,-1.05,156
-1.5,-0.9,156
-1.5,-0.75,156
-1.5,-0.6,157
-1.5,-0.45,159
-1.5,-0.3,161
-1.5,-0.15,164
-1.5,0.0,167
-1.5,0.15,170
-1.5,0.3,172
-1.5,0.45,174
-1.5,0.6,175
-1.5,0.75,176
-1.5,0.9,177
-1.5,1.05,178
-1.5,1.2,179
-1.5,1.35,179
-1.5,1.5,180
-1.35,-1.5,152
-1.35,-1.35,153
-1.35,-1.2,154
-1.35,-1.05,154
-1.35,-0.9,155
-1.35,-0.75,155
-1.35,-0.6,157
-1.35,-0.45,159
-1.35,-0.3,162
-1.35,-0.15,165
-1.35,0.0,168
-1.35,0.15,171
-1.35,0.3,174
-1.35,0.45,176
-1.35,0.6,177
-1.35,0.75,178
-1.35,0.9,178
-1.35,1.05,179
-1.35,1.2,180
-1.35,1.35,180
-1.35,1.5,180
-1.2,-1.5,149
-1.2,-1.35,151
-1.2,-1.2,152
-1.2,-1.05,153
-1.2,-0.9,154
-1.2,-0.75,155
-1.2,-0.6,157
-1.2,-0.45,159
-1.2,-0.3,163
-1.2,-0.15,167
-1.2,0.0,170
-1.2,0.15,173
-1.2,0.3,175
-1.2,0.45,177
-1.2,0.6,178
-1.2,0.75,179
-1.2,0.9,179
-1.2,1.05,180
-1.2,1.2,180
-1.2,1.35,180
-1.2,1.5,180
-1.05,-1.5,151
-1.05,-1.35,152
-1.05,-1.2,154
-1.05,-1.05,155
-1.05,-0.9,156
-1.05,-0.75,157
-1.05,-0.6,159
-1.05,-0.45,161
-1.05,-0.3,164
-1.05,-0.15,168
-1.05,0.0,171
-1.05,0.15,174
-1.05,0.3,176
-1.05,0.45,177
-1.05,0.6,178
-1.05,0.75,179
-1.05,0.9,179
-1.05,1.05,180
-1.05,1.2,180
-1.05,1.35,180
-1.05,1.5,180
-0.9,-1.5,152
-0.9,-1.35,154
-0.9,-1.2,155
-0.9,-1.05,157
-0.9,-0.9,158
-0.9,-0.75,159
-0.9,-0.6,161
-0.9,-0.45,163
-0.9,-0.3,166
-0.9,-0.15,169
-0.9,0.0,172
-0.9,0.15,174
-0.9,0.3,175
-0.9,0.45,176
-0.9,0.6,177
-0.9,0.75,178
-0.9,0.9,179
-0.9,1.05,180
-0.9,1.2,180
-0.9,1.35,180
-0.9,1.5,180
-0.75,-1.5,154
-0.75,-1.35,156
-0.75,-1.2,157
-0.75,-1.05,159
-0.75,-0.9,160
-0.75,-0.75,162
-0.75,-0.6,163
-0.75,-0.45,165
-0.75,-0.3,167
-0.75,-0.15,170
-0.75,0.0,172
-0.75,0.15,174
-0.75,0.3,175
-0.75,0.45,176
-0.75,0.6,177
-0.75,0.75,178
-0.75,0.9,179
-0.75,1.05,180
-0.75,1.2,180
-0.75,1.35,180
-0.75,1.5,180
-0.6,-1.5,156
-0.6,-1.35,158
-0.6,-1.2,159
-0.6,-1.05,161
-0.6,-0.9,162
-0.6,-0.75,164
-0.6,-0.6,165
-0.6,-0.45,166
-0.6,-0.3,167
-0.6,-0.15,169
-0.6,0.0,171
-0.6,0.15,173
-0.6,0.3,174
-0.6,0.45,176
-0.6,0.6,176
-0.6,0.75,177
-0.6,0.9,179
-0.6,1.05,179
-0.6,1.2,178
-0.6,1.35,179
-0.6,1.5,180
-0.45,-1.5,158
-0.45,-1.35,160
-0.45,-1.2,161
-0.45,-1.05,162
-0.45,-0.9,163
-0.45,-0.75,165
-0.45,-0.6,166
-0.45,-0.45,166
-0.45,-0.3,167
-0.45,-0.15,168
-0.45,0.0,169
-0.45,0.15,171
-0.45,0.3,173
-0.45,0.45,175
-0.45,0.6,175
-0.45,0.75,177
-0.45,0.9,178
-0.45,1.05,178
-0.45,1.2,178
-0.45,1.35,179
-0.45,1.5,180
-0.3,-1.5,159
-0.3,-1.35,161
-0.3,-1.2,162
-0.3,-1.05,163
-0.3,-0.9,164
-0.3,-0.75,165
-0.3,-0.6,165
-0.3,-0.45,165
-0.3,-0.3,165
-0.3,-0.15,166
-0.3,0.0,167
-0.3,0.15,169
-0.3,0.3,171
-0.3,0.45,173
-0.3,0.6,174
-0.3,0.75,175
-0.3,0.9,176
-0.3,1.05,178
-0.3,1.2,179
-0.3,1.35,181
-0.3,1.5,183
-0.15,-1.5,157
-0.15,-1.35,159
-0.15,-1.2,162
-0.15,-1.05,163
-0.15,-0.9,164
-0.15,-0.75,164
-0.15,-0.6,164
-0.15,-0.45,163
-0.15,-0.3,163
-0.15,-0.15,164
-0.15,0.0,165
-0.15,0.15,167
-0.15,0.3,169
-0.15,0.45,171
-0.15,0.6,173
-0.15,0.75,174
-0.15,0.9,176
-0.15,1.05,176
-0.15,1.2,174
-0.15,1.35,175
-0.15,1.5,176
0.0,-1.5,153
0.0,-1.35,156
0.0,-1.2,160
0.0,-1.05,163
0.0,-0.9,164
0.0,-0.75,164
0.0,-0.6,163
0.0,-0.45,162
0.0,-0.3,162
0.0,-0.15,163
0.0,0.0,165
0.0,0.15,166
0.0,0.3,167
0.0,0.45,169
0.0,0.6,172
0.0,0.75,175
0.0,0.9,176
0.0,1.05,172
0.0,1.2,158
0.0,1.35,156
0.0,1.5,155
0.15,-1.5,150
0.15,-1.35,153
0.15,-1.2,158
0.15,-1.05,161
0.15,-0.9,163
0.15,-0.75,163
0.15,-0.6,162
0.15,-0.45,162
0.15,-0.3,162
0.15,-0.15,163
0.15,0.0,165
0.15,0.15,166
0.15,0.3,167
0.15,0.45,168
0.15,0.6,169
0.15,0.75,171
0.15,0.9,173
0.15,1.05,170
0.15,1.2,161
0.15,1.35,159
0.15,1.5,158
0.3,-1.5,146
0.3,-1.35,150
0.3,-1.2,155
0.3,-1.05,159
0.3,-0.9,162
0.3,-0.75,162
0.3,-0.6,162
0.3,-0.45,162
0.3,-0.3,162
0.3,-0.15,163
0.3,0.0,164
0.3,0.15,165
0.3,0.3,166
0.3,0.45,166
0.3,0.6,164
0.3,0.75,164
0.3,0.9,164
0.3,1.05,166
0.3,1.2,170
0.3,1.35,170
0.3,1.5,170
0.45,-1.5,144
0.45,-1.35,148
0.45,-1.2,153
0.45,-1.05,158
0.45,-0.9,162
0.45,-0.75,163
0.45,-0.6,162
0.45,-0.45,162
0.45,-0.3,162
0.45,-0.15,162
0.45,0.0,163
0.45,0.15,164
0.45,0.3,165
0.45,0.45,165
0.45,0.6,164
0.45,0.75,164
0.45,0.9,164
0.45,1.05,167
0.45,1.2,170
0.45,1.35,170
0.45,1.5,170
0.6,-1.5,142
0.6,-1.35,146
0.6,-1.2,151
0.6,-1.05,157
0.6,-0.9,163
0.6,-0.75,163
0.6,-0.6,163
0.6,-0.45,162
0.6,-0.3,162
0.6,-0.15,162
0.6,0.0,162
0.6,0.15,163
0.6,0.3,164
0.6,0.45,164
0.6,0.6,164
0.6,0.75,165
0.6,0.9,170
0.6,1.05,170
0.6,1.2,170
0.6,1.35,170
0.6,1.5,170
0.75,-1.5,141
0.75,-1.35,145
0.75,-1.2,150
0.75,-1.05,156
0.75,-0.9,163
0.75,-0.75,163
0.75,-0.6,163
0.75,-0.45,163
0.75,-0.3,162
0.75,-0.15,163
0.75,0.0,164
0.75,0.15,165
0.75,0.3,166
0.75,0.45,167
0.75,0.6,166
0.75,0.75,167
0.75,0.9,170
0.75,1.05,170
0.75,1.2,170
0.75,1.35,170
0.75,1.5,170
0.9,-1.5,141
0.9,-1.35,145
0.9,-1.2,150
0.9,-1.05,156
0.9,-0.9,163
0.9,-0.75,163
0.9,-0.6,163
0.9,-0.45,163
0.9,-0.3,163
0.9,-0.15,164
0.9,0.0,166
0.9,0.15,169
0.9,0.3,170
0.9,0.45,170
0.9,0.6,170
0.9,0.75,170
0.9,0.9,170
0.9,1.05,169
0.9,1.2,168
0.9,1.35,167
0.9,1.5,168
1.05,-1.5,143
1.05,-1.35,147
1.05,-1.2,151
1.05,-1.05,157
1.05,-0.9,161
1.05,-0.75,163
1.05,-0.6,163
1.05,-0.45,163
1.05,-0.3,163
1.05,-0.15,163
1.05,0.0,165
1.05,0.15,170
1.05,0.3,170
1.05,0.45,170
1.05,0.6,170
1.05,0.75,168
1.05,0.9,164
1.05,1.05,162
1.05,1.2,161
1.05,1.35,161
1.05,1.5,161
1.2,-1.5,147
1.2,-1.35,151
1.2,-1.2,156
1.2,-1.05,161
1.2,-0.9,163
1.2,-0.75,163
1.2,-0.6,163
1.2,-0.45,163
1.2,-0.3,163
1.2,-0.15,163
1.2,0.0,163
1.2,0.15,170
1.2,0.3,170
1.2,0.45,170
1.2,0.6,169
1.2,0.75,163
1.2,0.9,157
1.2,1.05,155
1.2,1.2,152
1.2,1.35,150
1.2,1.5,148
1.35,-1.5,151
1.35,-1.35,155
1.35,-1.2,159
1.35,-1.05,163
1.35,-0.9,163
1.35,-0.75,163
1.35,-0.6,163
1.35,-0.45,163
1.35,-0.3,163
1.35,-0.15,163
1.35,0.0,163
1.35,0.15,168
1.35,0.3,165
1.35,0.45,168
1.35,0.6,165
1.35,0.75,161
1.35,0.9,159
1.35,1.05,156
1.35,1.2,153
1.35,1.35,150
1.35,1.5,147
1.5,-1.5,156
1.5,-1.35,159
1.5,-1.2,163
1.5,-1.05,163
1.5,-0.9,163
1.5,-0.75,163
1.5,-0.6,163
1.5,-0.45,163
1.5,-0.3,163
1.5,-0.15,163
1.5,0.0,164
1.5,0.15,161
1.5,0.3,158
1.5,0.45,161
1.5,0.6,163
1.5,0.75,160
1.5,0.9,160
1.5,1.05,157
1.5,1.2,155
1.5,1.35,152
1.5,1.5,149
1.65,-1.5,159
1.65,-1.35,161
1.65,-1.2,163
1.65,-1.05,163
1.65,-0.9,163
1.65,-0.75,163
1.65,-0.6,163
1.65,-0.45,163
1.65,-0.3,163
1.65,-0.15,163
1.65,0.0,164
1.65,0.15,159
1.65,0.3,158
1.65,0.45,158
1.65,0.6,160
1.65,0.75,159
1.65,0.9,160
1.65,1.05,158
1.65,1.2,156
1.65,1.35,154
1.65,1.5,152
1.8,-1.5,163
1.8,-1.35,163
1.8,-1.2,163
1.8,-1.05,163
1.8,-0.9,163
1.8,-0.75,163
1.8,-0.6,162
1.8,-0.45,162
1.8,-0.3,163
1.8,-0.15,163
1.8,0.0,164
1.8,0.15,161
1.8,0.3,159
1.8,0.45,158
1.8,0.6,158
1.8,0.75,159
1.8,0.9,157
1.8,1.05,157
1.8,1.2,160
1.8,1.35,160
1.8,1.5,160
1.95,-1.5,162
1.95,-1.35,163
1.95,-1.2,163
1.95,-1.05,163
1.95,-0.9,163
1.95,-0.75,161
1.95,-0.6,161
1.95,-0.45,161
1.95,-0.3,163
1.95,-0.15,163
1.95,0.0,164
1.95,0.15,164
1.95,0.3,161
1.95,0.45,158
1.95,0.6,158
1.95,0.75,158
1.95,0.9,157
1.95,1.05,157
1.95,1.2,162
1.95,1.35,162
1.95,1.5,163
2.1,-1.5,161
2.1,-1.35,162
2.1,-1.2,163
2.1,-1.05,163
2.1,-0.9,162
2.1,-0.75,161
2.1,-0.6,161
2.1,-0.45,161
2.1,-0.3,161
2.1,-0.15,163
2.1,0.0,164
2.1,0.15,164
2.1,0.3,164
2.1,0.45,158
2.1,0.6,158
2.1,0.75,159
2.1,0.9,159
2.1,1.05,160
2.1,1.2,163
2.1,1.35,163
2.1,1.5,164
2.25,-1.5,157
2.25,-1.35,158
2.25,-1.2,159
2.25,-1.05,160
2.25,-0.9,162
2.25,-0.75,161
2.25,-0.6,161
2.25,-0.45,161
2.25,-0.3,161
2.25,-0.15,163
2.25,0.0,164
2.25,0.15,164
2.25,0.3,164
2.25,0.45,160
2.25,0.6,160
2.25,0.75,161
2.25,0.9,159
2.25,1.05,161
2.25,1.2,164
2.25,1.35,164
2.25,1.5,165
2.4,-1.5,145
2.4,-1.35,148
2.4,-1.2,155
2.4,-1.05,158
2.4,-0.9,160
2.4,-0.75,163
2.4,-0.6,163
2.4,-0.45,161
2.4,-0.3,161
2.4,-0.15,164
2.4,0.0,164
2.4,0.15,164
2.4,0.3,163
2.4,0.45,161
2.4,0.6,161
2.4,0.75,159
2.4,0.9,159
2.4,1.05,159
2.4,1.2,167
2.4,1.35,169
2.4,1.5,170
2.55,-1.5,136
2.55,-1.35,141
2.55,-1.2,150
2.55,-1.05,155
2.55,-0.9,157
2.55,-0.75,163
2.55,-0.6,165
2.55,-0.45,161
2.55,-0.3,161
2.55,-0.15,163
2.55,0.0,164
2.55,0.15,164
2.55,0.3,164
2.55,0.45,163
2.55,0.6,162
2.55,0.75,160
2.55,0.9,159
2.55,1.05,159
2.55,1.2,169
2.55,1.35,172
2.55,1.5,174
2.7,-1.5,157
2.7,-1.35,154
2.7,-1.2,146
2.7,-1.05,146
2.7,-0.9,153
2.7,-0.75,158
2.7,-0.6,165
2.7,-0.45,165
2.7,-0.3,161
2.7,-0.15,164
2.7,0.0,163
2.7,0.15,164
2.7,0.3,164
2.7,0.45,164
2.7,0.6,161
2.7,0.75,161
2.7,0.9,161
2.7,1.05,160
2.7,1.2,161
2.7,1.35,160
2.7,1.5,160
2.85,-1.5,164
2.85,-1.35,163
2.85,-1.2,142
2.85,-1.05,138
2.85,-0.9,148
2.85,-0.75,154
2.85,-0.6,159
2.85,-0.45,179
2.85,-0.3,161
2.85,-0.15,163
2.85,0.0,164
2.85,0.15,163
2.85,0.3,161
2.85,0.45,162
2.85,0.6,160
2.85,0.75,161
2.85,0.9,161
2.85,1.05,160
2.85,1.2,153
2.85,1.35,151
2.85,1.5,150
3.0,-1.5,164
3.0,-1.35,162
3.0,-1.2,150
3.0,-1.05,145
3.0,-0.9,146
3.0,-0.75,151
3.0,-0.6,160
3.0,-0.45,172
3.0,-0.3,178
3.0,-0.15,161
3.0,0.0,162
3.0,0.15,164
3.0,0.3,161
3.0,0.45,160
3.0,0.6,159
3.0,0.75,158
3.0,0.9,146
3.0,1.05,136
3.0,1.2,127
3.0,1.35,118
3.0,1.5,108
3.15,-1.5,164
3.15,-1.35,164
3.15,-1.2,160
3.15,-1.05,155
3.15,-0.9,146
3.15,-0.75,150
3.15,-0.6,160
3.15,-0.45,162
3.15,-0.3,161
3.15,-0.15,166
3.15,0.0,165
3.15,0.15,162
3.15,0.3,161
3.15,0.45,165
3.15,0.6,166
3.15,0.75,159
3.15,0.9,131
3.15,1.05,116
3.15,1.2,106
3.15,1.35,92
3.15,1.5,76
3.3,-1.5,157
3.3,-1.35,156
3.3,-1.2,167
3.3,-1.05,168
3.3,-0.9,162
3.3,-0.75,158
3.3,-0.6,158
3.3,-0.45,166
3.3,-0.3,162
3.3,-0.15,165
3.3,0.0,163
3.3,0.15,162
3.3,0.3,167
3.3,0.45,169
3.3,0.6,161
3.3,0.75,143
3.3,0.9,111
3.3,1.05,90
3.3,1.2,70
3.3,1.35,49
3.3,1.5,27
3.45,-1.5,151
3.45,-1.35,154
3.45,-1.2,174
3.45,-1.05,179
3.45,-0.9,176
3.45,-0.75,169
3.45,-0.6,166
3.45,-0.45,160
3.45,-0.3,163
3.45,-0.15,164
3.45,0.0,163
3.45,0.15,167
3.45,0.3,169
3.45,0.45,168
3.45,0.6,156
3.45,0.75,134
3.45,0.9,103
3.45,1.05,77
3.45,1.2,51
3.45,1.35,25
3.45,1.5,0
3.6,-1.5,192
3.6,-1.35,189
3.6,-1.2,186
3.6,-1.05,183
3.6,-0.9,186
3.6,-0.75,178
3.6,-0.6,171
3.6,-0.45,170
3.6,-0.3,170
3.6,-0.15,170
3.6,0.0,162
3.6,0.15,166
3.6,0.3,169
3.6,0.45,166
3.6,0.6,157
3.6,0.75,135
3.6,0.9,101
3.6,1.05,72
3.6,1.2,44
3.6,1.35,16
3.6,1.5,0
3.75,-1.5,218
3.75,-1.35,213
3.75,-1.2,192
3.75,-1.05,183
3.75,-0.9,194
3.75,-0.75,185
3.75,-0.6,168
3.75,-0.45,162
3.75,-0.3,161
3.75,-0.15,170
3.75,0.0,161
3.75,0.15,169
3.75,0.3,163
3.75,0.45,169
3.75,0.6,155
3.75,0.75,128
3.75,0.9,92
3.75,1.05,61
3.75,1.2,32
3.75,1.35,3
3.75,1.5,0
3.9,-1.5,229
3.9,-1.35,222
3.9,-1.2,210
3.9,-1.05,201
3.9,-0.9,191
3.9,-0.75,184
3.9,-0.6,175
3.9,-0.45,165
3.9,-0.3,160
3.9,-0.15,158
3.9,0.0,170
3.9,0.15,167
3.9,0.3,163
3.9,0.45,165
3.9,0.6,144
3.9,0.75,123
3.9,0.9,78
3.9,1.05,50
3.9,1.2,25
3.9,1.35,0
3.9,1.5,0
4.05,-1.5,228
4.05,-1.35,219
4.05,-1.2,215
4.05,-1.05,207
4.05,-0.9,182
4.05,-0.75,176
4.05,-0.6,176
4.05,-0.45,165
4.05,-0.3,162
4.05,-0.15,158
4.05,0.0,163
4.05,0.15,161
4.05,0.3,168
4.05,0.45,148
4.05,0.6,133
4.05,0.75,120
4.05,0.9,52
4.05,1.05,32
4.05,1.2,24
4.05,1.35,3
4.05,1.5,0
4.2,-1.5,205
4.2,-1.35,198
4.2,-1.2,198
4.2,-1.05,191
4.2,-0.9,178
4.2,-0.75,167
4.2,-0.6,167
4.2,-0.45,164
4.2,-0.3,164
4.2,-0.15,166
4.2,0.0,158
4.2,0.15,168
4.2,0.3,167
4.2,0.45,117
4.2,0.6,99
4.2,0.75,86
4.2,0.9,41
4.2,1.05,26
4.2,1.2,19
4.2,1.35,1
4.2,1.5,0
4.35,-1.5,194
4.35,-1.35,189
4.35,-1.2,183
4.35,-1.05,168
4.35,-0.9,150
4.35,-0.75,128
4.35,-0.6,129
4.35,-0.45,159
4.35,-0.3,165
4.35,-0.15,168
4.35,0.0,168
4.35,0.15,148
4.35,0.3,89
4.35,0.45,9
4.35,0.6,27
4.35,0.75,45
4.35,0.9,48
4.35,1.05,32
4.35,1.2,15
4.35,1.35,0
4.35,1.5,0
4.5,-1.5,182
4.5,-1.35,177
4.5,-1.2,171
4.5,-1.05,149
4.5,-0.9,96
4.5,-0.75,102
4.5,-0.6,139
4.5,-0.45,164
4.5,-0.3,161
4.5,-0.15,163
4.5,0.0,157
4.5,0.15,208
4.5,0.3,42
4.5,0.45,0
4.5,0.6,67
4.5,0.75,125
4.5,0.9,68
4.5,1.05,68
4.5,1.2,55
4.5,1.35,46
4.5,1.5,37
4.65,-1.5,170
4.65,-1.35,166
4.65,-1.2,163
4.65,-1.05,142
4.65,-0.9,101
4.65,-0.75,129
4.65,-0.6,164
4.65,-0.45,160
4.65,-0.3,161
4.65,-0.15,163
4.65,0.0,163
4.65,0.15,162
4.65,0.3,89
4.65,0.45,25
4.65,0.6,138
4.65,0.75,201
4.65,0.9,116
4.65,1.05,120
4.65,1.2,99
4.65,1.35,95
4.65,1.5,92
4.8,-1.5,177
4.8,-1.35,172
4.8,-1.2,154
4.8,-1.05,142
4.8,-0.9,140
4.8,-0.75,158
4.8,-0.6,164
4.8,-0.45,164
4.8,-0.3,162
4.8,-0.15,161
4.8,0.0,163
4.8,0.15,162
4.8,0.3,166
4.8,0.45,151
4.8,0.6,162
4.8,0.75,192
4.8,0.9,228
4.8,1.05,216
4.8,1.2,113
4.8,1.35,114
4.8,1.5,119
4.95,-1.5,188
4.95,-1.35,183
4.95,-1.2,157
4.95,-1.05,153
4.95,-0.9,158
4.95,-0.75,161
4.95,-0.6,161
4.95,-0.45,161
4.95,-0.3,164
4.95,-0.15,161
4.95,0.0,162
4.95,0.15,162
4.95,0.3,169
4.95,0.45,196
4.95,0.6,191
4.95,0.75,203
4.95,0.9,255
4.95,1.05,255
4.95,1.2,136
4.95,1.35,138
4.95,1.5,147
5.1,-1.5,176
5.1,-1.35,178
5.1,-1.2,171
5.1,-1.05,171
5.1,-0.9,172
5.1,-0.75,168
5.1,-0.6,162
5.1,-0.45,161
5.1,-0.3,164
5.1,-0.15,164
5.1,0.0,162
5.1,0.15,176
5.1,0.3,188
5.1,0.45,195
5.1,0.6,217
5.1,0.75,222
5.1,0.9,227
5.1,1.05,228
5.1,1.2,188
5.1,1.35,192
5.1,1.5,199
5.25,-1.5,170
5.25,-1.35,177
5.25,-1.2,182
5.25,-1.05,184
5.25,-0.9,179
5.25,-0.75,171
5.25,-0.6,160
5.25,-0.45,164
5.25,-0.3,161
5.25,-0.15,162
5.25,0.0,163
5.25,0.15,167
5.25,0.3,176
5.25,0.45,184
5.25,0.6,201
5.25,0.75,204
5.25,0.9,170
5.25,1.05,179
5.25,1.2,220
5.25,1.35,227
5.25,1.5,233
5.4,-1.5,163
5.4,-1.35,173
5.4,-1.2,193
5.4,-1.05,192
5.4,-0.9,177
5.4,-0.75,161
5.4,-0.6,160
5.4,-0.45,189
5.4,-0.3,170
5.4,-0.15,165
5.4,0.0,165
5.4,0.15,164
5.4,0.3,163
5.4,0.45,180
5.4,0.6,205
5.4,0.75,215
5.4,0.9,193
5.4,1.05,201
5.4,1.2,220
5.4,1.35,228
5.4,1.5,236
5.55,-1.5,147
5.55,-1.35,160
5.55,-1.2,194
5.55,-1.05,190
5.55,-0.9,169
5.55,-0.75,160
5.55,-0.6,163
5.55,-0.45,175
5.55,-0.3,171
5.55,-0.15,163
5.55,0.0,165
5.55,0.15,163
5.55,0.3,169
5.55,0.45,177
5.55,0.6,195
5.55,0.75,213
5.55,0.9,200
5.55,1.05,207
5.55,1.2,220
5.55,1.35,231
5.55,1.5,241
5.7,-1.5,147
5.7,-1.35,157
5.7,-1.2,178
5.7,-1.05,176
5.7,-0.9,158
5.7,-0.75,159
5.7,-0.6,163
5.7,-0.45,165
5.7,-0.3,163
5.7,-0.15,163
5.7,0.0,163
5.7,0.15,164
5.7,0.3,163
5.7,0.45,165
5.7,0.6,174
5.7,0.75,186
5.7,0.9,195
5.7,1.05,204
5.7,1.2,214
5.7,1.35,224
5.7,1.5,233
5.85,-1.5,143
5.85,-1.35,149
5.85,-1.2,160
5.85,-1.05,166
5.85,-0.9,158
5.85,-0.75,163
5.85,-0.6,165
5.85,-0.45,165
5.85,-0.3,163
5.85,-0.15,163
5.85,0.0,163
5.85,0.15,166
5.85,0.3,164
5.85,0.45,163
5.85,0.6,163
5.85,0.75,172
5.85,0.9,193
5.85,1.05,202
5.85,1.2,206
5.85,1.35,214
5.85,1.5,221
6.0,-1.5,129
6.0,-1.35,136
6.0,-1.2,142
6.0,-1.05,156
6.0,-0.9,164
6.0,-0.75,164
6.0,-0.6,163
6.0,-0.45,165
6.0,-0.3,165
6.0,-0.15,163
6.0,0.0,166
6.0,0.15,166
6.0,0.3,166
6.0,0.45,164
6.0,0.6,168
6.0,0.75,174
6.0,0.9,183
6.0,1.05,191
6.0,1.2,199
6.0,1.35,206
6.0,1.5,213
6.15,-1.5,116
6.15,-1.35,125
6.15,-1.2,130
6.15,-1.05,149
6.15,-0.9,169
6.15,-0.75,169
6.15,-0.6,164
6.15,-0.45,163
6.15,-0.3,163
6.15,-0.15,165
6.15,0.0,163
6.15,0.15,164
6.15,0.3,164
6.15,0.45,176
6.15,0.6,178
6.15,0.75,178
6.15,0.9,171
6.15,1.05,177
6.15,1.2,191
6.15,1.35,197
6.15,1.5,203
6.3,-1.5,102
6.3,-1.35,116
6.3,-1.2,129
6.3,-1.05,151
6.3,-0.9,167
6.3,-0.75,169
6.3,-0.6,167
6.3,-0.45,164
6.3,-0.3,168
6.3,-0.15,166
6.3,0.0,163
6.3,0.15,164
6.3,0.3,165
6.3,0.45,176
6.3,0.6,176
6.3,0.75,170
6.3,0.9,165
6.3,1.05,167
6.3,1.2,179
6.3,1.35,183
6.3,1.5,186
6.45,-1.5,92
6.45,-1.35,111
6.45,-1.2,129
6.45,-1.05,150
6.45,-0.9,151
6.45,-0.75,158
6.45,-0.6,169
6.45,-0.45,162
6.45,-0.3,177
6.45,-0.15,165
6.45,0.0,174
6.45,0.15,164
6.45,0.3,156
6.45,0.45,149
6.45,0.6,149
6.45,0.75,142
6.45,0.9,152
6.45,1.05,153
6.45,1.2,163
6.45,1.35,163
6.45,1.5,163
6.6,-1.5,101
6.6,-1.35,119
6.6,-1.2,139
6.6,-1.05,156
6.6,-0.9,166
6.6,-0.75,170
6.6,-0.6,167
6.6,-0.45,159
6.6,-0.3,163
6.6,-0.15,161
6.6,0.0,161
6.6,0.15,182
6.6,0.3,174
6.6,0.45,146
6.6,0.6,143
6.6,0.75,141
6.6,0.9,154
6.6,1.05,155
6.6,1.2,159
6.6,1.35,158
6.6,1.5,157
6.75,-1.5,124
6.75,-1.35,136
6.75,-1.2,157
6.75,-1.05,165
6.75,-0.9,194
6.75,-0.75,183
6.75,-0.6,150
6.75,-0.45,162
6.75,-0.3,160
6.75,-0.15,163
6.75,0.0,165
6.75,0.15,175
6.75,0.3,186
6.75,0.45,149
6.75,0.6,149
6.75,0.75,152
6.75,0.9,163
6.75,1.05,160
6.75,1.2,152
6.75,1.35,150
6.75,1.5,148
6.9,-1.5,180
6.9,-1.35,178
6.9,-1.2,169
6.9,-1.05,165
6.9,-0.9,184
6.9,-0.75,171
6.9,-0.6,153
6.9,-0.45,169
6.9,-0.3,164
6.9,-0.15,163
6.9,0.0,175
6.9,0.15,161
6.9,0.3,161
6.9,0.45,156
6.9,0.6,155
6.9,0.75,155
6.9,0.9,163
6.9,1.05,161
6.9,1.2,151
6.9,1.35,149
6.9,1.5,147
7.05,-1.5,255
7.05,-1.35,244
7.05,-1.2,197
7.05,-1.05,174
7.05,-0.9,174
7.05,-0.75,164
7.05,-0.6,177
7.05,-0.45,163
7.05,-0.3,161
7.05,-0.15,160
7.05,0.0,163
7.05,0.15,165
7.05,0.3,166
7.05,0.45,173
7.05,0.6,168
7.05,0.75,163
7.05,0.9,160
7.05,1.05,157
7.05,1.2,145
7.05,1.35,142
7.05,1.5,139
7.2,-1.5,255
7.2,-1.35,255
7.2,-1.2,217
7.2,-1.05,192
7.2,-0.9,175
7.2,-0.75,159
7.2,-0.6,181
7.2,-0.45,163
7.2,-0.3,166
7.2,-0.15,160
7.2,0.0,168
7.2,0.15,173
7.2,0.3,182
7.2,0.45,173
7.2,0.6,171
7.2,0.75,164
7.2,0.9,154
7.2,1.05,147
7.2,1.2,131
7.2,1.35,125
7.2,1.5,120
7.35,-1.5,255
7.35,-1.35,255
7.35,-1.2,241
7.35,-1.05,218
7.35,-0.9,202
7.35,-0.75,170
7.35,-0.6,158
7.35,-0.45,159
7.35,-0.3,160
7.35,-0.15,169
7.35,0.0,173
7.35,0.15,161
7.35,0.3,166
7.35,0.45,157
7.35,0.6,159
7.35,0.75,150
7.35,0.9,135
7.35,1.05,122
7.35,1.2,105
7.35,1.35,95
7.35,1.5,86
7.5,-1.5,255
7.5,-1.35,247
7.5,-1.2,248
7.5,-1.05,226
7.5,-0.9,196
7.5,-0.75,149
7.5,-0.6,147
7.5,-0.45,166
7.5,-0.3,162
7.5,-0.15,160
7.5,0.0,169
7.5,0.15,161
7.5,0.3,161
7.5,0.45,158
7.5,0.6,157
7.5,0.75,148
7.5,0.9,126
7.5,1.05,109
7.5,1.2,89
7.5,1.35,77
7.5,1.5,67
7.65,-1.5,215
7.65,-1.35,216
7.65,-1.2,236
7.65,-1.05,216
7.65,-0.9,170
7.65,-0.75,125
7.65,-0.6,188
7.65,-0.45,212
7.65,-0.3,165
7.65,-0.15,169
7.65,0.0,161
7.65,0.15,170
7.65,0.3,162
7.65,0.45,161
7.65,0.6,151
7.65,0.75,136
7.65,0.9,107
7.65,1.05,86
7.65,1.2,67
7.65,1.35,52
7.65,1.5,39
7.8,-1.5,221
7.8,-1.35,215
7.8,-1.2,219
7.8,-1.05,196
7.8,-0.9,141
7.8,-0.75,124
7.8,-0.6,188
7.8,-0.45,213
7.8,-0.3,169
7.8,-0.15,162
7.8,0.0,171
7.8,0.15,161
7.8,0.3,165
7.8,0.45,163
7.8,0.6,144
7.8,0.75,121
7.8,0.9,93
7.8,1.05,73
7.8,1.2,54
7.8,1.35,41
7.8,1.5,29
7.95,-1.5,255
7.95,-1.35,250
7.95,-1.2,193
7.95,-1.05,162
7.95,-0.9,110
7.95,-0.75,143
7.95,-0.6,149
7.95,-0.45,165
7.95,-0.3,173
7.95,-0.15,173
7.95,0.0,163
7.95,0.15,171
7.95,0.3,171
7.95,0.45,152
7.95,0.6,123
7.95,0.75,94
7.95,0.9,75
7.95,1.05,58
7.95,1.2,44
7.95,1.35,31
7.95,1.5,21
8.1,-1.5,255
8.1,-1.35,243
8.1,-1.2,173
8.1,-1.05,144
8.1,-0.9,114
8.1,-0.75,153
8.1,-0.6,173
8.1,-0.45,173
8.1,-0.3,163
8.1,-0.15,170
8.1,0.0,160
8.1,0.15,160
8.1,0.3,171
8.1,0.45,147
8.1,0.6,115
8.1,0.75,86
8.1,0.9,59
8.1,1.05,43
8.1,1.2,36
8.1,1.35,26
8.1,1.5,20
8.25,-1.5,254
8.25,-1.35,226
8.25,-1.2,173
8.25,-1.05,149
8.25,-0.9,117
8.25,-0.75,140
8.25,-0.6,198
8.25,-0.45,168
8.25,-0.3,164
8.25,-0.15,160
8.25,0.0,160
8.25,0.15,163
8.25,0.3,170
8.25,0.45,150
8.25,0.6,120
8.25,0.75,91
8.25,0.9,47
8.25,1.05,34
8.25,1.2,36
8.25,1.35,28
8.25,1.5,20
8.4,-1.5,244
8.4,-1.35,218
8.4,-1.2,175
8.4,-1.05,153
8.4,-0.9,117
8.4,-0.75,124
8.4,-0.6,225
8.4,-0.45,179
8.4,-0.3,165
8.4,-0.15,162
8.4,0.0,160
8.4,0.15,163
8.4,0.3,168
8.4,0.45,161
8.4,0.6,123
8.4,0.75,94
8.4,0.9,58
8.4,1.05,41
8.4,1.2,34
8.4,1.35,23
8.4,1.5,14
8.55,-1.5,255
8.55,-1.35,228
8.55,-1.2,182
8.55,-1.05,163
8.55,-0.9,151
8.55,-0.75,146
8.55,-0.6,205
8.55,-0.45,163
8.55,-0.3,163
8.55,-0.15,165
8.55,0.0,154
8.55,0.15,150
8.55,0.3,163
8.55,0.45,156
8.55,0.6,125
8.55,0.75,103
8.55,0.9,98
8.55,1.05,72
8.55,1.2,26
8.55,1.35,9
8.55,1.5,0
8.7,-1.5,249
8.7,-1.35,224
8.7,-1.2,190
8.7,-1.05,174
8.7,-0.9,179
8.7,-0.75,165
8.7,-0.6,195
8.7,-0.45,162
8.7,-0.3,165
8.7,-0.15,156
8.7,0.0,165
8.7,0.15,155
8.7,0.3,159
8.7,0.45,153
8.7,0.6,136
8.7,0.75,118
8.7,0.9,110
8.7,1.05,86
8.7,1.2,43
8.7,1.35,26
8.7,1.5,10
8.85,-1.5,159
8.85,-1.35,154
8.85,-1.2,191
8.85,-1.05,188
8.85,-0.9,177
8.85,-0.75,162
8.85,-0.6,162
8.85,-0.45,162
8.85,-0.3,162
8.85,-0.15,165
8.85,0.0,165
8.85,0.15,165
8.85,0.3,160
8.85,0.45,160
8.85,0.6,157
8.85,0.75,142
8.85,0.9,103
8.85,1.05,91
8.85,1.2,83
8.85,1.35,69
8.85,1.5,57
9.0,-1.5,128
9.0,-1.35,125
9.0,-1.2,170
9.0,-1.05,178
9.0,-0.9,177
9.0,-0.75,170
9.0,-0.6,168
9.0,-0.45,163
9.0,-0.3,162
9.0,-0.15,165
9.0,0.0,165
9.0,0.15,161
9.0,0.3,160
9.0,0.45,155
9.0,0.6,158
9.0,0.75,147
9.0,0.9,114
9.0,1.05,107
9.0,1.2,104
9.0,1.35,90
9.0,1.5,78
9.15,-1.5,128
9.15,-1.35,121
9.15,-1.2,83
9.15,-1.05,88
9.15,-0.9,156
9.15,-0.75,175
9.15,-0.6,167
9.15,-0.45,162
9.15,-0.3,163
9.15,-0.15,161
9.15,0.0,160
9.15,0.15,164
9.15,0.3,159
9.15,0.45,155
9.15,0.6,155
9.15,0.75,152
9.15,0.9,141
9.15,1.05,138
9.15,1.2,141
9.15,1.35,131
9.15,1.5,122
9.3,-1.5,111
9.3,-1.35,105
9.3,-1.2,72
9.3,-1.05,80
9.3,-0.9,147
9.3,-0.75,175
9.3,-0.6,183
9.3,-0.45,161
9.3,-0.3,161
9.3,-0.15,165
9.3,0.0,160
9.3,0.15,159
9.3,0.3,163
9.3,0.45,155
9.3,0.6,158
9.3,0.75,154
9.3,0.9,148
9.3,1.05,146
9.3,1.2,152
9.3,1.35,147
9.3,1.5,143
9.45,-1.5,49
9.45,-1.35,63
9.45,-1.2,105
9.45,-1.05,125
9.45,-0.9,149
9.45,-0.75,161
9.45,-0.6,161
9.45,-0.45,161
9.45,-0.3,165
9.45,-0.15,165
9.45,0.0,159
9.45,0.15,163
9.45,0.3,163
9.45,0.45,158
9.45,0.6,163
9.45,0.75,161
9.45,0.9,170
9.45,1.05,177
9.45,1.2,191
9.45,1.35,200
9.45,1.5,210
9.6,-1.5,65
9.6,-1.35,82
9.6,-1.2,130
9.6,-1.05,146
9.6,-0.9,152
9.6,-0.75,162
9.6,-0.6,165
9.6,-0.45,165
9.6,-0.3,161
9.6,-0.15,164
9.6,0.0,162
9.6,0.15,161
9.6,0.3,163
9.6,0.45,163
9.6,0.6,162
9.6,0.75,161
9.6,0.9,177
9.6,1.05,184
9.6,1.2,195
9.6,1.35,209
9.6,1.5,223
9.75,-1.5,139
9.75,-1.35,142
9.75,-1.2,165
9.75,-1.05,173
9.75,-0.9,164
9.75,-0.75,159
9.75,-0.6,163
9.75,-0.45,163
9.75,-0.3,173
9.75,-0.15,181
9.75,0.0,169
9.75,0.15,163
9.75,0.3,164
9.75,0.45,162
9.75,0.6,162
9.75,0.75,164
9.75,0.9,165
9.75,1.05,175
9.75,1.2,186
9.75,1.35,201
9.75,1.5,216
9.9,-1.5,164
9.9,-1.35,164
9.9,-1.2,179
9.9,-1.05,184
9.9,-0.9,178
9.9,-0.75,168
9.9,-0.6,166
9.9,-0.45,165
9.9,-0.3,163
9.9,-0.15,164
9.9,0.0,164
9.9,0.15,164
9.9,0.3,162
9.9,0.45,162
9.9,0.6,166
9.9,0.75,170
9.9,0.9,164
9.9,1.05,170
9.9,1.2,183
9.9,1.35,198
9.9,1.5,213
10.05,-1.5,169
10.05,-1.35,173
10.05,-1.2,177
10.05,-1.05,177
10.05,-0.9,169
10.05,-0.75,161
10.05,-0.6,162
10.05,-0.45,163
10.05,-0.3,165
10.05,-0.15,163
10.05,0.0,163
10.05,0.15,176
10.05,0.3,186
10.05,0.45,199
10.05,0.6,189
10.05,0.75,185
10.05,0.9,164
10.05,1.05,171
10.05,1.2,179
10.05,1.35,191
10.05,1.5,203
10.2,-1.5,164
10.2,-1.35,168
10.2,-1.2,169
10.2,-1.05,167
10.2,-0.9,154
10.2,-0.75,152
10.2,-0.6,160
10.2,-0.45,160
10.2,-0.3,165
10.2,-0.15,165
10.2,0.0,165
10.2,0.15,164
10.2,0.3,176
10.2,0.45,200
10.2,0.6,205
10.2,0.75,200
10.2,0.9,176
10.2,1.05,182
10.2,1.2,183
10.2,1.35,193
10.2,1.5,203
10.35,-1.5,148
10.35,-1.35,154
10.35,-1.2,153
10.35,-1.05,154
10.35,-0.9,151
10.35,-0.75,159
10.35,-0.6,161
10.35,-0.45,165
10.35,-0.3,161
10.35,-0.15,159
10.35,0.0,161
10.35,0.15,165
10.35,0.3,166
10.35,0.45,182
10.35,0.6,207
10.35,0.75,221
10.35,0.9,215
10.35,1.05,210
10.35,1.2,192
10.35,1.35,200
10.35,1.5,208
10.5,-1.5,144
10.5,-1.35,145
10.5,-1.2,146
10.5,-1.05,151
10.5,-0.9,157
10.5,-0.75,175
10.5,-0.6,162
10.5,-0.45,163
10.5,-0.3,159
10.5,-0.15,162
10.5,0.0,163
10.5,0.15,161
10.5,0.3,161
10.5,0.45,170
10.5,0.6,194
10.5,0.75,216
10.5,0.9,222
10.5,1.05,221
10.5,1.2,202
10.5,1.35,209
10.5,1.5,216
10.65,-1.5,144
10.65,-1.35,144
10.65,-1.2,141
10.65,-1.05,148
10.65,-0.9,159
10.65,-0.75,180
10.65,-0.6,167
10.65,-0.45,167
10.65,-0.3,159
10.65,-0.15,167
10.65,0.0,166
10.65,0.15,165
10.65,0.3,167
10.65,0.45,174
10.65,0.6,189
10.65,0.75,208
10.65,0.9,221
10.65,1.05,222
10.65,1.2,222
10.65,1.35,228
10.65,1.5,235
10.8,-1.5,144
10.8,-1.35,144
10.8,-1.2,140
10.8,-1.05,146
10.8,-0.9,161
10.8,-0.75,180
10.8,-0.6,155
10.8,-0.45,151
10.8,-0.3,167
10.8,-0.15,167
10.8,0.0,167
10.8,0.15,167
10.8,0.3,171
10.8,0.45,178
10.8,0.6,188
10.8,0.75,200
10.8,0.9,209
10.8,1.05,218
10.8,1.2,221
10.8,1.35,228
10.8,1.5,235
10.95,-1.5,134
10.95,-1.35,139
10.95,-1.2,144
10.95,-1.05,151
10.95,-0.9,181
10.95,-0.75,178
10.95,-0.6,159
10.95,-0.45,163
10.95,-0.3,167
10.95,-0.15,160
10.95,0.0,161
10.95,0.15,161
10.95,0.3,167
10.95,0.45,173
10.95,0.6,179
10.95,0.75,184
10.95,0.9,187
10.95,1.05,197
10.95,1.2,215
10.95,1.35,224
10.95,1.5,232
11.1,-1.5,126
11.1,-1.35,135
11.1,-1.2,153
11.1,-1.05,162
11.1,-0.9,184
11.1,-0.75,178
11.1,-0.6,172
11.1,-0.45,164
11.1,-0.3,160
11.1,-0.15,164
11.1,0.0,164
11.1,0.15,163
11.1,0.3,163
11.1,0.45,167
11.1,0.6,171
11.1,0.75,174
11.1,0.9,176
11.1,1.05,187
11.1,1.2,210
11.1,1.35,219
11.1,1.5,227
11.25,-1.5,125
11.25,-1.35,135
11.25,-1.2,181
11.25,-1.05,193
11.25,-0.9,184
11.25,-0.75,172
11.25,-0.6,166
11.25,-0.45,161
11.25,-0.3,164
11.25,-0.15,160
11.25,0.0,164
11.25,0.15,164
11.25,0.3,164
11.25,0.45,164
11.25,0.6,166
11.25,0.75,169
11.25,0.9,170
11.25,1.05,178
11.25,1.2,191
11.25,1.35,196
11.25,1.5,201
11.4,-1.5,126
11.4,-1.35,136
11.4,-1.2,184
11.4,-1.05,195
11.4,-0.9,184
11.4,-0.75,167
11.4,-0.6,164
11.4,-0.45,164
11.4,-0.3,166
11.4,-0.15,158
11.4,0.0,161
11.4,0.15,162
11.4,0.3,163
11.4,0.45,163
11.4,0.6,164
11.4,0.75,165
11.4,0.9,167
11.4,1.05,173
11.4,1.2,181
11.4,1.35,185
11.4,1.5,188
11.55,-1.5,140
11.55,-1.35,150
11.55,-1.2,170
11.55,-1.05,176
11.55,-0.9,179
11.55,-0.75,172
11.55,-0.6,164
11.55,-0.45,165
11.55,-0.3,165
11.55,-0.15,166
11.55,0.0,158
11.55,0.15,155
11.55,0.3,158
11.55,0.45,163
11.55,0.6,162
11.55,0.75,162
11.55,0.9,163
11.55,1.05,166
11.55,1.2,171
11.55,1.35,174
11.55,1.5,176
11.7,-1.5,124
11.7,-1.35,136
11.7,-1.2,155
11.7,-1.05,164
11.7,-0.9,175
11.7,-0.75,179
11.7,-0.6,171
11.7,-0.45,168
11.7,-0.3,166
11.7,-0.15,166
11.7,0.0,157
11.7,0.15,143
11.7,0.3,152
11.7,0.45,162
11.7,0.6,162
11.7,0.75,162
11.7,0.9,163
11.7,1.05,164
11.7,1.2,166
11.7,1.35,168
11.7,1.5,169
11.85,-1.5,100
11.85,-1.35,114
11.85,-1.2,129
11.85,-1.05,145
11.85,-0.9,168
11.85,-0.75,168
11.85,-0.6,167
11.85,-0.45,164
11.85,-0.3,163
11.85,-0.15,163
11.85,0.0,150
11.85,0.15,141
11.85,0.3,151
11.85,0.45,161
11.85,0.6,162
11.85,0.75,162
11.85,0.9,163
11.85,1.05,163
11.85,1.2,163
11.85,1.35,163
11.85,1.5,163
12.0,-1.5,84
12.0,-1.35,97
12.0,-1.2,102
12.0,-1.05,121
12.0,-0.9,153
12.0,-0.75,159
12.0,-0.6,170
12.0,-0.45,175
12.0,-0.3,179
12.0,-0.15,177
12.0,0.0,157
12.0,0.15,153
12.0,0.3,157
12.0,0.45,161
12.0,0.6,163
12.0,0.75,164
12.0,0.9,164
12.0,1.05,163
12.0,1.2,163
12.0,1.35,163
12.0,1.5,163
12.15,-1.5,116
12.15,-1.35,114
12.15,-1.2,99
12.15,-1.05,109
12.15,-0.9,133
12.15,-0.75,153
12.15,-0.6,167
12.15,-0.45,173
12.15,-0.3,180
12.15,-0.15,176
12.15,0.0,163
12.15,0.15,162
12.15,0.3,163
12.15,0.45,164
12.15,0.6,165
12.15,0.75,165
12.15,0.9,165
12.15,1.05,164
12.15,1.2,163
12.15,1.35,163
12.15,1.5,163
12.3,-1.5,147
12.3,-1.35,133
12.3,-1.2,97
12.3,-1.05,96
12.3,-0.9,103
12.3,-0.75,130
12.3,-0.6,157
12.3,-0.45,163
12.3,-0.3,168
12.3,-0.15,169
12.3,0.0,161
12.3,0.15,162
12.3,0.3,163
12.3,0.45,165
12.3,0.6,167
12.3,0.75,167
12.3,0.9,166
12.3,1.05,165
12.3,1.2,163
12.3,1.35,163
12.3,1.5,163
12.45,-1.5,149
12.45,-1.35,132
12.45,-1.2,110
12.45,-1.05,102
12.45,-0.9,88
12.45,-0.75,110
12.45,-0.6,143
12.45,-0.45,162
12.45,-0.3,163
12.45,-0.15,164
12.45,0.0,162
12.45,0.15,161
12.45,0.3,163
12.45,0.45,165
12.45,0.6,168
12.45,0.75,169
12.45,0.9,167
12.45,1.05,166
12.45,1.2,164
12.45,1.35,163
12.45,1.5,163
12.6,-1.5,151
12.6,-1.35,132
12.6,-1.2,122
12.6,-1.05,108
12.6,-0.9,75
12.6,-0.75,85
12.6,-0.6,115
12.6,-0.45,162
12.6,-0.3,158
12.6,-0.15,156
12.6,0.0,161
12.6,0.15,162
12.6,0.3,162
12.6,0.45,166
12.6,0.6,169
12.6,0.75,170
12.6,0.9,168
12.6,1.05,166
12.6,1.2,165
12.6,1.35,163
12.6,1.5,163
12.75,-1.5,158
12.75,-1.35,137
12.75,-1.2,115
12.75,-1.05,94
12.75,-0.9,45
12.75,-0.75,59
12.75,-0.6,108
12.75,-0.45,161
12.75,-0.3,155
12.75,-0.15,156
12.75,0.0,162
12.75,0.15,165
12.75,0.3,166
12.75,0.45,169
12.75,0.6,171
12.75,0.75,172
12.75,0.9,168
12.75,1.05,167
12.75,1.2,165
12.75,1.35,163
12.75,1.5,163
12.9,-1.5,161
12.9,-1.35,139
12.9,-1.2,115
12.9,-1.05,92
12.9,-0.9,22
12.9,-0.75,41
12.9,-0.6,100
12.9,-0.45,153
12.9,-0.3,168
12.9,-0.15,169
12.9,0.0,169
12.9,0.15,173
12.9,0.3,174
12.9,0.45,175
12.9,0.6,178
12.9,0.75,177
12.9,0.9,168
12.9,1.05,167
12.9,1.2,165
12.9,1.35,163
12.9,1.5,163
13.05,-1.5,162
13.05,-1.35,142
13.05,-1.2,122
13.05,-1.05,102
13.05,-0.9,15
13.05,-0.75,24
13.05,-0.6,78
13.05,-0.45,126
13.05,-0.3,157
13.05,-0.15,173
13.05,0.0,179
13.05,0.15,181
13.05,0.3,182
13.05,0.45,183
13.05,0.6,185
13.05,0.75,182
13.05,0.9,168
13.05,1.05,166
13.05,1.2,165
13.05,1.35,163
13.05,1.5,163
