-3.0,-1.5,136
-3.0,-1.35,136
-3.0,-1.2,136
-3.0,-1.05,136
-3.0,-0.9,136
-3.0,-0.75,136
-3.0,-0.6,136
-3.0,-0.45,136
-3.0,-0.3,136
-3.0,-0.15,136
-3.0,0.0,136
-3.0,0.15,136
-3.0,0.3,136
-3.0,0.45,136
-3.0,0.6,136
-3.0,0.75,136
-3.0,0.9,136
-3.0,1.05,136
-3.0,1.2,136
-3.0,1.35,136
-3.0,1.5,136
-2.85,-1.5,136
-2.85,-1.35,136
-2.85,-1.2,136
-2.85,-1.05,136
-2.85,-0.9,136
-2.85,-0.75,136
-2.85,-0.6,136
-2.85,-0.45,136
-2.85,-0.3,136
-2.85,-0.15,136
-2.85,0.0,136
-2.85,0.15,136
-2.85,0.3,136
-2.85,0.45,136
-2.85,0.6,136
-2.85,0.75,136
-2.85,0.9,136
-2.85,1.05,136
-2.85,1.2,136
-2.85,1.35,136
-2.85,1.5,136
-2.7,-1.5,136
-2.7,-1.35,136
-2.7,-1.2,136
-2.7,-1.05,136
-2.7,-0.9,136
-2.7,-0.75,136
-2.7,-0.6,136
-2.7,-0.45,136
-2.7,-0.3,136
-2.7,-0.15,136
-2.7,0.0,136
-2.7,0.15,136
-2.7,0.3,136
-2.7,0.45,136
-2.7,0.6,136
-2.7,0.75,136
-2.7,0.9,136
-2.7,1.05,136
-2.7,1.2,136
-2.7,1.35,136
-2.7,1.5,136
-2.55,-1.5,136
-2.55,-1.35,136
-2.55,-1.2,136
-2.55,-1.05,136
-2.55,-0.9,136
-2.55,-0.75,136
-2.55,-0.6,136
-2.55,-0.45,136
-2.55,-0.3,136
-2.55,-0.15,136
-2.55,0.0,136
-2.55,0.15,136
-2.55,0.3,136
-2.55,0.45,136
-2.55,0.6,136
-2.55,0.75,136
-2.55,0.9,136
-2.55,1.05,136
-2.55,1.2,136
-2.55,1.35,136
-2.55,1.5,136
-2.4,-1.5,136
-2.4,-1.35,136
-2.4,-1.2,136
-2.4,-1.05,136
-2.4,-0.9,136
-2.4,-0.75,136
-2.4,-0.6,136
-2.4,-0.45,136
-2.4,-0.3,136
-2.4,-0.15,136
-2.4,0.0,136
-2.4,0.15,136
-2.4,0.3,136
-2.4,0.45,136
-2.4,0.6,136
-2.4,0.75,136
-2.4,0.9,136
-2.4,1.05,136
-2.4,1.2,136
-2.4,1.35,136
-2.4,1.5,136
-2.25,-1.5,136
-2.25,-1.35,136
-2.25,-1.2,136
-2.25,-1.05,136
-2.25,-0.9,136
-2.25,-0.75,136
-2.25,-0.6,136
-2.25,-0.45,136
-2.25,-0.3,136
-2.25,-0.15,136
-2.25,0.0,136
-2.25,0.15,136
-2.25,0.3,136
-2.25,0.45,136
-2.25,0.6,136
-2.25,0.75,136
-2.25,0.9,136
-2.25,1.05,136
-2.25,1.2,136
-2.25,1.35,136
-2.25,1.5,136
-2.1,-1.5,136
-2.1,-1.35,136
-2.1,-1.2,136
-2.1,-1.05,136
-2.1,-0.9,136
-2.1,-0.75,136
-2.1,-0.6,136
-2.1,-0.45,136
-2.1,-0.3,136
-2.1,-0.15,136
-2.1,0.0,136
-2.1,0.15,136
-2.1,0.3,136
-2.1,0.45,136
-2.1,0.6,136
-2.1,0.75,136
-2.1,0.9,136
-2.1,1.05,136
-2.1,1.2,136
-2.1,1.35,136
-2.1,1.5,136
-1.95,-1.5,136
-1.95,-1.35,136
-1.95,-1.2,136
-1.95,-1.05,136
-1.95,-0.9,136
-1.95,-0.75,136
-1.95,-0.6,136
-1.95,-0.45,136
-1.95,-0.3,136
-1.95,-0.15,136
-1.95,0.0,136
-1.95,0.15,136
-1.95,0.3,136
-1.95,0.45,136
-1.95,0.6,136
-1.95,0.75,136
-1.95,0.9,136
-1.95,1.05,136
-1.95,1.2,136
-1.95,1.35,136
-1.95,1.5,136
-1.8,-1.5,136
-1.8,-1.35,136
-1.8,-1.2,136
-1.8,-1.05,136
-1.8,-0.9,136
-1.8,-0.75,136
-1.8,-0.6,136
-1.8,-0.45,136
-1.8,-0.3,136
-1.8,-0.15,136
-1.8,0.0,136
-1.8,0.15,136
-1.8,0.3,136
-1.8,0.45,136
-1.8,0.6,136
-1.8,0.75,136
-1.8,0.9,136
-1.8,1.05,136
-1.8,1.2,136
-1.8,1.35,136
-1.8,1.5,136
-1.65,-1.5,136
-1.65,-1.35,136
-1.65,-1.2,136
-1.65,-1.05,136
-1.65,-0.9,136
-1.65,-0.75,136
-1.65,-0.6,136
-1.65,-0.45,136
-1.65,-0.3,136
-1.65,-0.15,136
-1.65,0.0,136
-1.65,0.15,136
-1.65,0.3,136
-1.65,0.45,136
-1.65,0.6,136
-1.65,0.75,136
-1.65,0.9,136
-1.65,1.05,136
-1.65,1.2,136
-1.65,1.35,136
-1.65,1.5,136
-1.5,-1.5,136
-1.5,-1.35,136
-1.5,-1.2,136
-1.5,-1.05,136
-1.5,-0.9,136
-1.5,-0.75,136
-1.5,-0.6,136
-1.5,-0.45,136
-1.5,-0.3,136
-1.5,-0.15,136
-1.5,0.0,136
-1.5,0.15,136
-1.5,0.3,136
-1.5,0.45,136
-1.5,0.6,136
-1.5,0.75,136
-1.5,0.9,136
-1.5,1.05,136
-1.5,1.2,136
-1.5,1.35,136
-1.5,1.5,136
-1.35,-1.5,136
-1.35,-1.35,136
-1.35,-1.2,136
-1.35,-1.05,136
-1.35,-0.9,136
-1.35,-0.75,136
-1.35,-0.6,136
-1.35,-0.45,136
-1.35,-0.3,136
-1.35,-0.15,136
-1.35,0.0,136
-1.35,0.15,136
-1.35,0.3,136
-1.35,0.45,136
-1.35,0.6,136
-1.35,0.75,136
-1.35,0.9,136
-1.35,1.05,136
-1.35,1.2,136
-1.35,1.35,136
-1.35,1.5,136
-1.2,-1.5,136
-1.2,-1.35,136
-1.2,-1.2,136
-1.2,-1.05,136
-1.2,-0.9,136
-1.2,-0.75,136
-1.2,-0.6,136
-1.2,-0.45,136
-1.2,-0.3,136
-1.2,-0.15,136
-1.2,0.0,136
-1.2,0.15,136
-1.2,0.3,136
-1.2,0.45,136
-1.2,0.6,136
-1.2,0.75,136
-1.2,0.9,136
-1.2,1.05,136
-1.2,1.2,136
-1.2,1.35,136
-1.2,1.5,136
-1.05,-1.5,136
-1.05,-1.35,136
-1.05,-1.2,136
-1.05,-1.05,136
-1.05,-0.9,136
-1.05,-0.75,136
-1.05,-0.6,136
-1.05,-0.45,136
-1.05,-0.3,136
-1.05,-0.15,136
-1.05,0.0,136
-1.05,0.15,136
-1.05,0.3,136
-1.05,0.45,136
-1.05,0.6,136
-1.05,0.75,136
-1.05,0.9,136
-1.05,1.05,136
-1.05,1.2,136
-1.05,1.35,136
-1.05,1.5,136
-0.9,-1.5,136
-0.9,-1.35,136
-0.9,-1.2,136
-0.9,-1.05,136
-0.9,-0.9,136
-0.9,-0.75,136
-0.9,-0.6,136
-0.9,-0.45,136
-0.9,-0.3,136
-0.9,-0.15,136
-0.9,0.0,136
-0.9,0.15,136
-0.9,0.3,136
-0.9,0.45,136
-0.9,0.6,136
-0.9,0.75,136
-0.9,0.9,136
-0.9,1.05,136
-0.9,1.2,136
-0.9,1.35,136
-0.9,1.5,136
-0.75,-1.5,136
-0.75,-1.35,136
-0.75,-1.2,136
-0.75,-1.05,136
-0.75,-0.9,136
-0.75,-0.75,136
-0.75,-0.6,136
-0.75,-0.45,136
-0.75,-0.3,136
-0.75,-0.15,136
-0.75,0.0,136
-0.75,0.15,136
-0.75,0.3,136
-0.75,0.45,136
-0.75,0.6,136
-0.75,0.75,136
-0.75,0.9,136
-0.75,1.05,136
-0.75,1.2,136
-0.75,1.35,136
-0.75,1.5,136
-0.6,-1.5,137
-0.6,-1.35,137
-0.6,-1.2,136
-0.6,-1.05,136
-0.6,-0.9,136
-0.6,-0.75,136
-0.6,-0.6,136
-0.6,-0.45,136
-0.6,-0.3,136
-0.6,-0.15,136
-0.6,0.0,136
-0.6,0.15,136
-0.6,0.3,136
-0.6,0.45,136
-0.6,0.6,136
-0.6,0.75,136
-0.6,0.9,136
-0.6,1.05,136
-0.6,1.2,136
-0.6,1.35,136
-0.6,1.5,136
-0.45,-1.5,137
-0.45,-1.35,137
-0.45,-1.2,137
-0.45,-1.05,137
-0.45,-0.9,137
-0.45,-0.75,137
-0.45,-0.6,136
-0.45,-0.45,136
-0.45,-0.3,136
-0.45,-0.15,136
-0.45,0.0,136
-0.45,0.15,136
-0.45,0.3,136
-0.45,0.45,136
-0.45,0.6,136
-0.45,0.75,136
-0.45,0.9,136
-0.45,1.05,136
-0.45,1.2,136
-0.45,1.35,136
-0.45,1.5,136
-0.3,-1.5,131
-0.3,-1.35,133
-0.3,-1.2,137
-0.3,-1.05,137
-0.3,-0.9,137
-0.3,-0.75,137
-0.3,-0.6,137
-0.3,-0.45,137
-0.3,-0.3,137
-0.3,-0.15,136
-0.3,0.0,136
-0.3,0.15,136
-0.3,0.3,136
-0.3,0.45,136
-0.3,0.6,136
-0.3,0.75,136
-0.3,0.9,136
-0.3,1.05,136
-0.3,1.2,136
-0.3,1.35,136
-0.3,1.5,136
-0.15,-1.5,126
-0.15,-1.35,129
-0.15,-1.2,135
-0.15,-1.05,137
-0.15,-0.9,137
-0.15,-0.75,137
-0.15,-0.6,137
-0.15,-0.45,137
-0.15,-0.3,137
-0.15,-0.15,137
-0.15,0.0,137
-0.15,0.15,137
-0.15,0.3,137
-0.15,0.45,136
-0.15,0.6,136
-0.15,0.75,136
-0.15,0.9,135
-0.15,1.05,135
-0.15,1.2,135
-0.15,1.35,136
-0.15,1.5,136
0.0,-1.5,114
0.0,-1.35,119
0.0,-1.2,129
0.0,-1.05,134
0.0,-0.9,137
0.0,-0.75,137
0.0,-0.6,137
0.0,-0.45,137
0.0,-0.3,137
0.0,-0.15,137
0.0,0.0,137
0.0,0.15,137
0.0,0.3,137
0.0,0.45,137
0.0,0.6,136
0.0,0.75,136
0.0,0.9,135
0.0,1.05,135
0.0,1.2,135
0.0,1.35,135
0.0,1.5,136
0.15,-1.5,109
0.15,-1.35,114
0.15,-1.2,125
0.15,-1.05,132
0.15,-0.9,137
0.15,-0.75,137
0.15,-0.6,137
0.15,-0.45,137
0.15,-0.3,137
0.15,-0.15,137
0.15,0.0,137
0.15,0.15,137
0.15,0.3,137
0.15,0.45,137
0.15,0.6,137
0.15,0.75,136
0.15,0.9,135
0.15,1.05,135
0.15,1.2,135
0.15,1.35,135
0.15,1.5,136
0.3,-1.5,105
0.3,-1.35,110
0.3,-1.2,119
0.3,-1.05,125
0.3,-0.9,133
0.3,-0.75,136
0.3,-0.6,136
0.3,-0.45,137
0.3,-0.3,137
0.3,-0.15,137
0.3,0.0,137
0.3,0.15,137
0.3,0.3,137
0.3,0.45,137
0.3,0.6,137
0.3,0.75,137
0.3,0.9,135
0.3,1.05,135
0.3,1.2,135
0.3,1.35,135
0.3,1.5,136
0.45,-1.5,107
0.45,-1.35,110
0.45,-1.2,114
0.45,-1.05,119
0.45,-0.9,125
0.45,-0.75,129
0.45,-0.6,130
0.45,-0.45,134
0.45,-0.3,137
0.45,-0.15,137
0.45,0.0,137
0.45,0.15,137
0.45,0.3,137
0.45,0.45,137
0.45,0.6,137
0.45,0.75,137
0.45,0.9,135
0.45,1.05,135
0.45,1.2,135
0.45,1.35,135
0.45,1.5,136
0.6,-1.5,122
0.6,-1.35,120
0.6,-1.2,113
0.6,-1.05,112
0.6,-0.9,110
0.6,-0.75,112
0.6,-0.6,116
0.6,-0.45,123
0.6,-0.3,133
0.6,-0.15,135
0.6,0.0,136
0.6,0.15,137
0.6,0.3,137
0.6,0.45,137
0.6,0.6,137
0.6,0.75,137
0.6,0.9,135
0.6,1.05,135
0.6,1.2,135
0.6,1.35,135
0.6,1.5,135
0.75,-1.5,116
0.75,-1.35,114
0.75,-1.2,107
0.75,-1.05,106
0.75,-0.9,103
0.75,-0.75,106
0.75,-0.6,109
0.75,-0.45,118
0.75,-0.3,130
0.75,-0.15,135
0.75,0.0,137
0.75,0.15,136
0.75,0.3,136
0.75,0.45,137
0.75,0.6,137
0.75,0.75,137
0.75,0.9,135
0.75,1.05,135
0.75,1.2,135
0.75,1.35,135
0.75,1.5,135
0.9,-1.5,95
0.9,-1.35,94
0.9,-1.2,100
0.9,-1.05,103
0.9,-0.9,109
0.9,-0.75,109
0.9,-0.6,108
0.9,-0.45,115
0.9,-0.3,125
0.9,-0.15,137
0.9,0.0,144
0.9,0.15,140
0.9,0.3,135
0.9,0.45,135
0.9,0.6,137
0.9,0.75,137
0.9,0.9,136
0.9,1.05,135
0.9,1.2,135
0.9,1.35,135
0.9,1.5,135
1.05,-1.5,85
1.05,-1.35,85
1.05,-1.2,93
1.05,-1.05,97
1.05,-0.9,102
1.05,-0.75,105
1.05,-0.6,104
1.05,-0.45,113
1.05,-0.3,124
1.05,-0.15,138
1.05,0.0,146
1.05,0.15,143
1.05,0.3,135
1.05,0.45,135
1.05,0.6,136
1.05,0.75,136
1.05,0.9,135
1.05,1.05,135
1.05,1.2,135
1.05,1.35,135
1.05,1.5,135
1.2,-1.5,75
1.2,-1.35,75
1.2,-1.2,80
1.2,-1.05,83
1.2,-0.9,76
1.2,-0.75,81
1.2,-0.6,97
1.2,-0.45,109
1.2,-0.3,122
1.2,-0.15,134
1.2,0.0,135
1.2,0.15,135
1.2,0.3,136
1.2,0.45,136
1.2,0.6,136
1.2,0.75,135
1.2,0.9,135
1.2,1.05,135
1.2,1.2,135
1.2,1.35,135
1.2,1.5,135
1.35,-1.5,75
1.35,-1.35,76
1.35,-1.2,75
1.35,-1.05,76
1.35,-0.9,71
1.35,-0.75,79
1.35,-0.6,101
1.35,-0.45,112
1.35,-0.3,122
1.35,-0.15,135
1.35,0.0,136
1.35,0.15,135
1.35,0.3,136
1.35,0.45,136
1.35,0.6,136
1.35,0.75,136
1.35,0.9,135
1.35,1.05,135
1.35,1.2,135
1.35,1.35,135
1.35,1.5,135
1.5,-1.5,94
1.5,-1.35,97
1.5,-1.2,71
1.5,-1.05,62
1.5,-0.9,73
1.5,-0.75,86
1.5,-0.6,110
1.5,-0.45,120
1.5,-0.3,127
1.5,-0.15,137
1.5,0.0,140
1.5,0.15,135
1.5,0.3,136
1.5,0.45,136
1.5,0.6,136
1.5,0.75,135
1.5,0.9,135
1.5,1.05,135
1.5,1.2,135
1.5,1.35,135
1.5,1.5,135
1.65,-1.5,103
1.65,-1.35,106
1.65,-1.2,79
1.65,-1.05,68
1.65,-0.9,81
1.65,-0.75,94
1.65,-0.6,114
1.65,-0.45,126
1.65,-0.3,143
1.65,-0.15,148
1.65,0.0,141
1.65,0.15,132
1.65,0.3,133
1.65,0.45,135
1.65,0.6,135
1.65,0.75,135
1.65,0.9,135
1.65,1.05,135
1.65,1.2,135
1.65,1.35,135
1.65,1.5,134
1.8,-1.5,118
1.8,-1.35,119
1.8,-1.2,108
1.8,-1.05,105
1.8,-0.9,104
1.8,-0.75,108
1.8,-0.6,127
1.8,-0.45,141
1.8,-0.3,159
1.8,-0.15,154
1.8,0.0,134
1.8,0.15,125
1.8,0.3,130
1.8,0.45,134
1.8,0.6,135
1.8,0.75,135
1.8,0.9,135
1.8,1.05,131
1.8,1.2,115
1.8,1.35,107
1.8,1.5,99
1.95,-1.5,124
1.95,-1.35,125
1.95,-1.2,120
1.95,-1.05,119
1.95,-0.9,115
1.95,-0.75,117
1.95,-0.6,137
1.95,-0.45,145
1.95,-0.3,149
1.95,-0.15,143
1.95,0.0,132
1.95,0.15,128
1.95,0.3,134
1.95,0.45,136
1.95,0.6,135
1.95,0.75,135
1.95,0.9,135
1.95,1.05,127
1.95,1.2,106
1.95,1.35,96
1.95,1.5,84
2.1,-1.5,128
2.1,-1.35,130
2.1,-1.2,130
2.1,-1.05,131
2.1,-0.9,138
2.1,-0.75,139
2.1,-0.6,148
2.1,-0.45,148
2.1,-0.3,146
2.1,-0.15,138
2.1,0.0,133
2.1,0.15,134
2.1,0.3,136
2.1,0.45,136
2.1,0.6,131
2.1,0.75,128
2.1,0.9,123
2.1,1.05,115
2.1,1.2,107
2.1,1.35,97
2.1,1.5,86
2.25,-1.5,135
2.25,-1.35,137
2.25,-1.2,137
2.25,-1.05,138
2.25,-0.9,144
2.25,-0.75,142
2.25,-0.6,145
2.25,-0.45,146
2.25,-0.3,148
2.25,-0.15,140
2.25,0.0,136
2.25,0.15,136
2.25,0.3,136
2.25,0.45,135
2.25,0.6,132
2.25,0.75,129
2.25,0.9,121
2.25,1.05,112
2.25,1.2,108
2.25,1.35,97
2.25,1.5,86
2.4,-1.5,176
2.4,-1.35,170
2.4,-1.2,162
2.4,-1.05,157
2.4,-0.9,153
2.4,-0.75,147
2.4,-0.6,138
2.4,-0.45,137
2.4,-0.3,141
2.4,-0.15,135
2.4,0.0,135
2.4,0.15,135
2.4,0.3,135
2.4,0.45,136
2.4,0.6,139
2.4,0.75,135
2.4,0.9,127
2.4,1.05,117
2.4,1.2,110
2.4,1.35,101
2.4,1.5,93
2.55,-1.5,197
2.55,-1.35,187
2.55,-1.2,172
2.55,-1.05,163
2.55,-0.9,154
2.55,-0.75,147
2.55,-0.6,136
2.55,-0.45,135
2.55,-0.3,135
2.55,-0.15,135
2.55,0.0,135
2.55,0.15,137
2.55,0.3,135
2.55,0.45,137
2.55,0.6,144
2.55,0.75,141
2.55,0.9,131
2.55,1.05,119
2.55,1.2,113
2.55,1.35,106
2.55,1.5,101
2.7,-1.5,202
2.7,-1.35,192
2.7,-1.2,190
2.7,-1.05,181
2.7,-0.9,156
2.7,-0.75,146
2.7,-0.6,141
2.7,-0.45,138
2.7,-0.3,135
2.7,-0.15,135
2.7,0.0,137
2.7,0.15,135
2.7,0.3,137
2.7,0.45,135
2.7,0.6,141
2.7,0.75,142
2.7,0.9,128
2.7,1.05,120
2.7,1.2,124
2.7,1.35,124
2.7,1.5,125
2.85,-1.5,199
2.85,-1.35,190
2.85,-1.2,192
2.85,-1.05,189
2.85,-0.9,157
2.85,-0.75,145
2.85,-0.6,138
2.85,-0.45,135
2.85,-0.3,135
2.85,-0.15,135
2.85,0.0,134
2.85,0.15,135
2.85,0.3,137
2.85,0.45,135
2.85,0.6,140
2.85,0.75,132
2.85,0.9,123
2.85,1.05,122
2.85,1.2,133
2.85,1.35,136
2.85,1.5,140
3.0,-1.5,154
3.0,-1.35,152
3.0,-1.2,174
3.0,-1.05,178
3.0,-0.9,166
3.0,-0.75,152
3.0,-0.6,138
3.0,-0.45,135
3.0,-0.3,135
3.0,-0.15,136
3.0,0.0,136
3.0,0.15,134
3.0,0.3,137
3.0,0.45,137
3.0,0.6,138
3.0,0.75,132
3.0,0.9,130
3.0,1.05,134
3.0,1.2,140
3.0,1.35,144
3.0,1.5,148
3.15,-1.5,131
3.15,-1.35,132
3.15,-1.2,162
3.15,-1.05,172
3.15,-0.9,173
3.15,-0.75,159
3.15,-0.6,139
3.15,-0.45,136
3.15,-0.3,136
3.15,-0.15,136
3.15,0.0,136
3.15,0.15,137
3.15,0.3,134
3.15,0.45,138
3.15,0.6,137
3.15,0.75,136
3.15,0.9,139
3.15,1.05,144
3.15,1.2,148
3.15,1.35,152
3.15,1.5,157
3.3,-1.5,114
3.3,-1.35,118
3.3,-1.2,140
3.3,-1.05,149
3.3,-0.9,164
3.3,-0.75,159
3.3,-0.6,141
3.3,-0.45,135
3.3,-0.3,135
3.3,-0.15,135
3.3,0.0,135
3.3,0.15,137
3.3,0.3,134
3.3,0.45,134
3.3,0.6,127
3.3,0.75,128
3.3,0.9,139
3.3,1.05,152
3.3,1.2,161
3.3,1.35,174
3.3,1.5,188
3.45,-1.5,103
3.45,-1.35,108
3.45,-1.2,125
3.45,-1.05,135
3.45,-0.9,158
3.45,-0.75,160
3.45,-0.6,149
3.45,-0.45,138
3.45,-0.3,135
3.45,-0.15,135
3.45,0.0,135
3.45,0.15,135
3.45,0.3,135
3.45,0.45,136
3.45,0.6,124
3.45,0.75,123
3.45,0.9,137
3.45,1.05,155
3.45,1.2,172
3.45,1.35,192
3.45,1.5,211
3.6,-1.5,115
3.6,-1.35,117
3.6,-1.2,119
3.6,-1.05,124
3.6,-0.9,142
3.6,-0.75,151
3.6,-0.6,155
3.6,-0.45,144
3.6,-0.3,135
3.6,-0.15,139
3.6,0.0,136
3.6,0.15,137
3.6,0.3,136
3.6,0.45,134
3.6,0.6,132
3.6,0.75,132
3.6,0.9,146
3.6,1.05,167
3.6,1.2,183
3.6,1.35,202
3.6,1.5,220
3.75,-1.5,124
3.75,-1.35,123
3.75,-1.2,117
3.75,-1.05,117
3.75,-0.9,129
3.75,-0.75,144
3.75,-0.6,155
3.75,-0.45,152
3.75,-0.3,139
3.75,-0.15,135
3.75,0.0,136
3.75,0.15,137
3.75,0.3,136
3.75,0.45,134
3.75,0.6,134
3.75,0.75,142
3.75,0.9,172
3.75,1.05,188
3.75,1.2,191
3.75,1.35,206
3.75,1.5,221
3.9,-1.5,126
3.9,-1.35,125
3.9,-1.2,119
3.9,-1.05,118
3.9,-0.9,122
3.9,-0.75,131
3.9,-0.6,145
3.9,-0.45,144
3.9,-0.3,141
3.9,-0.15,136
3.9,0.0,137
3.9,0.15,136
3.9,0.3,132
3.9,0.45,123
3.9,0.6,131
3.9,0.75,167
3.9,0.9,207
3.9,1.05,211
3.9,1.2,197
3.9,1.35,208
3.9,1.5,221
4.05,-1.5,127
4.05,-1.35,126
4.05,-1.2,123
4.05,-1.05,120
4.05,-0.9,118
4.05,-0.75,120
4.05,-0.6,131
4.05,-0.45,137
4.05,-0.3,136
4.05,-0.15,137
4.05,0.0,137
4.05,0.15,134
4.05,0.3,136
4.05,0.45,128
4.05,0.6,143
4.05,0.75,182
4.05,0.9,205
4.05,1.05,211
4.05,1.2,200
4.05,1.35,210
4.05,1.5,221
4.2,-1.5,131
4.2,-1.35,129
4.2,-1.2,125
4.2,-1.05,122
4.2,-0.9,118
4.2,-0.75,118
4.2,-0.6,124
4.2,-0.45,132
4.2,-0.3,133
4.2,-0.15,137
4.2,0.0,137
4.2,0.15,134
4.2,0.3,147
4.2,0.45,135
4.2,0.6,144
4.2,0.75,167
4.2,0.9,179
4.2,1.05,197
4.2,1.2,211
4.2,1.35,225
4.2,1.5,237
4.35,-1.5,135
4.35,-1.35,132
4.35,-1.2,127
4.35,-1.05,124
4.35,-0.9,120
4.35,-0.75,118
4.35,-0.6,118
4.35,-0.45,127
4.35,-0.3,137
4.35,-0.15,136
4.35,0.0,137
4.35,0.15,137
4.35,0.3,139
4.35,0.45,135
4.35,0.6,135
4.35,0.75,142
4.35,0.9,160
4.35,1.05,182
4.35,1.2,202
4.35,1.35,218
4.35,1.5,232
4.5,-1.5,135
4.5,-1.35,135
4.5,-1.2,133
4.5,-1.05,129
4.5,-0.9,125
4.5,-0.75,122
4.5,-0.6,121
4.5,-0.45,128
4.5,-0.3,136
4.5,-0.15,136
4.5,0.0,137
4.5,0.15,134
4.5,0.3,136
4.5,0.45,137
4.5,0.6,139
4.5,0.75,137
4.5,0.9,144
4.5,1.05,155
4.5,1.2,173
4.5,1.35,182
4.5,1.5,189
4.65,-1.5,135
4.65,-1.35,134
4.65,-1.2,137
4.65,-1.05,136
4.65,-0.9,131
4.65,-0.75,130
4.65,-0.6,131
4.65,-0.45,133
4.65,-0.3,134
4.65,-0.15,130
4.65,0.0,132
4.65,0.15,134
4.65,0.3,138
4.65,0.45,134
4.65,0.6,144
4.65,0.75,144
4.65,0.9,137
4.65,1.05,136
4.65,1.2,155
4.65,1.35,159
4.65,1.5,163
4.8,-1.5,136
4.8,-1.35,136
4.8,-1.2,137
4.8,-1.05,136
4.8,-0.9,134
4.8,-0.75,134
4.8,-0.6,135
4.8,-0.45,136
4.8,-0.3,134
4.8,-0.15,120
4.8,0.0,138
4.8,0.15,138
4.8,0.3,138
4.8,0.45,134
4.8,0.6,144
4.8,0.75,144
4.8,0.9,130
4.8,1.05,124
4.8,1.2,127
4.8,1.35,121
4.8,1.5,114
4.95,-1.5,137
4.95,-1.35,137
4.95,-1.2,135
4.95,-1.05,134
4.95,-0.9,135
4.95,-0.75,135
4.95,-0.6,134
4.95,-0.45,134
4.95,-0.3,138
4.95,-0.15,138
4.95,0.0,131
4.95,0.15,137
4.95,0.3,134
4.95,0.45,138
4.95,0.6,141
4.95,0.75,144
4.95,0.9,126
4.95,1.05,119
4.95,1.2,105
4.95,1.35,89
4.95,1.5,71
5.1,-1.5,139
5.1,-1.35,139
5.1,-1.2,137
5.1,-1.05,136
5.1,-0.9,137
5.1,-0.75,136
5.1,-0.6,134
5.1,-0.45,134
5.1,-0.3,134
5.1,-0.15,138
5.1,0.0,138
5.1,0.15,135
5.1,0.3,134
5.1,0.45,134
5.1,0.6,131
5.1,0.75,134
5.1,0.9,125
5.1,1.05,116
5.1,1.2,106
5.1,1.35,95
5.1,1.5,85
5.25,-1.5,143
5.25,-1.35,143
5.25,-1.2,139
5.25,-1.05,138
5.25,-0.9,139
5.25,-0.75,138
5.25,-0.6,137
5.25,-0.45,135
5.25,-0.3,135
5.25,-0.15,138
5.25,0.0,135
5.25,0.15,138
5.25,0.3,134
5.25,0.45,133
5.25,0.6,131
5.25,0.75,148
5.25,0.9,136
5.25,1.05,122
5.25,1.2,126
5.25,1.35,122
5.25,1.5,120
5.4,-1.5,144
5.4,-1.35,144
5.4,-1.2,143
5.4,-1.05,142
5.4,-0.9,140
5.4,-0.75,139
5.4,-0.6,137
5.4,-0.45,133
5.4,-0.3,133
5.4,-0.15,138
5.4,0.0,136
5.4,0.15,138
5.4,0.3,137
5.4,0.45,136
5.4,0.6,131
5.4,0.75,152
5.4,0.9,143
5.4,1.05,135
5.4,1.2,139
5.4,1.35,136
5.4,1.5,133
5.55,-1.5,145
5.55,-1.35,145
5.55,-1.2,147
5.55,-1.05,146
5.55,-0.9,141
5.55,-0.75,139
5.55,-0.6,137
5.55,-0.45,133
5.55,-0.3,130
5.55,-0.15,138
5.55,0.0,138
5.55,0.15,135
5.55,0.3,135
5.55,0.45,141
5.55,0.6,130
5.55,0.75,131
5.55,0.9,146
5.55,1.05,146
5.55,1.2,146
5.55,1.35,146
5.55,1.5,144
5.7,-1.5,149
5.7,-1.35,148
5.7,-1.2,148
5.7,-1.05,146
5.7,-0.9,141
5.7,-0.75,139
5.7,-0.6,137
5.7,-0.45,132
5.7,-0.3,127
5.7,-0.15,138
5.7,0.0,138
5.7,0.15,135
5.7,0.3,139
5.7,0.45,138
5.7,0.6,142
5.7,0.75,121
5.7,0.9,125
5.7,1.05,136
5.7,1.2,145
5.7,1.35,142
5.7,1.5,138
5.85,-1.5,153
5.85,-1.35,151
5.85,-1.2,149
5.85,-1.05,146
5.85,-0.9,143
5.85,-0.75,141
5.85,-0.6,140
5.85,-0.45,131
5.85,-0.3,120
5.85,-0.15,136
5.85,0.0,136
5.85,0.15,137
5.85,0.3,132
5.85,0.45,124
5.85,0.6,145
5.85,0.75,123
5.85,0.9,105
5.85,1.05,116
5.85,1.2,137
5.85,1.35,130
5.85,1.5,122
6.0,-1.5,152
6.0,-1.35,150
6.0,-1.2,146
6.0,-1.05,142
6.0,-0.9,136
6.0,-0.75,139
6.0,-0.6,141
6.0,-0.45,130
6.0,-0.3,107
6.0,-0.15,128
6.0,0.0,135
6.0,0.15,133
6.0,0.3,137
6.0,0.45,136
6.0,0.6,135
6.0,0.75,124
6.0,0.9,109
6.0,1.05,110
6.0,1.2,130
6.0,1.35,123
6.0,1.5,115
6.15,-1.5,150
6.15,-1.35,148
6.15,-1.2,140
6.15,-1.05,133
6.15,-0.9,120
6.15,-0.75,129
6.15,-0.6,141
6.15,-0.45,130
6.15,-0.3,139
6.15,-0.15,124
6.15,0.0,137
6.15,0.15,137
6.15,0.3,136
6.15,0.45,135
6.15,0.6,144
6.15,0.75,140
6.15,0.9,120
6.15,1.05,109
6.15,1.2,123
6.15,1.35,114
6.15,1.5,105
6.3,-1.5,150
6.3,-1.35,148
6.3,-1.2,141
6.3,-1.05,134
6.3,-0.9,124
6.3,-0.75,132
6.3,-0.6,144
6.3,-0.45,141
6.3,-0.3,146
6.3,-0.15,136
6.3,0.0,135
6.3,0.15,135
6.3,0.3,135
6.3,0.45,135
6.3,0.6,149
6.3,0.75,145
6.3,0.9,131
6.3,1.05,118
6.3,1.2,121
6.3,1.35,113
6.3,1.5,106
6.45,-1.5,150
6.45,-1.35,149
6.45,-1.2,149
6.45,-1.05,141
6.45,-0.9,133
6.45,-0.75,138
6.45,-0.6,185
6.45,-0.45,198
6.45,-0.3,152
6.45,-0.15,136
6.45,0.0,138
6.45,0.15,136
6.45,0.3,135
6.45,0.45,141
6.45,0.6,135
6.45,0.75,137
6.45,0.9,133
6.45,1.05,121
6.45,1.2,119
6.45,1.35,113
6.45,1.5,107
6.6,-1.5,123
6.6,-1.35,125
6.6,-1.2,136
6.6,-1.05,134
6.6,-0.9,117
6.6,-0.75,122
6.6,-0.6,175
6.6,-0.45,177
6.6,-0.3,135
6.6,-0.15,141
6.6,0.0,134
6.6,0.15,135
6.6,0.3,135
6.6,0.45,140
6.6,0.6,140
6.6,0.75,140
6.6,0.9,136
6.6,1.05,125
6.6,1.2,120
6.6,1.35,114
6.6,1.5,109
6.75,-1.5,70
6.75,-1.35,79
6.75,-1.2,108
6.75,-1.05,117
6.75,-0.9,105
6.75,-0.75,106
6.75,-0.6,124
6.75,-0.45,134
6.75,-0.3,130
6.75,-0.15,135
6.75,0.0,133
6.75,0.15,135
6.75,0.3,124
6.75,0.45,135
6.75,0.6,135
6.75,0.75,138
6.75,0.9,137
6.75,1.05,130
6.75,1.2,124
6.75,1.35,118
6.75,1.5,114
6.9,-1.5,89
6.9,-1.35,92
6.9,-1.2,91
6.9,-1.05,94
6.9,-0.9,128
6.9,-0.75,123
6.9,-0.6,89
6.9,-0.45,114
6.9,-0.3,132
6.9,-0.15,136
6.9,0.0,135
6.9,0.15,133
6.9,0.3,129
6.9,0.45,136
6.9,0.6,136
6.9,0.75,138
6.9,0.9,137
6.9,1.05,135
6.9,1.2,134
6.9,1.35,131
6.9,1.5,129
7.05,-1.5,140
7.05,-1.35,132
7.05,-1.2,70
7.05,-1.05,63
7.05,-0.9,145
7.05,-0.75,142
7.05,-0.6,102
7.05,-0.45,120
7.05,-0.3,122
7.05,-0.15,136
7.05,0.0,136
7.05,0.15,133
7.05,0.3,136
7.05,0.45,136
7.05,0.6,135
7.05,0.75,135
7.05,0.9,135
7.05,1.05,143
7.05,1.2,158
7.05,1.35,161
7.05,1.5,162
7.2,-1.5,110
7.2,-1.35,110
7.2,-1.2,104
7.2,-1.05,107
7.2,-0.9,137
7.2,-0.75,137
7.2,-0.6,122
7.2,-0.45,134
7.2,-0.3,120
7.2,-0.15,136
7.2,0.0,133
7.2,0.15,136
7.2,0.3,136
7.2,0.45,136
7.2,0.6,135
7.2,0.75,135
7.2,0.9,138
7.2,1.05,151
7.2,1.2,168
7.2,1.35,168
7.2,1.5,168
7.35,-1.5,39
7.35,-1.35,58
7.35,-1.2,159
7.35,-1.05,181
7.35,-0.9,122
7.35,-0.75,121
7.35,-0.6,134
7.35,-0.45,132
7.35,-0.3,132
7.35,-0.15,136
7.35,0.0,133
7.35,0.15,135
7.35,0.3,134
7.35,0.45,135
7.35,0.6,135
7.35,0.75,146
7.35,0.9,160
7.35,1.05,169
7.35,1.2,166
7.35,1.35,162
7.35,1.5,156
7.5,-1.5,68
7.5,-1.35,82
7.5,-1.2,148
7.5,-1.05,161
7.5,-0.9,122
7.5,-0.75,121
7.5,-0.6,134
7.5,-0.45,133
7.5,-0.3,136
7.5,-0.15,133
7.5,0.0,135
7.5,0.15,133
7.5,0.3,137
7.5,0.45,134
7.5,0.6,134
7.5,0.75,148
7.5,0.9,163
7.5,1.05,170
7.5,1.2,170
7.5,1.35,171
7.5,1.5,172
7.65,-1.5,132
7.65,-1.35,132
7.65,-1.2,117
7.65,-1.05,117
7.65,-0.9,132
7.65,-0.75,130
7.65,-0.6,120
7.65,-0.45,126
7.65,-0.3,110
7.65,-0.15,136
7.65,0.0,135
7.65,0.15,137
7.65,0.3,137
7.65,0.45,135
7.65,0.6,140
7.65,0.75,132
7.65,0.9,139
7.65,1.05,158
7.65,1.2,199
7.65,1.35,217
7.65,1.5,232
7.8,-1.5,141
7.8,-1.35,139
7.8,-1.2,128
7.8,-1.05,125
7.8,-0.9,135
7.8,-0.75,130
7.8,-0.6,113
7.8,-0.45,125
7.8,-0.3,111
7.8,-0.15,135
7.8,0.0,135
7.8,0.15,137
7.8,0.3,135
7.8,0.45,138
7.8,0.6,138
7.8,0.75,122
7.8,0.9,108
7.8,1.05,139
7.8,1.2,218
7.8,1.35,248
7.8,1.5,255
7.95,-1.5,144
7.95,-1.35,142
7.95,-1.2,160
7.95,-1.05,163
7.95,-0.9,132
7.95,-0.75,125
7.95,-0.6,117
7.95,-0.45,128
7.95,-0.3,136
7.95,-0.15,135
7.95,0.0,135
7.95,0.15,136
7.95,0.3,139
7.95,0.45,136
7.95,0.6,141
7.95,0.75,133
7.95,0.9,126
7.95,1.05,160
7.95,1.2,255
7.95,1.35,255
7.95,1.5,255
8.1,-1.5,147
8.1,-1.35,144
8.1,-1.2,160
8.1,-1.05,163
8.1,-0.9,137
8.1,-0.75,131
8.1,-0.6,127
8.1,-0.45,136
8.1,-0.3,141
8.1,-0.15,135
8.1,0.0,134
8.1,0.15,137
8.1,0.3,136
8.1,0.45,139
8.1,0.6,133
8.1,0.75,141
8.1,0.9,156
8.1,1.05,194
8.1,1.2,255
8.1,1.35,255
8.1,1.5,255
8.25,-1.5,150
8.25,-1.35,147
8.25,-1.2,145
8.25,-1.05,144
8.25,-0.9,149
8.25,-0.75,145
8.25,-0.6,134
8.25,-0.45,135
8.25,-0.3,148
8.25,-0.15,138
8.25,0.0,136
8.25,0.15,134
8.25,0.3,142
8.25,0.45,149
8.25,0.6,136
8.25,0.75,169
8.25,0.9,221
8.25,1.05,252
8.25,1.2,250
8.25,1.35,247
8.25,1.5,241
8.4,-1.5,152
8.4,-1.35,150
8.4,-1.2,145
8.4,-1.05,144
8.4,-0.9,151
8.4,-0.75,144
8.4,-0.6,128
8.4,-0.45,134
8.4,-0.3,153
8.4,-0.15,127
8.4,0.0,133
8.4,0.15,135
8.4,0.3,135
8.4,0.45,139
8.4,0.6,137
8.4,0.75,192
8.4,0.9,252
8.4,1.05,252
8.4,1.2,252
8.4,1.35,249
8.4,1.5,238
8.55,-1.5,152
8.55,-1.35,150
8.55,-1.2,147
8.55,-1.05,154
8.55,-0.9,157
8.55,-0.75,150
8.55,-0.6,128
8.55,-0.45,124
8.55,-0.3,135
8.55,-0.15,137
8.55,0.0,143
8.55,0.15,138
8.55,0.3,140
8.55,0.45,135
8.55,0.6,137
8.55,0.75,171
8.55,0.9,228
8.55,1.05,252
8.55,1.2,252
8.55,1.35,252
8.55,1.5,252
8.7,-1.5,157
8.7,-1.35,155
8.7,-1.2,161
8.7,-1.05,172
8.7,-0.9,176
8.7,-0.75,171
8.7,-0.6,148
8.7,-0.45,132
8.7,-0.3,140
8.7,-0.15,135
8.7,0.0,135
8.7,0.15,147
8.7,0.3,135
8.7,0.45,136
8.7,0.6,139
8.7,0.75,152
8.7,0.9,182
8.7,1.05,213
8.7,1.2,233
8.7,1.35,244
8.7,1.5,249
8.85,-1.5,163
8.85,-1.35,160
8.85,-1.2,186
8.85,-1.05,199
8.85,-0.9,187
8.85,-0.75,180
8.85,-0.6,167
8.85,-0.45,140
8.85,-0.3,132
8.85,-0.15,137
8.85,0.0,135
8.85,0.15,139
8.85,0.3,139
8.85,0.45,136
8.85,0.6,134
8.85,0.75,139
8.85,0.9,151
8.85,1.05,170
8.85,1.2,203
8.85,1.35,219
8.85,1.5,229
9.0,-1.5,166
9.0,-1.35,163
9.0,-1.2,193
9.0,-1.05,205
9.0,-0.9,192
9.0,-0.75,180
9.0,-0.6,159
9.0,-0.45,135
9.0,-0.3,132
9.0,-0.15,136
9.0,0.0,135
9.0,0.15,136
9.0,0.3,142
9.0,0.45,148
9.0,0.6,133
9.0,0.75,131
9.0,0.9,143
9.0,1.05,149
9.0,1.2,167
9.0,1.35,180
9.0,1.5,190
9.15,-1.5,169
9.15,-1.35,166
9.15,-1.2,180
9.15,-1.05,189
9.15,-0.9,199
9.15,-0.75,179
9.15,-0.6,145
9.15,-0.45,138
9.15,-0.3,139
9.15,-0.15,136
9.15,0.0,135
9.15,0.15,142
9.15,0.3,137
9.15,0.45,139
9.15,0.6,136
9.15,0.75,134
9.15,0.9,128
9.15,1.05,125
9.15,1.2,137
9.15,1.35,142
9.15,1.5,147
9.3,-1.5,177
9.3,-1.35,173
9.3,-1.2,184
9.3,-1.05,187
9.3,-0.9,185
9.3,-0.75,167
9.3,-0.6,145
9.3,-0.45,137
9.3,-0.3,136
9.3,-0.15,140
9.3,0.0,135
9.3,0.15,137
9.3,0.3,138
9.3,0.45,135
9.3,0.6,137
9.3,0.75,138
9.3,0.9,129
9.3,1.05,120
9.3,1.2,127
9.3,1.35,129
9.3,1.5,132
9.45,-1.5,204
9.45,-1.35,195
9.45,-1.2,214
9.45,-1.05,208
9.45,-0.9,167
9.45,-0.75,150
9.45,-0.6,144
9.45,-0.45,137
9.45,-0.3,137
9.45,-0.15,140
9.45,0.0,140
9.45,0.15,135
9.45,0.3,134
9.45,0.45,138
9.45,0.6,138
9.45,0.75,136
9.45,0.9,129
9.45,1.05,123
9.45,1.2,119
9.45,1.35,116
9.45,1.5,113
9.6,-1.5,184
9.6,-1.35,178
9.6,-1.2,197
9.6,-1.05,191
9.6,-0.9,156
9.6,-0.75,140
9.6,-0.6,132
9.6,-0.45,134
9.6,-0.3,139
9.6,-0.15,140
9.6,0.0,140
9.6,0.15,134
9.6,0.3,144
9.6,0.45,131
9.6,0.6,135
9.6,0.75,138
9.6,0.9,129
9.6,1.05,125
9.6,1.2,122
9.6,1.35,118
9.6,1.5,114
9.75,-1.5,32
9.75,-1.35,54
9.75,-1.2,106
9.75,-1.05,132
9.75,-0.9,139
9.75,-0.75,133
9.75,-0.6,132
9.75,-0.45,134
9.75,-0.3,140
9.75,-0.15,135
9.75,0.0,140
9.75,0.15,134
9.75,0.3,147
9.75,0.45,123
9.75,0.6,119
9.75,0.75,137
9.75,0.9,130
9.75,1.05,123
9.75,1.2,128
9.75,1.35,126
9.75,1.5,124
9.9,-1.5,0
9.9,-1.35,2
9.9,-1.2,72
9.9,-1.05,112
9.9,-0.9,129
9.9,-0.75,132
9.9,-0.6,136
9.9,-0.45,140
9.9,-0.3,140
9.9,-0.15,136
9.9,0.0,135
9.9,0.15,146
9.9,0.3,136
9.9,0.45,131
9.9,0.6,130
9.9,0.75,137
9.9,0.9,137
9.9,1.05,129
9.9,1.2,129
9.9,1.35,126
9.9,1.5,122
10.05,-1.5,0
10.05,-1.35,0
10.05,-1.2,73
10.05,-1.05,114
10.05,-0.9,106
10.05,-0.75,121
10.05,-0.6,136
10.05,-0.45,136
10.05,-0.3,137
10.05,-0.15,136
10.05,0.0,135
10.05,0.15,139
10.05,0.3,140
10.05,0.45,140
10.05,0.6,137
10.05,0.75,139
10.05,0.9,147
10.05,1.05,146
10.05,1.2,119
10.05,1.35,106
10.05,1.5,94
10.2,-1.5,0
10.2,-1.35,0
10.2,-1.2,63
10.2,-1.05,105
10.2,-0.9,95
10.2,-0.75,114
10.2,-0.6,131
10.2,-0.45,132
10.2,-0.3,137
10.2,-0.15,136
10.2,0.0,135
10.2,0.15,135
10.2,0.3,138
10.2,0.45,140
10.2,0.6,137
10.2,0.75,137
10.2,0.9,147
10.2,1.05,147
10.2,1.2,123
10.2,1.35,111
10.2,1.5,97
10.35,-1.5,0
10.35,-1.35,0
10.35,-1.2,47
10.35,-1.05,87
10.35,-0.9,90
10.35,-0.75,103
10.35,-0.6,114
10.35,-0.45,130
10.35,-0.3,139
10.35,-0.15,137
10.35,0.0,135
10.35,0.15,135
10.35,0.3,137
10.35,0.45,139
10.35,0.6,135
10.35,0.75,137
10.35,0.9,141
10.35,1.05,146
10.35,1.2,149
10.35,1.35,149
10.35,1.5,146
10.5,-1.5,0
10.5,-1.35,0
10.5,-1.2,49
10.5,-1.05,79
10.5,-0.9,79
10.5,-0.75,83
10.5,-0.6,90
10.5,-0.45,132
10.5,-0.3,153
10.5,-0.15,139
10.5,0.0,135
10.5,0.15,138
10.5,0.3,135
10.5,0.45,135
10.5,0.6,135
10.5,0.75,137
10.5,0.9,139
10.5,1.05,143
10.5,1.2,150
10.5,1.35,153
10.5,1.5,154
10.65,-1.5,0
10.65,-1.35,0
10.65,-1.2,57
10.65,-1.05,82
10.65,-0.9,73
10.65,-0.75,71
10.65,-0.6,70
10.65,-0.45,117
10.65,-0.3,150
10.65,-0.15,139
10.65,0.0,138
10.65,0.15,138
10.65,0.3,138
10.65,0.45,137
10.65,0.6,136
10.65,0.75,136
10.65,0.9,135
10.65,1.05,135
10.65,1.2,134
10.65,1.35,133
10.65,1.5,131
10.8,-1.5,9
10.8,-1.35,22
10.8,-1.2,70
10.8,-1.05,88
10.8,-0.9,80
10.8,-0.75,83
10.8,-0.6,93
10.8,-0.45,122
10.8,-0.3,135
10.8,-0.15,135
10.8,0.0,137
10.8,0.15,138
10.8,0.3,138
10.8,0.45,138
10.8,0.6,138
10.8,0.75,136
10.8,0.9,132
10.8,1.05,130
10.8,1.2,129
10.8,1.35,126
10.8,1.5,123
10.95,-1.5,93
10.95,-1.35,93
10.95,-1.2,94
10.95,-1.05,94
10.95,-0.9,84
10.95,-0.75,100
10.95,-0.6,129
10.95,-0.45,141
10.95,-0.3,141
10.95,-0.15,138
10.95,0.0,134
10.95,0.15,131
10.95,0.3,115
10.95,0.45,117
10.95,0.6,127
10.95,0.75,136
10.95,0.9,131
10.95,1.05,126
10.95,1.2,126
10.95,1.35,123
10.95,1.5,120
11.1,-1.5,123
11.1,-1.35,123
11.1,-1.2,112
11.1,-1.05,109
11.1,-0.9,105
11.1,-0.75,118
11.1,-0.6,132
11.1,-0.45,139
11.1,-0.3,141
11.1,-0.15,140
11.1,0.0,133
11.1,0.15,125
11.1,0.3,95
11.1,0.45,104
11.1,0.6,126
11.1,0.75,138
11.1,0.9,130
11.1,1.05,124
11.1,1.2,124
11.1,1.35,121
11.1,1.5,120
11.25,-1.5,122
11.25,-1.35,123
11.25,-1.2,110
11.25,-1.05,114
11.25,-0.9,130
11.25,-0.75,132
11.25,-0.6,131
11.25,-0.45,136
11.25,-0.3,141
11.25,-0.15,136
11.25,0.0,136
11.25,0.15,134
11.25,0.3,101
11.25,0.45,117
11.25,0.6,138
11.25,0.75,138
11.25,0.9,125
11.25,1.05,119
11.25,1.2,124
11.25,1.35,121
11.25,1.5,120
11.4,-1.5,122
11.4,-1.35,128
11.4,-1.2,118
11.4,-1.05,127
11.4,-0.9,138
11.4,-0.75,135
11.4,-0.6,136
11.4,-0.45,142
11.4,-0.3,141
11.4,-0.15,135
11.4,0.0,150
11.4,0.15,169
11.4,0.3,145
11.4,0.45,143
11.4,0.6,142
11.4,0.75,132
11.4,0.9,117
11.4,1.05,113
11.4,1.2,123
11.4,1.35,122
11.4,1.5,120
11.55,-1.5,99
11.55,-1.35,115
11.55,-1.2,134
11.55,-1.05,141
11.55,-0.9,142
11.55,-0.75,143
11.55,-0.6,144
11.55,-0.45,144
11.55,-0.3,137
11.55,-0.15,135
11.55,0.0,146
11.55,0.15,170
11.55,0.3,152
11.55,0.45,124
11.55,0.6,139
11.55,0.75,135
11.55,0.9,116
11.55,1.05,110
11.55,1.2,113
11.55,1.35,108
11.55,1.5,103
11.7,-1.5,94
11.7,-1.35,113
11.7,-1.2,140
11.7,-1.05,145
11.7,-0.9,144
11.7,-0.75,146
11.7,-0.6,146
11.7,-0.45,142
11.7,-0.3,135
11.7,-0.15,134
11.7,0.0,134
11.7,0.15,144
11.7,0.3,136
11.7,0.45,125
11.7,0.6,139
11.7,0.75,139
11.7,0.9,114
11.7,1.05,105
11.7,1.2,104
11.7,1.35,96
11.7,1.5,89
11.85,-1.5,129
11.85,-1.35,135
11.85,-1.2,142
11.85,-1.05,144
11.85,-0.9,151
11.85,-0.75,150
11.85,-0.6,143
11.85,-0.45,139
11.85,-0.3,134
11.85,-0.15,134
11.85,0.0,134
11.85,0.15,139
11.85,0.3,140
11.85,0.45,138
11.85,0.6,134
11.85,0.75,128
11.85,0.9,117
11.85,1.05,101
11.85,1.2,90
11.85,1.35,80
11.85,1.5,70
12.0,-1.5,143
12.0,-1.35,143
12.0,-1.2,143
12.0,-1.05,143
12.0,-0.9,153
12.0,-0.75,151
12.0,-0.6,142
12.0,-0.45,138
12.0,-0.3,134
12.0,-0.15,134
12.0,0.0,134
12.0,0.15,142
12.0,0.3,147
12.0,0.45,145
12.0,0.6,137
12.0,0.75,125
12.0,0.9,115
12.0,1.05,97
12.0,1.2,79
12.0,1.35,66
12.0,1.5,54
12.15,-1.5,141
12.15,-1.35,141
12.15,-1.2,142
12.15,-1.05,143
12.15,-0.9,147
12.15,-0.75,145
12.15,-0.6,140
12.15,-0.45,136
12.15,-0.3,136
12.15,-0.15,136
12.15,0.0,132
12.15,0.15,133
12.15,0.3,144
12.15,0.45,148
12.15,0.6,142
12.15,0.75,128
12.15,0.9,117
12.15,1.05,107
12.15,1.2,98
12.15,1.35,89
12.15,1.5,81
12.3,-1.5,140
12.3,-1.35,140
12.3,-1.2,141
12.3,-1.05,142
12.3,-0.9,143
12.3,-0.75,142
12.3,-0.6,141
12.3,-0.45,136
12.3,-0.3,136
12.3,-0.15,136
12.3,0.0,133
12.3,0.15,131
12.3,0.3,134
12.3,0.45,138
12.3,0.6,133
12.3,0.75,124
12.3,0.9,120
12.3,1.05,118
12.3,1.2,115
12.3,1.35,113
12.3,1.5,110
12.45,-1.5,140
12.45,-1.35,140
12.45,-1.2,141
12.45,-1.05,141
12.45,-0.9,143
12.45,-0.75,143
12.45,-0.6,142
12.45,-0.45,139
12.45,-0.3,134
12.45,-0.15,132
12.45,0.0,132
12.45,0.15,131
12.45,0.3,131
12.45,0.45,130
12.45,0.6,123
12.45,0.75,118
12.45,0.9,118
12.45,1.05,117
12.45,1.2,116
12.45,1.35,116
12.45,1.5,117
12.6,-1.5,140
12.6,-1.35,140
12.6,-1.2,139
12.6,-1.05,140
12.6,-0.9,143
12.6,-0.75,143
12.6,-0.6,143
12.6,-0.45,142
12.6,-0.3,140
12.6,-0.15,138
12.6,0.0,138
12.6,0.15,137
12.6,0.3,133
12.6,0.45,127
12.6,0.6,120
12.6,0.75,118
12.6,0.9,119
12.6,1.05,118
12.6,1.2,118
12.6,1.35,120
12.6,1.5,122
12.75,-1.5,138
12.75,-1.35,138
12.75,-1.2,140
12.75,-1.05,141
12.75,-0.9,140
12.75,-0.75,141
12.75,-0.6,141
12.75,-0.45,140
12.75,-0.3,138
12.75,-0.15,138
12.75,0.0,138
12.75,0.15,136
12.75,0.3,133
12.75,0.45,130
12.75,0.6,123
12.75,0.75,120
12.75,0.9,122
12.75,1.05,121
12.75,1.2,122
12.75,1.35,125
12.75,1.5,127
12.9,-1.5,136
12.9,-1.35,136
12.9,-1.2,137
12.9,-1.05,138
12.9,-0.9,134
12.9,-0.75,134
12.9,-0.6,135
12.9,-0.45,132
12.9,-0.3,131
12.9,-0.15,131
12.9,0.0,131
12.9,0.15,130
12.9,0.3,129
12.9,0.45,130
12.9,0.6,127
12.9,0.75,127
12.9,0.9,129
12.9,1.05,128
12.9,1.2,127
12.9,1.35,129
12.9,1.5,131
13.05,-1.5,134
13.05,-1.35,134
13.05,-1.2,133
13.05,-1.05,131
13.05,-0.9,127
13.05,-0.75,127
13.05,-0.6,127
13.05,-0.45,127
13.05,-0.3,127
13.05,-0.15,127
13.05,0.0,127
13.05,0.15,127
13.05,0.3,127
13.05,0.45,127
13.05,0.6,127
13.05,0.75,130
13.05,0.9,132
13.05,1.05,132
13.05,1.2,132
13.05,1.35,134
13.05,1.5,136
