-3.0,-1.5,108
-3.0,-1.35,108
-3.0,-1.2,108
-3.0,-1.05,108
-3.0,-0.9,108
-3.0,-0.75,108
-3.0,-0.6,108
-3.0,-0.45,108
-3.0,-0.3,108
-3.0,-0.15,107
-3.0,0.0,107
-3.0,0.15,107
-3.0,0.3,107
-3.0,0.45,107
-3.0,0.6,107
-3.0,0.75,107
-3.0,0.9,107
-3.0,1.05,106
-3.0,1.2,106
-3.0,1.35,106
-3.0,1.5,106
-2.85,-1.5,108
-2.85,-1.35,108
-2.85,-1.2,108
-2.85,-1.05,109
-2.85,-0.9,110
-2.85,-0.75,110
-2.85,-0.6,110
-2.85,-0.45,109
-2.85,-0.3,109
-2.85,-0.15,108
-2.85,0.0,107
-2.85,0.15,107
-2.85,0.3,107
-2.85,0.45,107
-2.85,0.6,107
-2.85,0.75,107
-2.85,0.9,107
-2.85,1.05,106
-2.85,1.2,106
-2.85,1.35,106
-2.85,1.5,106
-2.7,-1.5,110
-2.7,-1.35,110
-2.7,-1.2,110
-2.7,-1.05,111
-2.7,-0.9,111
-2.7,-0.75,111
-2.7,-0.6,111
-2.7,-0.45,110
-2.7,-0.3,109
-2.7,-0.15,108
-2.7,0.0,108
-2.7,0.15,107
-2.7,0.3,107
-2.7,0.45,107
-2.7,0.6,107
-2.7,0.75,107
-2.7,0.9,107
-2.7,1.05,107
-2.7,1.2,106
-2.7,1.35,106
-2.7,1.5,106
-2.55,-1.5,112
-2.55,-1.35,112
-2.55,-1.2,113
-2.55,-1.05,113
-2.55,-0.9,113
-2.55,-0.75,113
-2.55,-0.6,112
-2.55,-0.45,111
-2.55,-0.3,110
-2.55,-0.15,109
-2.55,0.0,108
-2.55,0.15,107
-2.55,0.3,107
-2.55,0.45,107
-2.55,0.6,107
-2.55,0.75,107
-2.55,0.9,107
-2.55,1.05,107
-2.55,1.2,107
-2.55,1.35,107
-2.55,1.5,106
-2.4,-1.5,114
-2.4,-1.35,114
-2.4,-1.2,114
-2.4,-1.05,114
-2.4,-0.9,114
-2.4,-0.75,114
-2.4,-0.6,113
-2.4,-0.45,112
-2.4,-0.3,110
-2.4,-0.15,109
-2.4,0.0,108
-2.4,0.15,107
-2.4,0.3,107
-2.4,0.45,107
-2.4,0.6,107
-2.4,0.75,107
-2.4,0.9,107
-2.4,1.05,107
-2.4,1.2,107
-2.4,1.35,107
-2.4,1.5,106
-2.25,-1.5,114
-2.25,-1.35,114
-2.25,-1.2,114
-2.25,-1.05,114
-2.25,-0.9,114
-2.25,-0.75,114
-2.25,-0.6,114
-2.25,-0.45,112
-2.25,-0.3,110
-2.25,-0.15,108
-2.25,0.0,107
-2.25,0.15,107
-2.25,0.3,107
-2.25,0.45,107
-2.25,0.6,107
-2.25,0.75,107
-2.25,0.9,107
-2.25,1.05,107
-2.25,1.2,106
-2.25,1.35,106
-2.25,1.5,105
-2.1,-1.5,114
-2.1,-1.35,114
-2.1,-1.2,114
-2.1,-1.05,114
-2.1,-0.9,114
-2.1,-0.75,114
-2.1,-0.6,113
-2.1,-0.45,111
-2.1,-0.3,110
-2.1,-0.15,108
-2.1,0.0,107
-2.1,0.15,107
-2.1,0.3,107
-2.1,0.45,107
-2.1,0.6,107
-2.1,0.75,107
-2.1,0.9,107
-2.1,1.05,107
-2.1,1.2,102
-2.1,1.35,99
-2.1,1.5,96
-1.95,-1.5,114
-1.95,-1.35,114
-1.95,-1.2,114
-1.95,-1.05,114
-1.95,-0.9,114
-1.95,-0.75,113
-1.95,-0.6,112
-1.95,-0.45,110
-1.95,-0.3,109
-1.95,-0.15,108
-1.95,0.0,107
-1.95,0.15,107
-1.95,0.3,107
-1.95,0.45,107
-1.95,0.6,107
-1.95,0.75,107
-1.95,0.9,107
-1.95,1.05,106
-1.95,1.2,95
-1.95,1.35,88
-1.95,1.5,83
-1.8,-1.5,67
-1.8,-1.35,80
-1.8,-1.2,98
-1.8,-1.05,111
-1.8,-0.9,114
-1.8,-0.75,114
-1.8,-0.6,111
-1.8,-0.45,109
-1.8,-0.3,108
-1.8,-0.15,107
-1.8,0.0,107
-1.8,0.15,107
-1.8,0.3,107
-1.8,0.45,107
-1.8,0.6,107
-1.8,0.75,107
-1.8,0.9,103
-1.8,1.05,99
-1.8,1.2,88
-1.8,1.35,82
-1.8,1.5,77
-1.65,-1.5,61
-1.65,-1.35,74
-1.65,-1.2,88
-1.65,-1.05,106
-1.65,-0.9,114
-1.65,-0.75,114
-1.65,-0.6,112
-1.65,-0.45,109
-1.65,-0.3,108
-1.65,-0.15,107
-1.65,0.0,107
-1.65,0.15,107
-1.65,0.3,107
-1.65,0.45,107
-1.65,0.6,107
-1.65,0.75,107
-1.65,0.9,98
-1.65,1.05,90
-1.65,1.2,80
-1.65,1.35,75
-1.65,1.5,70
-1.5,-1.5,140
-1.5,-1.35,125
-1.5,-1.2,78
-1.5,-1.05,91
-1.5,-0.9,101
-1.5,-0.75,114
-1.5,-0.6,113
-1.5,-0.45,110
-1.5,-0.3,108
-1.5,-0.15,107
-1.5,0.0,107
-1.5,0.15,107
-1.5,0.3,107
-1.5,0.45,107
-1.5,0.6,107
-1.5,0.75,97
-1.5,0.9,88
-1.5,1.05,77
-1.5,1.2,69
-1.5,1.35,64
-1.5,1.5,59
-1.35,-1.5,153
-1.35,-1.35,138
-1.35,-1.2,97
-1.35,-1.05,103
-1.35,-0.9,108
-1.35,-0.75,116
-1.35,-0.6,114
-1.35,-0.45,111
-1.35,-0.3,108
-1.35,-0.15,106
-1.35,0.0,106
-1.35,0.15,106
-1.35,0.3,107
-1.35,0.45,105
-1.35,0.6,101
-1.35,0.75,89
-1.35,0.9,79
-1.35,1.05,70
-1.35,1.2,62
-1.35,1.35,57
-1.35,1.5,53
-1.2,-1.5,157
-1.2,-1.35,150
-1.2,-1.2,140
-1.2,-1.05,135
-1.2,-0.9,130
-1.2,-0.75,121
-1.2,-0.6,116
-1.2,-0.45,114
-1.2,-0.3,109
-1.2,-0.15,103
-1.2,0.0,103
-1.2,0.15,103
-1.2,0.3,103
-1.2,0.45,98
-1.2,0.6,91
-1.2,0.75,79
-1.2,0.9,70
-1.2,1.05,64
-1.2,1.2,53
-1.2,1.35,49
-1.2,1.5,46
-1.05,-1.5,147
-1.05,-1.35,143
-1.05,-1.2,138
-1.05,-1.05,137
-1.05,-0.9,133
-1.05,-0.75,126
-1.05,-0.6,120
-1.05,-0.45,116
-1.05,-0.3,110
-1.05,-0.15,106
-1.05,0.0,105
-1.05,0.15,106
-1.05,0.3,103
-1.05,0.45,90
-1.05,0.6,70
-1.05,0.75,29
-1.05,0.9,7
-1.05,1.05,0
-1.05,1.2,29
-1.05,1.35,35
-1.05,1.5,31
-0.9,-1.5,137
-0.9,-1.35,136
-0.9,-1.2,135
-0.9,-1.05,137
-0.9,-0.9,135
-0.9,-0.75,127
-0.9,-0.6,120
-0.9,-0.45,113
-0.9,-0.3,110
-0.9,-0.15,112
-0.9,0.0,117
-0.9,0.15,119
-0.9,0.3,113
-0.9,0.45,90
-0.9,0.6,64
-0.9,0.75,15
-0.9,0.9,0
-0.9,1.05,0
-0.9,1.2,20
-0.9,1.35,31
-0.9,1.5,31
-0.75,-1.5,125
-0.75,-1.35,128
-0.75,-1.2,135
-0.75,-1.05,137
-0.75,-0.9,135
-0.75,-0.75,124
-0.75,-0.6,114
-0.75,-0.45,110
-0.75,-0.3,110
-0.75,-0.15,127
-0.75,0.0,141
-0.75,0.15,138
-0.75,0.3,120
-0.75,0.45,89
-0.75,0.6,56
-0.75,0.75,23
-0.75,0.9,0
-0.75,1.05,0
-0.75,1.2,67
-0.75,1.35,88
-0.75,1.5,88
-0.6,-1.5,123
-0.6,-1.35,125
-0.6,-1.2,132
-0.6,-1.05,137
-0.6,-0.9,136
-0.6,-0.75,123
-0.6,-0.6,111
-0.6,-0.45,110
-0.6,-0.3,116
-0.6,-0.15,143
-0.6,0.0,159
-0.6,0.15,148
-0.6,0.3,123
-0.6,0.45,92
-0.6,0.6,60
-0.6,0.75,28
-0.6,0.9,12
-0.6,1.05,6
-0.6,1.2,84
-0.6,1.35,101
-0.6,1.5,102
-0.45,-1.5,124
-0.45,-1.35,123
-0.45,-1.2,121
-0.45,-1.05,130
-0.45,-0.9,133
-0.45,-0.75,123
-0.45,-0.6,113
-0.45,-0.45,110
-0.45,-0.3,112
-0.45,-0.15,137
-0.45,0.0,150
-0.45,0.15,136
-0.45,0.3,113
-0.45,0.45,86
-0.45,0.6,55
-0.45,0.75,25
-0.45,0.9,53
-0.45,1.05,101
-0.45,1.2,105
-0.45,1.35,108
-0.45,1.5,109
-0.3,-1.5,124
-0.3,-1.35,124
-0.3,-1.2,122
-0.3,-1.05,108
-0.3,-0.9,95
-0.3,-0.75,97
-0.3,-0.6,113
-0.3,-0.45,133
-0.3,-0.3,114
-0.3,-0.15,101
-0.3,0.0,110
-0.3,0.15,110
-0.3,0.3,101
-0.3,0.45,93
-0.3,0.6,79
-0.3,0.75,64
-0.3,0.9,81
-0.3,1.05,111
-0.3,1.2,106
-0.3,1.35,107
-0.3,1.5,109
-0.15,-1.5,124
-0.15,-1.35,124
-0.15,-1.2,120
-0.15,-1.05,89
-0.15,-0.9,69
-0.15,-0.75,83
-0.15,-0.6,115
-0.15,-0.45,146
-0.15,-0.3,120
-0.15,-0.15,96
-0.15,0.0,95
-0.15,0.15,101
-0.15,0.3,96
-0.15,0.45,98
-0.15,0.6,97
-0.15,0.75,96
-0.15,0.9,106
-0.15,1.05,121
-0.15,1.2,111
-0.15,1.35,109
-0.15,1.5,111
0.0,-1.5,117
0.0,-1.35,107
0.0,-1.2,71
0.0,-1.05,106
0.0,-0.9,138
0.0,-0.75,138
0.0,-0.6,141
0.0,-0.45,140
0.0,-0.3,99
0.0,-0.15,87
0.0,0.0,105
0.0,0.15,112
0.0,0.3,104
0.0,0.45,98
0.0,0.6,97
0.0,0.75,106
0.0,0.9,110
0.0,1.05,111
0.0,1.2,110
0.0,1.35,111
0.0,1.5,113
0.15,-1.5,98
0.15,-1.35,91
0.15,-1.2,60
0.15,-1.05,107
0.15,-0.9,139
0.15,-0.75,139
0.15,-0.6,134
0.15,-0.45,126
0.15,-0.3,99
0.15,-0.15,96
0.15,0.0,111
0.15,0.15,117
0.15,0.3,106
0.15,0.45,98
0.15,0.6,98
0.15,0.75,110
0.15,0.9,112
0.15,1.05,110
0.15,1.2,111
0.15,1.35,113
0.15,1.5,116
0.3,-1.5,30
0.3,-1.35,44
0.3,-1.2,57
0.3,-1.05,103
0.3,-0.9,130
0.3,-0.75,125
0.3,-0.6,119
0.3,-0.45,110
0.3,-0.3,105
0.3,-0.15,105
0.3,0.0,112
0.3,0.15,113
0.3,0.3,107
0.3,0.45,104
0.3,0.6,105
0.3,0.75,108
0.3,0.9,112
0.3,1.05,112
0.3,1.2,114
0.3,1.35,117
0.3,1.5,119
0.45,-1.5,56
0.45,-1.35,67
0.45,-1.2,79
0.45,-1.05,103
0.45,-0.9,114
0.45,-0.75,111
0.45,-0.6,109
0.45,-0.45,109
0.45,-0.3,108
0.45,-0.15,104
0.45,0.0,104
0.45,0.15,107
0.45,0.3,104
0.45,0.45,104
0.45,0.6,106
0.45,0.75,108
0.45,0.9,114
0.45,1.05,116
0.45,1.2,118
0.45,1.35,120
0.45,1.5,121
0.6,-1.5,104
0.6,-1.35,106
0.6,-1.2,108
0.6,-1.05,107
0.6,-0.9,105
0.6,-0.75,106
0.6,-0.6,106
0.6,-0.45,108
0.6,-0.3,105
0.6,-0.15,104
0.6,0.0,108
0.6,0.15,108
0.6,0.3,104
0.6,0.45,104
0.6,0.6,105
0.6,0.75,111
0.6,0.9,118
0.6,1.05,120
0.6,1.2,120
0.6,1.35,120
0.6,1.5,121
0.75,-1.5,104
0.75,-1.35,104
0.75,-1.2,107
0.75,-1.05,108
0.75,-0.9,108
0.75,-0.75,106
0.75,-0.6,107
0.75,-0.45,107
0.75,-0.3,107
0.75,-0.15,108
0.75,0.0,104
0.75,0.15,104
0.75,0.3,104
0.75,0.45,104
0.75,0.6,110
0.75,0.75,116
0.75,0.9,120
0.75,1.05,121
0.75,1.2,121
0.75,1.35,121
0.75,1.5,121
0.9,-1.5,104
0.9,-1.35,104
0.9,-1.2,105
0.9,-1.05,107
0.9,-0.9,108
0.9,-0.75,107
0.9,-0.6,110
0.9,-0.45,105
0.9,-0.3,99
0.9,-0.15,109
0.9,0.0,108
0.9,0.15,104
0.9,0.3,108
0.9,0.45,113
0.9,0.6,119
0.9,0.75,121
0.9,0.9,122
0.9,1.05,123
0.9,1.2,123
0.9,1.35,123
0.9,1.5,123
1.05,-1.5,107
1.05,-1.35,107
1.05,-1.2,104
1.05,-1.05,106
1.05,-0.9,107
1.05,-0.75,108
1.05,-0.6,111
1.05,-0.45,109
1.05,-0.3,95
1.05,-0.15,103
1.05,0.0,110
1.05,0.15,113
1.05,0.3,120
1.05,0.45,123
1.05,0.6,126
1.05,0.75,130
1.05,0.9,129
1.05,1.05,126
1.05,1.2,128
1.05,1.35,130
1.05,1.5,131
1.2,-1.5,111
1.2,-1.35,109
1.2,-1.2,104
1.2,-1.05,105
1.2,-0.9,107
1.2,-0.75,108
1.2,-0.6,112
1.2,-0.45,118
1.2,-0.3,109
1.2,-0.15,107
1.2,0.0,113
1.2,0.15,116
1.2,0.3,125
1.2,0.45,126
1.2,0.6,128
1.2,0.75,133
1.2,0.9,132
1.2,1.05,130
1.2,1.2,131
1.2,1.35,131
1.2,1.5,131
1.35,-1.5,120
1.35,-1.35,113
1.35,-1.2,101
1.35,-1.05,103
1.35,-0.9,106
1.35,-0.75,110
1.35,-0.6,111
1.35,-0.45,117
1.35,-0.3,113
1.35,-0.15,110
1.35,0.0,107
1.35,0.15,109
1.35,0.3,122
1.35,0.45,126
1.35,0.6,127
1.35,0.75,131
1.35,0.9,134
1.35,1.05,138
1.35,1.2,130
1.35,1.35,130
1.35,1.5,130
1.5,-1.5,86
1.5,-1.35,88
1.5,-1.2,89
1.5,-1.05,99
1.5,-0.9,105
1.5,-0.75,109
1.5,-0.6,111
1.5,-0.45,112
1.5,-0.3,111
1.5,-0.15,109
1.5,0.0,107
1.5,0.15,109
1.5,0.3,116
1.5,0.45,120
1.5,0.6,122
1.5,0.75,122
1.5,0.9,128
1.5,1.05,133
1.5,1.2,131
1.5,1.35,130
1.5,1.5,131
1.65,-1.5,47
1.65,-1.35,60
1.65,-1.2,76
1.65,-1.05,93
1.65,-0.9,103
1.65,-0.75,106
1.65,-0.6,109
1.65,-0.45,108
1.65,-0.3,107
1.65,-0.15,108
1.65,0.0,107
1.65,0.15,113
1.65,0.3,111
1.65,0.45,113
1.65,0.6,117
1.65,0.75,116
1.65,0.9,122
1.65,1.05,128
1.65,1.2,131
1.65,1.35,131
1.65,1.5,131
1.8,-1.5,47
1.8,-1.35,57
1.8,-1.2,76
1.8,-1.05,88
1.8,-0.9,98
1.8,-0.75,105
1.8,-0.6,107
1.8,-0.45,107
1.8,-0.3,107
1.8,-0.15,108
1.8,0.0,107
1.8,0.15,111
1.8,0.3,107
1.8,0.45,107
1.8,0.6,113
1.8,0.75,117
1.8,0.9,120
1.8,1.05,120
1.8,1.2,122
1.8,1.35,122
1.8,1.5,121
1.95,-1.5,47
1.95,-1.35,58
1.95,-1.2,75
1.95,-1.05,85
1.95,-0.9,94
1.95,-0.75,103
1.95,-0.6,107
1.95,-0.45,107
1.95,-0.3,107
1.95,-0.15,108
1.95,0.0,107
1.95,0.15,107
1.95,0.3,107
1.95,0.45,107
1.95,0.6,111
1.95,0.75,117
1.95,0.9,118
1.95,1.05,117
1.95,1.2,116
1.95,1.35,114
1.95,1.5,113
2.1,-1.5,47
2.1,-1.35,58
2.1,-1.2,72
2.1,-1.05,84
2.1,-0.9,92
2.1,-0.75,101
2.1,-0.6,106
2.1,-0.45,107
2.1,-0.3,107
2.1,-0.15,108
2.1,0.0,108
2.1,0.15,109
2.1,0.3,110
2.1,0.45,110
2.1,0.6,109
2.1,0.75,113
2.1,0.9,114
2.1,1.05,112
2.1,1.2,110
2.1,1.35,108
2.1,1.5,106
2.25,-1.5,47
2.25,-1.35,57
2.25,-1.2,73
2.25,-1.05,88
2.25,-0.9,100
2.25,-0.75,106
2.25,-0.6,106
2.25,-0.45,110
2.25,-0.3,111
2.25,-0.15,111
2.25,0.0,111
2.25,0.15,111
2.25,0.3,111
2.25,0.45,111
2.25,0.6,111
2.25,0.75,113
2.25,0.9,112
2.25,1.05,109
2.25,1.2,108
2.25,1.35,106
2.25,1.5,104
2.4,-1.5,47
2.4,-1.35,56
2.4,-1.2,71
2.4,-1.05,90
2.4,-0.9,111
2.4,-0.75,111
2.4,-0.6,111
2.4,-0.45,111
2.4,-0.3,111
2.4,-0.15,111
2.4,0.0,111
2.4,0.15,109
2.4,0.3,107
2.4,0.45,107
2.4,0.6,109
2.4,0.75,111
2.4,0.9,110
2.4,1.05,106
2.4,1.2,107
2.4,1.35,105
2.4,1.5,103
2.55,-1.5,47
2.55,-1.35,56
2.55,-1.2,70
2.55,-1.05,88
2.55,-0.9,108
2.55,-0.75,111
2.55,-0.6,101
2.55,-0.45,107
2.55,-0.3,107
2.55,-0.15,106
2.55,0.0,109
2.55,0.15,106
2.55,0.3,106
2.55,0.45,106
2.55,0.6,106
2.55,0.75,109
2.55,0.9,111
2.55,1.05,108
2.55,1.2,105
2.55,1.35,101
2.55,1.5,97
2.7,-1.5,47
2.7,-1.35,59
2.7,-1.2,72
2.7,-1.05,88
2.7,-0.9,99
2.7,-0.75,101
2.7,-0.6,101
2.7,-0.45,107
2.7,-0.3,109
2.7,-0.15,106
2.7,0.0,106
2.7,0.15,107
2.7,0.3,106
2.7,0.45,106
2.7,0.6,106
2.7,0.75,109
2.7,0.9,114
2.7,1.05,113
2.7,1.2,108
2.7,1.35,103
2.7,1.5,98
2.85,-1.5,40
2.85,-1.35,59
2.85,-1.2,80
2.85,-1.05,98
2.85,-0.9,108
2.85,-0.75,106
2.85,-0.6,106
2.85,-0.45,108
2.85,-0.3,111
2.85,-0.15,106
2.85,0.0,106
2.85,0.15,108
2.85,0.3,108
2.85,0.45,106
2.85,0.6,107
2.85,0.75,112
2.85,0.9,116
2.85,1.05,116
2.85,1.2,110
2.85,1.35,106
2.85,1.5,103
3.0,-1.5,26
3.0,-1.35,52
3.0,-1.2,81
3.0,-1.05,102
3.0,-0.9,108
3.0,-0.75,108
3.0,-0.6,108
3.0,-0.45,113
3.0,-0.3,110
3.0,-0.15,107
3.0,0.0,106
3.0,0.15,108
3.0,0.3,108
3.0,0.45,108
3.0,0.6,113
3.0,0.75,118
3.0,0.9,121
3.0,1.05,120
3.0,1.2,113
3.0,1.35,109
3.0,1.5,106
3.15,-1.5,0
3.15,-1.35,16
3.15,-1.2,56
3.15,-1.05,94
3.15,-0.9,107
3.15,-0.75,104
3.15,-0.6,105
3.15,-0.45,118
3.15,-0.3,107
3.15,-0.15,105
3.15,0.0,108
3.15,0.15,101
3.15,0.3,107
3.15,0.45,108
3.15,0.6,113
3.15,0.75,121
3.15,0.9,121
3.15,1.05,120
3.15,1.2,118
3.15,1.35,114
3.15,1.5,110
3.3,-1.5,45
3.3,-1.35,55
3.3,-1.2,53
3.3,-1.05,67
3.3,-0.9,81
3.3,-0.75,102
3.3,-0.6,103
3.3,-0.45,105
3.3,-0.3,105
3.3,-0.15,107
3.3,0.0,101
3.3,0.15,108
3.3,0.3,75
3.3,0.45,92
3.3,0.6,90
3.3,0.75,118
3.3,0.9,121
3.3,1.05,121
3.3,1.2,121
3.3,1.35,118
3.3,1.5,114
3.45,-1.5,139
3.45,-1.35,116
3.45,-1.2,54
3.45,-1.05,39
3.45,-0.9,57
3.45,-0.75,105
3.45,-0.6,105
3.45,-0.45,105
3.45,-0.3,107
3.45,-0.15,106
3.45,0.0,107
3.45,0.15,104
3.45,0.3,82
3.45,0.45,85
3.45,0.6,66
3.45,0.75,101
3.45,0.9,116
3.45,1.05,121
3.45,1.2,122
3.45,1.35,121
3.45,1.5,118
3.6,-1.5,139
3.6,-1.35,128
3.6,-1.2,95
3.6,-1.05,55
3.6,-0.9,51
3.6,-0.75,104
3.6,-0.6,105
3.6,-0.45,105
3.6,-0.3,107
3.6,-0.15,106
3.6,0.0,107
3.6,0.15,107
3.6,0.3,104
3.6,0.45,102
3.6,0.6,99
3.6,0.75,111
3.6,0.9,116
3.6,1.05,118
3.6,1.2,125
3.6,1.35,127
3.6,1.5,127
3.75,-1.5,142
3.75,-1.35,138
3.75,-1.2,122
3.75,-1.05,72
3.75,-0.9,51
3.75,-0.75,87
3.75,-0.6,99
3.75,-0.45,103
3.75,-0.3,102
3.75,-0.15,106
3.75,0.0,107
3.75,0.15,102
3.75,0.3,107
3.75,0.45,107
3.75,0.6,111
3.75,0.75,114
3.75,0.9,116
3.75,1.05,117
3.75,1.2,122
3.75,1.35,125
3.75,1.5,126
3.9,-1.5,147
3.9,-1.35,144
3.9,-1.2,125
3.9,-1.05,115
3.9,-0.9,90
3.9,-0.75,62
3.9,-0.6,102
3.9,-0.45,113
3.9,-0.3,107
3.9,-0.15,92
3.9,0.0,97
3.9,0.15,104
3.9,0.3,102
3.9,0.45,103
3.9,0.6,105
3.9,0.75,110
3.9,0.9,115
3.9,1.05,120
3.9,1.2,111
3.9,1.35,111
3.9,1.5,114
4.05,-1.5,150
4.05,-1.35,150
4.05,-1.2,141
4.05,-1.05,131
4.05,-0.9,116
4.05,-0.75,91
4.05,-0.6,110
4.05,-0.45,115
4.05,-0.3,100
4.05,-0.15,113
4.05,0.0,126
4.05,0.15,113
4.05,0.3,105
4.05,0.45,107
4.05,0.6,102
4.05,0.75,96
4.05,0.9,102
4.05,1.05,109
4.05,1.2,89
4.05,1.35,84
4.05,1.5,82
4.2,-1.5,153
4.2,-1.35,153
4.2,-1.2,147
4.2,-1.05,133
4.2,-0.9,129
4.2,-0.75,122
4.2,-0.6,115
4.2,-0.45,108
4.2,-0.3,107
4.2,-0.15,116
4.2,0.0,109
4.2,0.15,105
4.2,0.3,107
4.2,0.45,117
4.2,0.6,107
4.2,0.75,87
4.2,0.9,84
4.2,1.05,90
4.2,1.2,55
4.2,1.35,39
4.2,1.5,30
4.35,-1.5,196
4.35,-1.35,174
4.35,-1.2,152
4.35,-1.05,132
4.35,-0.9,117
4.35,-0.75,96
4.35,-0.6,101
4.35,-0.45,103
4.35,-0.3,105
4.35,-0.15,103
4.35,0.0,111
4.35,0.15,105
4.35,0.3,109
4.35,0.45,112
4.35,0.6,102
4.35,0.75,88
4.35,0.9,68
4.35,1.05,42
4.35,1.2,37
4.35,1.35,26
4.35,1.5,16
4.5,-1.5,188
4.5,-1.35,154
4.5,-1.2,125
4.5,-1.05,117
4.5,-0.9,122
4.5,-0.75,139
4.5,-0.6,111
4.5,-0.45,111
4.5,-0.3,111
4.5,-0.15,103
4.5,0.0,111
4.5,0.15,106
4.5,0.3,104
4.5,0.45,104
4.5,0.6,94
4.5,0.75,85
4.5,0.9,60
4.5,1.05,22
4.5,1.2,23
4.5,1.35,14
4.5,1.5,1
4.65,-1.5,165
4.65,-1.35,133
4.65,-1.2,111
4.65,-1.05,111
4.65,-0.9,117
4.65,-0.75,101
4.65,-0.6,99
4.65,-0.45,111
4.65,-0.3,69
4.65,-0.15,109
4.65,0.0,107
4.65,0.15,105
4.65,0.3,110
4.65,0.45,118
4.65,0.6,105
4.65,0.75,82
4.65,0.9,53
4.65,1.05,21
4.65,1.2,7
4.65,1.35,0
4.65,1.5,0
4.8,-1.5,130
4.8,-1.35,115
4.8,-1.2,111
4.8,-1.05,112
4.8,-0.9,111
4.8,-0.75,107
4.8,-0.6,107
4.8,-0.45,91
4.8,-0.3,45
4.8,-0.15,106
4.8,0.0,105
4.8,0.15,115
4.8,0.3,120
4.8,0.45,141
4.8,0.6,123
4.8,0.75,90
4.8,0.9,57
4.8,1.05,27
4.8,1.2,12
4.8,1.35,0
4.8,1.5,0
4.95,-1.5,80
4.95,-1.35,94
4.95,-1.2,115
4.95,-1.05,115
4.95,-0.9,108
4.95,-0.75,106
4.95,-0.6,106
4.95,-0.45,114
4.95,-0.3,79
4.95,-0.15,107
4.95,0.0,109
4.95,0.15,105
4.95,0.3,109
4.95,0.45,134
4.95,0.6,117
4.95,0.75,82
4.95,0.9,59
4.95,1.05,44
4.95,1.2,28
4.95,1.35,13
4.95,1.5,0
5.1,-1.5,97
5.1,-1.35,103
5.1,-1.2,115
5.1,-1.05,115
5.1,-0.9,110
5.1,-0.75,106
5.1,-0.6,114
5.1,-0.45,114
5.1,-0.3,104
5.1,-0.15,108
5.1,0.0,106
5.1,0.15,105
5.1,0.3,107
5.1,0.45,105
5.1,0.6,108
5.1,0.75,107
5.1,0.9,86
5.1,1.05,46
5.1,1.2,30
5.1,1.35,16
5.1,1.5,2
5.25,-1.5,108
5.25,-1.35,110
5.25,-1.2,115
5.25,-1.05,115
5.25,-0.9,114
5.25,-0.75,110
5.25,-0.6,112
5.25,-0.45,106
5.25,-0.3,114
5.25,-0.15,111
5.25,0.0,106
5.25,0.15,105
5.25,0.3,105
5.25,0.45,106
5.25,0.6,110
5.25,0.75,120
5.25,0.9,103
5.25,1.05,51
5.25,1.2,38
5.25,1.35,25
5.25,1.5,12
5.4,-1.5,153
5.4,-1.35,136
5.4,-1.2,121
5.4,-1.05,116
5.4,-0.9,111
5.4,-0.75,87
5.4,-0.6,116
5.4,-0.45,111
5.4,-0.3,125
5.4,-0.15,113
5.4,0.0,113
5.4,0.15,111
5.4,0.3,113
5.4,0.45,106
5.4,0.6,103
5.4,0.75,99
5.4,0.9,123
5.4,1.05,172
5.4,1.2,169
5.4,1.35,176
5.4,1.5,185
5.55,-1.5,170
5.55,-1.35,146
5.55,-1.2,124
5.55,-1.05,110
5.55,-0.9,105
5.55,-0.75,105
5.55,-0.6,133
5.55,-0.45,107
5.55,-0.3,106
5.55,-0.15,106
5.55,0.0,109
5.55,0.15,113
5.55,0.3,110
5.55,0.45,102
5.55,0.6,99
5.55,0.75,94
5.55,0.9,135
5.55,1.05,207
5.55,1.2,216
5.55,1.35,231
5.55,1.5,247
5.7,-1.5,133
5.7,-1.35,133
5.7,-1.2,133
5.7,-1.05,112
5.7,-0.9,107
5.7,-0.75,109
5.7,-0.6,116
5.7,-0.45,125
5.7,-0.3,112
5.7,-0.15,105
5.7,0.0,103
5.7,0.15,108
5.7,0.3,109
5.7,0.45,103
5.7,0.6,98
5.7,0.75,132
5.7,0.9,163
5.7,1.05,199
5.7,1.2,228
5.7,1.35,255
5.7,1.5,255
5.85,-1.5,128
5.85,-1.35,133
5.85,-1.2,141
5.85,-1.05,123
5.85,-0.9,110
5.85,-0.75,116
5.85,-0.6,125
5.85,-0.45,122
5.85,-0.3,89
5.85,-0.15,105
5.85,0.0,104
5.85,0.15,102
5.85,0.3,96
5.85,0.45,110
5.85,0.6,118
5.85,0.75,145
5.85,0.9,172
5.85,1.05,200
5.85,1.2,214
5.85,1.35,225
5.85,1.5,233
6.0,-1.5,126
6.0,-1.35,133
6.0,-1.2,135
6.0,-1.05,132
6.0,-0.9,123
6.0,-0.75,106
6.0,-0.6,106
6.0,-0.45,106
6.0,-0.3,96
6.0,-0.15,114
6.0,0.0,114
6.0,0.15,106
6.0,0.3,92
6.0,0.45,119
6.0,0.6,149
6.0,0.75,148
6.0,0.9,181
6.0,1.05,207
6.0,1.2,207
6.0,1.35,202
6.0,1.5,196
6.15,-1.5,123
6.15,-1.35,130
6.15,-1.2,131
6.15,-1.05,134
6.15,-0.9,134
6.15,-0.75,110
6.15,-0.6,155
6.15,-0.45,158
6.15,-0.3,101
6.15,-0.15,104
6.15,0.0,102
6.15,0.15,117
6.15,0.3,140
6.15,0.45,128
6.15,0.6,139
6.15,0.75,161
6.15,0.9,200
6.15,1.05,244
6.15,1.2,248
6.15,1.35,255
6.15,1.5,255
6.3,-1.5,113
6.3,-1.35,120
6.3,-1.2,121
6.3,-1.05,122
6.3,-0.9,113
6.3,-0.75,102
6.3,-0.6,132
6.3,-0.45,105
6.3,-0.3,108
6.3,-0.15,106
6.3,0.0,102
6.3,0.15,121
6.3,0.3,93
6.3,0.45,84
6.3,0.6,108
6.3,0.75,138
6.3,0.9,188
6.3,1.05,250
6.3,1.2,255
6.3,1.35,255
6.3,1.5,255
6.45,-1.5,106
6.45,-1.35,109
6.45,-1.2,107
6.45,-1.05,110
6.45,-0.9,102
6.45,-0.75,111
6.45,-0.6,107
6.45,-0.45,129
6.45,-0.3,105
6.45,-0.15,111
6.45,0.0,115
6.45,0.15,71
6.45,0.3,57
6.45,0.45,60
6.45,0.6,93
6.45,0.75,108
6.45,0.9,153
6.45,1.05,217
6.45,1.2,255
6.45,1.35,255
6.45,1.5,255
6.6,-1.5,105
6.6,-1.35,101
6.6,-1.2,89
6.6,-1.05,102
6.6,-0.9,105
6.6,-0.75,108
6.6,-0.6,110
6.6,-0.45,119
6.6,-0.3,113
6.6,-0.15,105
6.6,0.0,105
6.6,0.15,98
6.6,0.3,117
6.6,0.45,95
6.6,0.6,94
6.6,0.75,92
6.6,0.9,131
6.6,1.05,195
6.6,1.2,237
6.6,1.35,255
6.6,1.5,255
6.75,-1.5,105
6.75,-1.35,100
6.75,-1.2,83
6.75,-1.05,108
6.75,-0.9,110
6.75,-0.75,105
6.75,-0.6,113
6.75,-0.45,109
6.75,-0.3,116
6.75,-0.15,110
6.75,0.0,110
6.75,0.15,107
6.75,0.3,117
6.75,0.45,106
6.75,0.6,91
6.75,0.75,73
6.75,0.9,107
6.75,1.05,177
6.75,1.2,207
6.75,1.35,233
6.75,1.5,254
6.9,-1.5,98
6.9,-1.35,99
6.9,-1.2,112
6.9,-1.05,133
6.9,-0.9,128
6.9,-0.75,105
6.9,-0.6,144
6.9,-0.45,165
6.9,-0.3,105
6.9,-0.15,104
6.9,0.0,109
6.9,0.15,108
6.9,0.3,120
6.9,0.45,110
6.9,0.6,106
6.9,0.75,96
6.9,0.9,107
6.9,1.05,137
6.9,1.2,154
6.9,1.35,169
6.9,1.5,180
7.05,-1.5,94
7.05,-1.35,105
7.05,-1.2,153
7.05,-1.05,153
7.05,-0.9,138
7.05,-0.75,120
7.05,-0.6,147
7.05,-0.45,124
7.05,-0.3,116
7.05,-0.15,104
7.05,0.0,108
7.05,0.15,105
7.05,0.3,94
7.05,0.45,104
7.05,0.6,107
7.05,0.75,107
7.05,0.9,107
7.05,1.05,107
7.05,1.2,107
7.05,1.35,107
7.05,1.5,107
7.2,-1.5,94
7.2,-1.35,107
7.2,-1.2,130
7.2,-1.05,140
7.2,-0.9,145
7.2,-0.75,122
7.2,-0.6,106
7.2,-0.45,135
7.2,-0.3,99
7.2,-0.15,114
7.2,0.0,105
7.2,0.15,114
7.2,0.3,107
7.2,0.45,104
7.2,0.6,106
7.2,0.75,107
7.2,0.9,107
7.2,1.05,109
7.2,1.2,110
7.2,1.35,110
7.2,1.5,110
7.35,-1.5,89
7.35,-1.35,103
7.35,-1.2,119
7.35,-1.05,133
7.35,-0.9,140
7.35,-0.75,115
7.35,-0.6,83
7.35,-0.45,90
7.35,-0.3,107
7.35,-0.15,106
7.35,0.0,114
7.35,0.15,109
7.35,0.3,109
7.35,0.45,107
7.35,0.6,111
7.35,0.75,112
7.35,0.9,109
7.35,1.05,112
7.35,1.2,115
7.35,1.35,117
7.35,1.5,120
7.5,-1.5,91
7.5,-1.35,97
7.5,-1.2,104
7.5,-1.05,119
7.5,-0.9,124
7.5,-0.75,118
7.5,-0.6,84
7.5,-0.45,48
7.5,-0.3,92
7.5,-0.15,114
7.5,0.0,113
7.5,0.15,108
7.5,0.3,109
7.5,0.45,112
7.5,0.6,119
7.5,0.75,117
7.5,0.9,111
7.5,1.05,112
7.5,1.2,118
7.5,1.35,122
7.5,1.5,126
7.65,-1.5,106
7.65,-1.35,102
7.65,-1.2,99
7.65,-1.05,99
7.65,-0.9,100
7.65,-0.75,108
7.65,-0.6,84
7.65,-0.45,83
7.65,-0.3,90
7.65,-0.15,114
7.65,0.0,114
7.65,0.15,105
7.65,0.3,107
7.65,0.45,111
7.65,0.6,110
7.65,0.75,108
7.65,0.9,110
7.65,1.05,118
7.65,1.2,125
7.65,1.35,131
7.65,1.5,136
7.8,-1.5,138
7.8,-1.35,120
7.8,-1.2,106
7.8,-1.05,88
7.8,-0.9,92
7.8,-0.75,108
7.8,-0.6,99
7.8,-0.45,104
7.8,-0.3,101
7.8,-0.15,114
7.8,0.0,113
7.8,0.15,105
7.8,0.3,109
7.8,0.45,101
7.8,0.6,99
7.8,0.75,104
7.8,0.9,114
7.8,1.05,128
7.8,1.2,137
7.8,1.35,145
7.8,1.5,153
7.95,-1.5,132
7.95,-1.35,116
7.95,-1.2,104
7.95,-1.05,86
7.95,-0.9,92
7.95,-0.75,108
7.95,-0.6,100
7.95,-0.45,106
7.95,-0.3,101
7.95,-0.15,105
7.95,0.0,106
7.95,0.15,107
7.95,0.3,95
7.95,0.45,87
7.95,0.6,98
7.95,0.75,103
7.95,0.9,114
7.95,1.05,135
7.95,1.2,146
7.95,1.35,155
7.95,1.5,164
8.1,-1.5,125
8.1,-1.35,115
8.1,-1.2,107
8.1,-1.05,103
8.1,-0.9,112
8.1,-0.75,112
8.1,-0.6,103
8.1,-0.45,106
8.1,-0.3,104
8.1,-0.15,108
8.1,0.0,105
8.1,0.15,105
8.1,0.3,102
8.1,0.45,88
8.1,0.6,101
8.1,0.75,112
8.1,0.9,123
8.1,1.05,141
8.1,1.2,152
8.1,1.35,161
8.1,1.5,170
8.25,-1.5,125
8.25,-1.35,116
8.25,-1.2,107
8.25,-1.05,112
8.25,-0.9,112
8.25,-0.75,112
8.25,-0.6,105
8.25,-0.45,132
8.25,-0.3,113
8.25,-0.15,109
8.25,0.0,107
8.25,0.15,106
8.25,0.3,108
8.25,0.45,106
8.25,0.6,112
8.25,0.75,126
8.25,0.9,140
8.25,1.05,145
8.25,1.2,155
8.25,1.35,164
8.25,1.5,173
8.4,-1.5,125
8.4,-1.35,120
8.4,-1.2,112
8.4,-1.05,110
8.4,-0.9,106
8.4,-0.75,106
8.4,-0.6,109
8.4,-0.45,128
8.4,-0.3,114
8.4,-0.15,106
8.4,0.0,108
8.4,0.15,103
8.4,0.3,107
8.4,0.45,109
8.4,0.6,116
8.4,0.75,118
8.4,0.9,135
8.4,1.05,146
8.4,1.2,161
8.4,1.35,172
8.4,1.5,183
8.55,-1.5,125
8.55,-1.35,114
8.55,-1.2,104
8.55,-1.05,107
8.55,-0.9,110
8.55,-0.75,110
8.55,-0.6,103
8.55,-0.45,105
8.55,-0.3,108
8.55,-0.15,104
8.55,0.0,96
8.55,0.15,98
8.55,0.3,124
8.55,0.45,97
8.55,0.6,112
8.55,0.75,88
8.55,0.9,107
8.55,1.05,143
8.55,1.2,171
8.55,1.35,190
8.55,1.5,205
8.7,-1.5,115
8.7,-1.35,109
8.7,-1.2,104
8.7,-1.05,108
8.7,-0.9,110
8.7,-0.75,110
8.7,-0.6,103
8.7,-0.45,108
8.7,-0.3,108
8.7,-0.15,105
8.7,0.0,107
8.7,0.15,89
8.7,0.3,104
8.7,0.45,93
8.7,0.6,120
8.7,0.75,105
8.7,0.9,109
8.7,1.05,120
8.7,1.2,149
8.7,1.35,163
8.7,1.5,172
8.85,-1.5,111
8.85,-1.35,107
8.85,-1.2,104
8.85,-1.05,106
8.85,-0.9,104
8.85,-0.75,104
8.85,-0.6,95
8.85,-0.45,108
8.85,-0.3,106
8.85,-0.15,102
8.85,0.0,102
8.85,0.15,107
8.85,0.3,104
8.85,0.45,114
8.85,0.6,133
8.85,0.75,113
8.85,0.9,112
8.85,1.05,106
8.85,1.2,126
8.85,1.35,132
8.85,1.5,134
9.0,-1.5,104
9.0,-1.35,104
9.0,-1.2,105
9.0,-1.05,98
9.0,-0.9,94
9.0,-0.75,104
9.0,-0.6,108
9.0,-0.45,106
9.0,-0.3,108
9.0,-0.15,108
9.0,0.0,106
9.0,0.15,115
9.0,0.3,105
9.0,0.45,122
9.0,0.6,133
9.0,0.75,122
9.0,0.9,118
9.0,1.05,105
9.0,1.2,94
9.0,1.35,84
9.0,1.5,74
9.15,-1.5,105
9.15,-1.35,105
9.15,-1.2,105
9.15,-1.05,87
9.15,-0.9,92
9.15,-0.75,106
9.15,-0.6,104
9.15,-0.45,107
9.15,-0.3,108
9.15,-0.15,104
9.15,0.0,104
9.15,0.15,103
9.15,0.3,105
9.15,0.45,114
9.15,0.6,121
9.15,0.75,124
9.15,0.9,116
9.15,1.05,99
9.15,1.2,86
9.15,1.35,73
9.15,1.5,61
9.3,-1.5,105
9.3,-1.35,104
9.3,-1.2,104
9.3,-1.05,83
9.3,-0.9,95
9.3,-0.75,104
9.3,-0.6,116
9.3,-0.45,106
9.3,-0.3,119
9.3,-0.15,106
9.3,0.0,108
9.3,0.15,95
9.3,0.3,101
9.3,0.45,109
9.3,0.6,114
9.3,0.75,112
9.3,0.9,104
9.3,1.05,93
9.3,1.2,89
9.3,1.35,83
9.3,1.5,77
9.45,-1.5,105
9.45,-1.35,103
9.45,-1.2,103
9.45,-1.05,82
9.45,-0.9,109
9.45,-0.75,116
9.45,-0.6,114
9.45,-0.45,107
9.45,-0.3,104
9.45,-0.15,108
9.45,0.0,107
9.45,0.15,110
9.45,0.3,112
9.45,0.45,112
9.45,0.6,107
9.45,0.75,108
9.45,0.9,105
9.45,1.05,92
9.45,1.2,91
9.45,1.35,88
9.45,1.5,85
9.6,-1.5,102
9.6,-1.35,102
9.6,-1.2,103
9.6,-1.05,95
9.6,-0.9,143
9.6,-0.75,173
9.6,-0.6,115
9.6,-0.45,115
9.6,-0.3,104
9.6,-0.15,110
9.6,0.0,105
9.6,0.15,106
9.6,0.3,112
9.6,0.45,112
9.6,0.6,101
9.6,0.75,96
9.6,0.9,101
9.6,1.05,92
9.6,1.2,98
9.6,1.35,101
9.6,1.5,101
9.75,-1.5,106
9.75,-1.35,101
9.75,-1.2,85
9.75,-1.05,98
9.75,-0.9,130
9.75,-0.75,106
9.75,-0.6,106
9.75,-0.45,114
9.75,-0.3,112
9.75,-0.15,57
9.75,0.0,69
9.75,0.15,102
9.75,0.3,112
9.75,0.45,107
9.75,0.6,98
9.75,0.75,92
9.75,0.9,93
9.75,1.05,94
9.75,1.2,101
9.75,1.35,104
9.75,1.5,106
9.9,-1.5,111
9.9,-1.35,105
9.9,-1.2,90
9.9,-1.05,105
9.9,-0.9,120
9.9,-0.75,117
9.9,-0.6,102
9.9,-0.45,114
9.9,-0.3,103
9.9,-0.15,95
9.9,0.0,95
9.9,0.15,111
9.9,0.3,112
9.9,0.45,104
9.9,0.6,93
9.9,0.75,92
9.9,0.9,92
9.9,1.05,96
9.9,1.2,103
9.9,1.35,107
9.9,1.5,110
10.05,-1.5,113
10.05,-1.35,107
10.05,-1.2,95
10.05,-1.05,115
10.05,-0.9,116
10.05,-0.75,105
10.05,-0.6,107
10.05,-0.45,110
10.05,-0.3,114
10.05,-0.15,110
10.05,0.0,102
10.05,0.15,96
10.05,0.3,109
10.05,0.45,110
10.05,0.6,103
10.05,0.75,99
10.05,0.9,93
10.05,1.05,81
10.05,1.2,101
10.05,1.35,108
10.05,1.5,111
10.2,-1.5,81
10.2,-1.35,93
10.2,-1.2,103
10.2,-1.05,116
10.2,-0.9,113
10.2,-0.75,111
10.2,-0.6,113
10.2,-0.45,107
10.2,-0.3,114
10.2,-0.15,102
10.2,0.0,93
10.2,0.15,86
10.2,0.3,106
10.2,0.45,120
10.2,0.6,123
10.2,0.75,113
10.2,0.9,101
10.2,1.05,85
10.2,1.2,99
10.2,1.35,102
10.2,1.5,103
10.35,-1.5,0
10.35,-1.35,53
10.35,-1.2,116
10.35,-1.05,116
10.35,-0.9,113
10.35,-0.75,113
10.35,-0.6,113
10.35,-0.45,110
10.35,-0.3,114
10.35,-0.15,106
10.35,0.0,114
10.35,0.15,100
10.35,0.3,109
10.35,0.45,134
10.35,0.6,151
10.35,0.75,136
10.35,0.9,113
10.35,1.05,93
10.35,1.2,91
10.35,1.35,87
10.35,1.5,82
10.5,-1.5,54
10.5,-1.35,81
10.5,-1.2,116
10.5,-1.05,112
10.5,-0.9,107
10.5,-0.75,106
10.5,-0.6,107
10.5,-0.45,106
10.5,-0.3,106
10.5,-0.15,113
10.5,0.0,114
10.5,0.15,112
10.5,0.3,113
10.5,0.45,133
10.5,0.6,147
10.5,0.75,149
10.5,0.9,130
10.5,1.05,109
10.5,1.2,91
10.5,1.35,82
10.5,1.5,77
10.65,-1.5,91
10.65,-1.35,96
10.65,-1.2,103
10.65,-1.05,101
10.65,-0.9,103
10.65,-0.75,109
10.65,-0.6,110
10.65,-0.45,107
10.65,-0.3,123
10.65,-0.15,110
10.65,0.0,105
10.65,0.15,114
10.65,0.3,114
10.65,0.45,128
10.65,0.6,140
10.65,0.75,148
10.65,0.9,135
10.65,1.05,117
10.65,1.2,87
10.65,1.35,76
10.65,1.5,71
10.8,-1.5,80
10.8,-1.35,83
10.8,-1.2,84
10.8,-1.05,93
10.8,-0.9,103
10.8,-0.75,111
10.8,-0.6,108
10.8,-0.45,107
10.8,-0.3,117
10.8,-0.15,101
10.8,0.0,86
10.8,0.15,92
10.8,0.3,111
10.8,0.45,111
10.8,0.6,112
10.8,0.75,113
10.8,0.9,111
10.8,1.05,109
10.8,1.2,105
10.8,1.35,106
10.8,1.5,109
10.95,-1.5,81
10.95,-1.35,80
10.95,-1.2,77
10.95,-1.05,76
10.95,-0.9,86
10.95,-0.75,105
10.95,-0.6,114
10.95,-0.45,107
10.95,-0.3,110
10.95,-0.15,114
10.95,0.0,96
10.95,0.15,93
10.95,0.3,107
10.95,0.45,100
10.95,0.6,97
10.95,0.75,97
10.95,0.9,99
10.95,1.05,102
10.95,1.2,106
10.95,1.35,111
10.95,1.5,117
11.1,-1.5,81
11.1,-1.35,80
11.1,-1.2,77
11.1,-1.05,58
11.1,-0.9,60
11.1,-0.75,100
11.1,-0.6,117
11.1,-0.45,109
11.1,-0.3,109
11.1,-0.15,114
11.1,0.0,104
11.1,0.15,103
11.1,0.3,105
11.1,0.45,96
11.1,0.6,90
11.1,0.75,90
11.1,0.9,92
11.1,1.05,96
11.1,1.2,101
11.1,1.35,106
11.1,1.5,112
11.25,-1.5,81
11.25,-1.35,79
11.25,-1.2,64
11.25,-1.05,58
11.25,-0.9,68
11.25,-0.75,94
11.25,-0.6,109
11.25,-0.45,107
11.25,-0.3,110
11.25,-0.15,105
11.25,0.0,104
11.25,0.15,109
11.25,0.3,109
11.25,0.45,97
11.25,0.6,87
11.25,0.75,84
11.25,0.9,85
11.25,1.05,91
11.25,1.2,96
11.25,1.35,102
11.25,1.5,107
11.4,-1.5,60
11.4,-1.35,65
11.4,-1.2,51
11.4,-1.05,77
11.4,-0.9,98
11.4,-0.75,111
11.4,-0.6,107
11.4,-0.45,118
11.4,-0.3,125
11.4,-0.15,111
11.4,0.0,105
11.4,0.15,114
11.4,0.3,117
11.4,0.45,101
11.4,0.6,86
11.4,0.75,82
11.4,0.9,82
11.4,1.05,87
11.4,1.2,92
11.4,1.35,97
11.4,1.5,102
11.55,-1.5,25
11.55,-1.35,51
11.55,-1.2,68
11.55,-1.05,115
11.55,-0.9,141
11.55,-0.75,137
11.55,-0.6,99
11.55,-0.45,102
11.55,-0.3,116
11.55,-0.15,105
11.55,0.0,105
11.55,0.15,116
11.55,0.3,122
11.55,0.45,105
11.55,0.6,88
11.55,0.75,82
11.55,0.9,82
11.55,1.05,82
11.55,1.2,84
11.55,1.35,86
11.55,1.5,87
11.7,-1.5,12
11.7,-1.35,48
11.7,-1.2,81
11.7,-1.05,139
11.7,-0.9,166
11.7,-0.75,146
11.7,-0.6,113
11.7,-0.45,113
11.7,-0.3,120
11.7,-0.15,112
11.7,0.0,105
11.7,0.15,109
11.7,0.3,118
11.7,0.45,105
11.7,0.6,91
11.7,0.75,85
11.7,0.9,82
11.7,1.05,82
11.7,1.2,82
11.7,1.35,82
11.7,1.5,82
11.85,-1.5,56
11.85,-1.35,78
11.85,-1.2,89
11.85,-1.05,165
11.85,-0.9,187
11.85,-0.75,146
11.85,-0.6,119
11.85,-0.45,115
11.85,-0.3,128
11.85,-0.15,123
11.85,0.0,105
11.85,0.15,105
11.85,0.3,110
11.85,0.45,103
11.85,0.6,92
11.85,0.75,82
11.85,0.9,82
11.85,1.05,82
11.85,1.2,82
11.85,1.35,83
11.85,1.5,82
12.0,-1.5,102
12.0,-1.35,111
12.0,-1.2,98
12.0,-1.05,143
12.0,-0.9,155
12.0,-0.75,123
12.0,-0.6,109
12.0,-0.45,109
12.0,-0.3,113
12.0,-0.15,112
12.0,0.0,105
12.0,0.15,105
12.0,0.3,105
12.0,0.45,102
12.0,0.6,95
12.0,0.75,85
12.0,0.9,82
12.0,1.05,83
12.0,1.2,84
12.0,1.35,83
12.0,1.5,82
12.15,-1.5,184
12.15,-1.35,173
12.15,-1.2,131
12.15,-1.05,113
12.15,-0.9,109
12.15,-0.75,109
12.15,-0.6,110
12.15,-0.45,109
12.15,-0.3,110
12.15,-0.15,110
12.15,0.0,107
12.15,0.15,108
12.15,0.3,105
12.15,0.45,105
12.15,0.6,101
12.15,0.75,92
12.15,0.9,89
12.15,1.05,88
12.15,1.2,85
12.15,1.35,81
12.15,1.5,78
12.3,-1.5,182
12.3,-1.35,162
12.3,-1.2,111
12.3,-1.05,106
12.3,-0.9,111
12.3,-0.75,111
12.3,-0.6,110
12.3,-0.45,109
12.3,-0.3,112
12.3,-0.15,107
12.3,0.0,107
12.3,0.15,109
12.3,0.3,108
12.3,0.45,106
12.3,0.6,103
12.3,0.75,99
12.3,0.9,95
12.3,1.05,89
12.3,1.2,84
12.3,1.35,79
12.3,1.5,75
12.45,-1.5,168
12.45,-1.35,147
12.45,-1.2,104
12.45,-1.05,105
12.45,-0.9,110
12.45,-0.75,111
12.45,-0.6,107
12.45,-0.45,106
12.45,-0.3,112
12.45,-0.15,106
12.45,0.0,106
12.45,0.15,107
12.45,0.3,110
12.45,0.45,107
12.45,0.6,105
12.45,0.75,104
12.45,0.9,99
12.45,1.05,91
12.45,1.2,85
12.45,1.35,80
12.45,1.5,75
12.6,-1.5,108
12.6,-1.35,106
12.6,-1.2,101
12.6,-1.05,101
12.6,-0.9,102
12.6,-0.75,107
12.6,-0.6,107
12.6,-0.45,106
12.6,-0.3,106
12.6,-0.15,112
12.6,0.0,117
12.6,0.15,117
12.6,0.3,108
12.6,0.45,108
12.6,0.6,106
12.6,0.75,105
12.6,0.9,103
12.6,1.05,102
12.6,1.2,97
12.6,1.35,94
12.6,1.5,91
12.75,-1.5,98
12.75,-1.35,100
12.75,-1.2,102
12.75,-1.05,102
12.75,-0.9,104
12.75,-0.75,105
12.75,-0.6,106
12.75,-0.45,107
12.75,-0.3,107
12.75,-0.15,114
12.75,0.0,120
12.75,0.15,120
12.75,0.3,109
12.75,0.45,109
12.75,0.6,108
12.75,0.75,107
12.75,0.9,105
12.75,1.05,104
12.75,1.2,102
12.75,1.35,101
12.75,1.5,99
12.9,-1.5,102
12.9,-1.35,104
12.9,-1.2,104
12.9,-1.05,105
12.9,-0.9,106
12.9,-0.75,107
12.9,-0.6,111
12.9,-0.45,113
12.9,-0.3,113
12.9,-0.15,118
12.9,0.0,125
12.9,0.15,127
12.9,0.3,120
12.9,0.45,116
12.9,0.6,112
12.9,0.75,108
12.9,0.9,107
12.9,1.05,106
12.9,1.2,105
12.9,1.35,105
12.9,1.5,105
13.05,-1.5,107
13.05,-1.35,109
13.05,-1.2,109
13.05,-1.05,109
13.05,-0.9,110
13.05,-0.75,112
13.05,-0.6,118
13.05,-0.45,121
13.05,-0.3,122
13.05,-0.15,124
13.05,0.0,129
13.05,0.15,131
13.05,0.3,127
13.05,0.45,120
13.05,0.6,114
13.05,0.75,109
13.05,0.9,108
13.05,1.05,107
13.05,1.2,105
13.05,1.35,105
13.05,1.5,105
