-3.0,-1.5,116
-3.0,-1.35,120
-3.0,-1.2,123
-3.0,-1.05,127
-3.0,-0.9,130
-3.0,-0.75,131
-3.0,-0.6,136
-3.0,-0.45,140
-3.0,-0.3,138
-3.0,-0.15,135
-3.0,0.0,132
-3.0,0.15,130
-3.0,0.3,130
-3.0,0.45,130
-3.0,0.6,130
-3.0,0.75,130
-3.0,0.9,129
-3.0,1.05,127
-3.0,1.2,123
-3.0,1.35,120
-3.0,1.5,116
-2.85,-1.5,108
-2.85,-1.35,112
-2.85,-1.2,116
-2.85,-1.05,119
-2.85,-0.9,121
-2.85,-0.75,126
-2.85,-0.6,130
-2.85,-0.45,133
-2.85,-0.3,133
-2.85,-0.15,132
-2.85,0.0,129
-2.85,0.15,128
-2.85,0.3,129
-2.85,0.45,130
-2.85,0.6,130
-2.85,0.75,130
-2.85,0.9,129
-2.85,1.05,126
-2.85,1.2,122
-2.85,1.35,119
-2.85,1.5,115
-2.7,-1.5,103
-2.7,-1.35,105
-2.7,-1.2,108
-2.7,-1.05,111
-2.7,-0.9,114
-2.7,-0.75,121
-2.7,-0.6,124
-2.7,-0.45,125
-2.7,-0.3,126
-2.7,-0.15,127
-2.7,0.0,126
-2.7,0.15,125
-2.7,0.3,127
-2.7,0.45,129
-2.7,0.6,129
-2.7,0.75,129
-2.7,0.9,127
-2.7,1.05,124
-2.7,1.2,121
-2.7,1.35,118
-2.7,1.5,114
-2.55,-1.5,103
-2.55,-1.35,103
-2.55,-1.2,101
-2.55,-1.05,105
-2.55,-0.9,108
-2.55,-0.75,111
-2.55,-0.6,115
-2.55,-0.45,117
-2.55,-0.3,118
-2.55,-0.15,120
-2.55,0.0,120
-2.55,0.15,121
-2.55,0.3,123
-2.55,0.45,125
-2.55,0.6,126
-2.55,0.75,125
-2.55,0.9,123
-2.55,1.05,121
-2.55,1.2,119
-2.55,1.35,116
-2.55,1.5,113
-2.4,-1.5,102
-2.4,-1.35,101
-2.4,-1.2,98
-2.4,-1.05,100
-2.4,-0.9,103
-2.4,-0.75,105
-2.4,-0.6,110
-2.4,-0.45,112
-2.4,-0.3,111
-2.4,-0.15,112
-2.4,0.0,112
-2.4,0.15,113
-2.4,0.3,117
-2.4,0.45,119
-2.4,0.6,120
-2.4,0.75,120
-2.4,0.9,119
-2.4,1.05,117
-2.4,1.2,114
-2.4,1.35,112
-2.4,1.5,109
-2.25,-1.5,101
-2.25,-1.35,100
-2.25,-1.2,99
-2.25,-1.05,98
-2.25,-0.9,99
-2.25,-0.75,102
-2.25,-0.6,107
-2.25,-0.45,111
-2.25,-0.3,111
-2.25,-0.15,108
-2.25,0.0,102
-2.25,0.15,102
-2.25,0.3,109
-2.25,0.45,111
-2.25,0.6,113
-2.25,0.75,114
-2.25,0.9,112
-2.25,1.05,107
-2.25,1.2,105
-2.25,1.35,102
-2.25,1.5,98
-2.1,-1.5,100
-2.1,-1.35,99
-2.1,-1.2,98
-2.1,-1.05,98
-2.1,-0.9,99
-2.1,-0.75,103
-2.1,-0.6,110
-2.1,-0.45,118
-2.1,-0.3,119
-2.1,-0.15,110
-2.1,0.0,100
-2.1,0.15,96
-2.1,0.3,98
-2.1,0.45,103
-2.1,0.6,105
-2.1,0.75,107
-2.1,0.9,106
-2.1,1.05,105
-2.1,1.2,103
-2.1,1.35,101
-2.1,1.5,97
-1.95,-1.5,100
-1.95,-1.35,100
-1.95,-1.2,98
-1.95,-1.05,99
-1.95,-0.9,102
-1.95,-0.75,104
-1.95,-0.6,114
-1.95,-0.45,127
-1.95,-0.3,132
-1.95,-0.15,122
-1.95,0.0,105
-1.95,0.15,95
-1.95,0.3,92
-1.95,0.45,96
-1.95,0.6,98
-1.95,0.75,97
-1.95,0.9,101
-1.95,1.05,105
-1.95,1.2,104
-1.95,1.35,102
-1.95,1.5,100
-1.8,-1.5,85
-1.8,-1.35,89
-1.8,-1.2,93
-1.8,-1.05,99
-1.8,-0.9,103
-1.8,-0.75,106
-1.8,-0.6,115
-1.8,-0.45,128
-1.8,-0.3,137
-1.8,-0.15,131
-1.8,0.0,113
-1.8,0.15,97
-1.8,0.3,86
-1.8,0.45,76
-1.8,0.6,68
-1.8,0.75,63
-1.8,0.9,81
-1.8,1.05,105
-1.8,1.2,111
-1.8,1.35,113
-1.8,1.5,114
-1.65,-1.5,84
-1.65,-1.35,91
-1.65,-1.2,97
-1.65,-1.05,104
-1.65,-0.9,107
-1.65,-0.75,109
-1.65,-0.6,115
-1.65,-0.45,127
-1.65,-0.3,136
-1.65,-0.15,134
-1.65,0.0,121
-1.65,0.15,106
-1.65,0.3,93
-1.65,0.45,78
-1.65,0.6,66
-1.65,0.75,60
-1.65,0.9,78
-1.65,1.05,104
-1.65,1.2,111
-1.65,1.35,115
-1.65,1.5,118
-1.5,-1.5,85
-1.5,-1.35,94
-1.5,-1.2,104
-1.5,-1.05,110
-1.5,-0.9,111
-1.5,-0.75,114
-1.5,-0.6,118
-1.5,-0.45,127
-1.5,-0.3,135
-1.5,-0.15,135
-1.5,0.0,129
-1.5,0.15,115
-1.5,0.3,102
-1.5,0.45,88
-1.5,0.6,76
-1.5,0.75,69
-1.5,0.9,81
-1.5,1.05,100
-1.5,1.2,107
-1.5,1.35,110
-1.5,1.5,112
-1.35,-1.5,102
-1.35,-1.35,107
-1.35,-1.2,111
-1.35,-1.05,117
-1.35,-0.9,120
-1.35,-0.75,122
-1.35,-0.6,124
-1.35,-0.45,130
-1.35,-0.3,135
-1.35,-0.15,135
-1.35,0.0,132
-1.35,0.15,120
-1.35,0.3,104
-1.35,0.45,94
-1.35,0.6,84
-1.35,0.75,76
-1.35,0.9,82
-1.35,1.05,94
-1.35,1.2,101
-1.35,1.35,104
-1.35,1.5,106
-1.2,-1.5,127
-1.2,-1.35,124
-1.2,-1.2,118
-1.2,-1.05,122
-1.2,-0.9,125
-1.2,-0.75,128
-1.2,-0.6,127
-1.2,-0.45,129
-1.2,-0.3,131
-1.2,-0.15,132
-1.2,0.0,130
-1.2,0.15,118
-1.2,0.3,103
-1.2,0.45,98
-1.2,0.6,91
-1.2,0.75,83
-1.2,0.9,85
-1.2,1.05,93
-1.2,1.2,102
-1.2,1.35,105
-1.2,1.5,105
-1.05,-1.5,129
-1.05,-1.35,127
-1.05,-1.2,125
-1.05,-1.05,126
-1.05,-0.9,127
-1.05,-0.75,128
-1.05,-0.6,126
-1.05,-0.45,123
-1.05,-0.3,121
-1.05,-0.15,122
-1.05,0.0,123
-1.05,0.15,118
-1.05,0.3,110
-1.05,0.45,105
-1.05,0.6,101
-1.05,0.75,98
-1.05,0.9,96
-1.05,1.05,95
-1.05,1.2,118
-1.05,1.35,124
-1.05,1.5,124
-0.9,-1.5,131
-0.9,-1.35,130
-0.9,-1.2,129
-0.9,-1.05,128
-0.9,-0.9,128
-0.9,-0.75,127
-0.9,-0.6,124
-0.9,-0.45,118
-0.9,-0.3,115
-0.9,-0.15,121
-0.9,0.0,127
-0.9,0.15,124
-0.9,0.3,118
-0.9,0.45,114
-0.9,0.6,113
-0.9,0.75,114
-0.9,0.9,109
-0.9,1.05,101
-0.9,1.2,124
-0.9,1.35,124
-0.9,1.5,124
-0.75,-1.5,134
-0.75,-1.35,132
-0.75,-1.2,130
-0.75,-1.05,129
-0.75,-0.9,130
-0.75,-0.75,129
-0.75,-0.6,126
-0.75,-0.45,120
-0.75,-0.3,115
-0.75,-0.15,125
-0.75,0.0,134
-0.75,0.15,132
-0.75,0.3,126
-0.75,0.45,128
-0.75,0.6,133
-0.75,0.75,125
-0.75,0.9,127
-0.75,1.05,132
-0.75,1.2,124
-0.75,1.35,124
-0.75,1.5,124
-0.6,-1.5,136
-0.6,-1.35,134
-0.6,-1.2,132
-0.6,-1.05,131
-0.6,-0.9,130
-0.6,-0.75,130
-0.6,-0.6,130
-0.6,-0.45,128
-0.6,-0.3,124
-0.6,-0.15,128
-0.6,0.0,135
-0.6,0.15,138
-0.6,0.3,134
-0.6,0.45,138
-0.6,0.6,144
-0.6,0.75,135
-0.6,0.9,135
-0.6,1.05,136
-0.6,1.2,127
-0.6,1.35,124
-0.6,1.5,124
-0.45,-1.5,136
-0.45,-1.35,136
-0.45,-1.2,133
-0.45,-1.05,133
-0.45,-0.9,131
-0.45,-0.75,126
-0.45,-0.6,126
-0.45,-0.45,129
-0.45,-0.3,127
-0.45,-0.15,123
-0.45,0.0,130
-0.45,0.15,138
-0.45,0.3,144
-0.45,0.45,148
-0.45,0.6,147
-0.45,0.75,143
-0.45,0.9,140
-0.45,1.05,134
-0.45,1.2,129
-0.45,1.35,124
-0.45,1.5,124
-0.3,-1.5,136
-0.3,-1.35,136
-0.3,-1.2,137
-0.3,-1.05,135
-0.3,-0.9,130
-0.3,-0.75,121
-0.3,-0.6,119
-0.3,-0.45,120
-0.3,-0.3,121
-0.3,-0.15,119
-0.3,0.0,127
-0.3,0.15,139
-0.3,0.3,151
-0.3,0.45,160
-0.3,0.6,159
-0.3,0.75,158
-0.3,0.9,148
-0.3,1.05,138
-0.3,1.2,146
-0.3,1.35,147
-0.3,1.5,146
-0.15,-1.5,136
-0.15,-1.35,136
-0.15,-1.2,139
-0.15,-1.05,137
-0.15,-0.9,133
-0.15,-0.75,124
-0.15,-0.6,120
-0.15,-0.45,119
-0.15,-0.3,118
-0.15,-0.15,119
-0.15,0.0,130
-0.15,0.15,148
-0.15,0.3,161
-0.15,0.45,164
-0.15,0.6,162
-0.15,0.75,161
-0.15,0.9,151
-0.15,1.05,141
-0.15,1.2,157
-0.15,1.35,164
-0.15,1.5,168
0.0,-1.5,140
0.0,-1.35,139
0.0,-1.2,139
0.0,-1.05,136
0.0,-0.9,133
0.0,-0.75,127
0.0,-0.6,125
0.0,-0.45,124
0.0,-0.3,120
0.0,-0.15,118
0.0,0.0,126
0.0,0.15,145
0.0,0.3,160
0.0,0.45,158
0.0,0.6,152
0.0,0.75,151
0.0,0.9,151
0.0,1.05,153
0.0,1.2,160
0.0,1.35,165
0.0,1.5,170
0.15,-1.5,141
0.15,-1.35,139
0.15,-1.2,139
0.15,-1.05,134
0.15,-0.9,131
0.15,-0.75,128
0.15,-0.6,127
0.15,-0.45,130
0.15,-0.3,124
0.15,-0.15,115
0.15,0.0,115
0.15,0.15,127
0.15,0.3,140
0.15,0.45,141
0.15,0.6,138
0.15,0.75,138
0.15,0.9,141
0.15,1.05,147
0.15,1.2,152
0.15,1.35,159
0.15,1.5,165
0.3,-1.5,134
0.3,-1.35,134
0.3,-1.2,135
0.3,-1.05,129
0.3,-0.9,126
0.3,-0.75,131
0.3,-0.6,130
0.3,-0.45,127
0.3,-0.3,122
0.3,-0.15,118
0.3,0.0,113
0.3,0.15,114
0.3,0.3,121
0.3,0.45,123
0.3,0.6,123
0.3,0.75,126
0.3,0.9,131
0.3,1.05,137
0.3,1.2,147
0.3,1.35,155
0.3,1.5,163
0.45,-1.5,131
0.45,-1.35,130
0.45,-1.2,128
0.45,-1.05,123
0.45,-0.9,121
0.45,-0.75,127
0.45,-0.6,123
0.45,-0.45,116
0.45,-0.3,117
0.45,-0.15,122
0.45,0.0,117
0.45,0.15,112
0.45,0.3,115
0.45,0.45,115
0.45,0.6,117
0.45,0.75,118
0.45,0.9,127
0.45,1.05,136
0.45,1.2,141
0.45,1.35,147
0.45,1.5,153
0.6,-1.5,129
0.6,-1.35,128
0.6,-1.2,121
0.6,-1.05,117
0.6,-0.9,116
0.6,-0.75,119
0.6,-0.6,116
0.6,-0.45,116
0.6,-0.3,118
0.6,-0.15,122
0.6,0.0,119
0.6,0.15,110
0.6,0.3,118
0.6,0.45,121
0.6,0.6,123
0.6,0.75,118
0.6,0.9,131
0.6,1.05,141
0.6,1.2,137
0.6,1.35,135
0.6,1.5,136
0.75,-1.5,134
0.75,-1.35,130
0.75,-1.2,126
0.75,-1.05,118
0.75,-0.9,116
0.75,-0.75,116
0.75,-0.6,116
0.75,-0.45,117
0.75,-0.3,120
0.75,-0.15,114
0.75,0.0,103
0.75,0.15,101
0.75,0.3,124
0.75,0.45,125
0.75,0.6,125
0.75,0.75,122
0.75,0.9,128
0.75,1.05,137
0.75,1.2,132
0.75,1.35,131
0.75,1.5,130
0.9,-1.5,135
0.9,-1.35,128
0.9,-1.2,119
0.9,-1.05,116
0.9,-0.9,117
0.9,-0.75,116
0.9,-0.6,121
0.9,-0.45,126
0.9,-0.3,125
0.9,-0.15,120
0.9,0.0,117
0.9,0.15,108
0.9,0.3,119
0.9,0.45,122
0.9,0.6,125
0.9,0.75,124
0.9,0.9,125
0.9,1.05,128
0.9,1.2,128
0.9,1.35,127
0.9,1.5,126
1.05,-1.5,141
1.05,-1.35,129
1.05,-1.2,116
1.05,-1.05,123
1.05,-0.9,128
1.05,-0.75,118
1.05,-0.6,122
1.05,-0.45,133
1.05,-0.3,131
1.05,-0.15,120
1.05,0.0,123
1.05,0.15,125
1.05,0.3,119
1.05,0.45,119
1.05,0.6,125
1.05,0.75,125
1.05,0.9,124
1.05,1.05,121
1.05,1.2,123
1.05,1.35,123
1.05,1.5,121
1.2,-1.5,130
1.2,-1.35,122
1.2,-1.2,113
1.2,-1.05,119
1.2,-0.9,123
1.2,-0.75,112
1.2,-0.6,116
1.2,-0.45,128
1.2,-0.3,129
1.2,-0.15,118
1.2,0.0,116
1.2,0.15,136
1.2,0.3,125
1.2,0.45,120
1.2,0.6,125
1.2,0.75,125
1.2,0.9,124
1.2,1.05,119
1.2,1.2,118
1.2,1.35,117
1.2,1.5,115
1.35,-1.5,92
1.35,-1.35,97
1.35,-1.2,103
1.35,-1.05,103
1.35,-0.9,103
1.35,-0.75,103
1.35,-0.6,115
1.35,-0.45,116
1.35,-0.3,116
1.35,-0.15,118
1.35,0.0,116
1.35,0.15,123
1.35,0.3,118
1.35,0.45,124
1.35,0.6,125
1.35,0.75,125
1.35,0.9,122
1.35,1.05,118
1.35,1.2,113
1.35,1.35,110
1.35,1.5,108
1.5,-1.5,93
1.5,-1.35,102
1.5,-1.2,110
1.5,-1.05,109
1.5,-0.9,107
1.5,-0.75,115
1.5,-0.6,135
1.5,-0.45,150
1.5,-0.3,133
1.5,-0.15,118
1.5,0.0,116
1.5,0.15,118
1.5,0.3,120
1.5,0.45,125
1.5,0.6,125
1.5,0.75,125
1.5,0.9,121
1.5,1.05,116
1.5,1.2,112
1.5,1.35,108
1.5,1.5,108
1.65,-1.5,94
1.65,-1.35,106
1.65,-1.2,116
1.65,-1.05,118
1.65,-0.9,114
1.65,-0.75,118
1.65,-0.6,127
1.65,-0.45,113
1.65,-0.3,75
1.65,-0.15,116
1.65,0.0,117
1.65,0.15,118
1.65,0.3,117
1.65,0.45,121
1.65,0.6,123
1.65,0.75,123
1.65,0.9,119
1.65,1.05,114
1.65,1.2,110
1.65,1.35,108
1.65,1.5,108
1.8,-1.5,143
1.8,-1.35,139
1.8,-1.2,135
1.8,-1.05,127
1.8,-0.9,122
1.8,-0.75,114
1.8,-0.6,125
1.8,-0.45,152
1.8,-0.3,118
1.8,-0.15,122
1.8,0.0,118
1.8,0.15,119
1.8,0.3,117
1.8,0.45,117
1.8,0.6,117
1.8,0.75,117
1.8,0.9,116
1.8,1.05,113
1.8,1.2,109
1.8,1.35,108
1.8,1.5,108
1.95,-1.5,161
1.95,-1.35,151
1.95,-1.2,141
1.95,-1.05,129
1.95,-0.9,126
1.95,-0.75,123
1.95,-0.6,120
1.95,-0.45,118
1.95,-0.3,118
1.95,-0.15,118
1.95,0.0,122
1.95,0.15,134
1.95,0.3,120
1.95,0.45,117
1.95,0.6,117
1.95,0.75,117
1.95,0.9,114
1.95,1.05,111
1.95,1.2,109
1.95,1.35,108
1.95,1.5,108
2.1,-1.5,143
2.1,-1.35,140
2.1,-1.2,137
2.1,-1.05,132
2.1,-0.9,132
2.1,-0.75,132
2.1,-0.6,126
2.1,-0.45,118
2.1,-0.3,118
2.1,-0.15,124
2.1,0.0,130
2.1,0.15,123
2.1,0.3,119
2.1,0.45,120
2.1,0.6,124
2.1,0.75,118
2.1,0.9,107
2.1,1.05,103
2.1,1.2,109
2.1,1.35,109
2.1,1.5,108
2.25,-1.5,132
2.25,-1.35,131
2.25,-1.2,127
2.25,-1.05,118
2.25,-0.9,112
2.25,-0.75,115
2.25,-0.6,123
2.25,-0.45,122
2.25,-0.3,119
2.25,-0.15,119
2.25,0.0,123
2.25,0.15,119
2.25,0.3,119
2.25,0.45,124
2.25,0.6,128
2.25,0.75,122
2.25,0.9,108
2.25,1.05,103
2.25,1.2,104
2.25,1.35,102
2.25,1.5,100
2.4,-1.5,120
2.4,-1.35,120
2.4,-1.2,119
2.4,-1.05,112
2.4,-0.9,104
2.4,-0.75,108
2.4,-0.6,122
2.4,-0.45,123
2.4,-0.3,116
2.4,-0.15,117
2.4,0.0,121
2.4,0.15,122
2.4,0.3,120
2.4,0.45,125
2.4,0.6,133
2.4,0.75,129
2.4,0.9,118
2.4,1.05,107
2.4,1.2,94
2.4,1.35,87
2.4,1.5,83
2.55,-1.5,130
2.55,-1.35,128
2.55,-1.2,130
2.55,-1.05,120
2.55,-0.9,116
2.55,-0.75,122
2.55,-0.6,122
2.55,-0.45,122
2.55,-0.3,121
2.55,-0.15,116
2.55,0.0,118
2.55,0.15,125
2.55,0.3,135
2.55,0.45,124
2.55,0.6,129
2.55,0.75,137
2.55,0.9,126
2.55,1.05,106
2.55,1.2,137
2.55,1.35,154
2.55,1.5,167
2.7,-1.5,142
2.7,-1.35,135
2.7,-1.2,135
2.7,-1.05,117
2.7,-0.9,114
2.7,-0.75,122
2.7,-0.6,119
2.7,-0.45,111
2.7,-0.3,122
2.7,-0.15,115
2.7,0.0,121
2.7,0.15,113
2.7,0.3,128
2.7,0.45,121
2.7,0.6,117
2.7,0.75,138
2.7,0.9,130
2.7,1.05,110
2.7,1.2,170
2.7,1.35,204
2.7,1.5,229
2.85,-1.5,153
2.85,-1.35,138
2.85,-1.2,117
2.85,-1.05,96
2.85,-0.9,99
2.85,-0.75,121
2.85,-0.6,122
2.85,-0.45,113
2.85,-0.3,120
2.85,-0.15,116
2.85,0.0,113
2.85,0.15,121
2.85,0.3,118
2.85,0.45,106
2.85,0.6,100
2.85,0.75,136
2.85,0.9,146
2.85,1.05,160
2.85,1.2,215
2.85,1.35,255
2.85,1.5,255
3.0,-1.5,148
3.0,-1.35,135
3.0,-1.2,110
3.0,-1.05,88
3.0,-0.9,92
3.0,-0.75,115
3.0,-0.6,122
3.0,-0.45,122
3.0,-0.3,120
3.0,-0.15,107
3.0,0.0,153
3.0,0.15,135
3.0,0.3,124
3.0,0.45,124
3.0,0.6,122
3.0,0.75,133
3.0,0.9,145
3.0,1.05,167
3.0,1.2,197
3.0,1.35,226
3.0,1.5,253
3.15,-1.5,119
3.15,-1.35,119
3.15,-1.2,112
3.15,-1.05,108
3.15,-0.9,109
3.15,-0.75,116
3.15,-0.6,115
3.15,-0.45,121
3.15,-0.3,119
3.15,-0.15,111
3.15,0.0,113
3.15,0.15,115
3.15,0.3,115
3.15,0.45,120
3.15,0.6,112
3.15,0.75,126
3.15,0.9,140
3.15,1.05,131
3.15,1.2,87
3.15,1.35,61
3.15,1.5,41
3.3,-1.5,121
3.3,-1.35,124
3.3,-1.2,124
3.3,-1.05,125
3.3,-0.9,125
3.3,-0.75,125
3.3,-0.6,125
3.3,-0.45,132
3.3,-0.3,114
3.3,-0.15,119
3.3,0.0,118
3.3,0.15,123
3.3,0.3,128
3.3,0.45,119
3.3,0.6,110
3.3,0.75,118
3.3,0.9,122
3.3,1.05,103
3.3,1.2,78
3.3,1.35,61
3.3,1.5,47
3.45,-1.5,125
3.45,-1.35,125
3.45,-1.2,125
3.45,-1.05,125
3.45,-0.9,125
3.45,-0.75,107
3.45,-0.6,103
3.45,-0.45,116
3.45,-0.3,119
3.45,-0.15,120
3.45,0.0,109
3.45,0.15,140
3.45,0.3,116
3.45,0.45,106
3.45,0.6,125
3.45,0.75,126
3.45,0.9,108
3.45,1.05,79
3.45,1.2,66
3.45,1.35,58
3.45,1.5,51
3.6,-1.5,120
3.6,-1.35,122
3.6,-1.2,121
3.6,-1.05,121
3.6,-0.9,119
3.6,-0.75,114
3.6,-0.6,112
3.6,-0.45,120
3.6,-0.3,123
3.6,-0.15,123
3.6,0.0,123
3.6,0.15,119
3.6,0.3,117
3.6,0.45,116
3.6,0.6,137
3.6,0.75,112
3.6,0.9,93
3.6,1.05,94
3.6,1.2,82
3.6,1.35,82
3.6,1.5,87
3.75,-1.5,117
3.75,-1.35,118
3.75,-1.2,117
3.75,-1.05,114
3.75,-0.9,114
3.75,-0.75,120
3.75,-0.6,128
3.75,-0.45,115
3.75,-0.3,120
3.75,-0.15,119
3.75,0.0,111
3.75,0.15,104
3.75,0.3,152
3.75,0.45,155
3.75,0.6,155
3.75,0.75,107
3.75,0.9,80
3.75,1.05,87
3.75,1.2,82
3.75,1.35,87
3.75,1.5,96
3.9,-1.5,116
3.9,-1.35,118
3.9,-1.2,117
3.9,-1.05,115
3.9,-0.9,114
3.9,-0.75,117
3.9,-0.6,118
3.9,-0.45,120
3.9,-0.3,99
3.9,-0.15,117
3.9,0.0,108
3.9,0.15,120
3.9,0.3,198
3.9,0.45,153
3.9,0.6,131
3.9,0.75,91
3.9,0.9,61
3.9,1.05,62
3.9,1.2,73
3.9,1.35,80
3.9,1.5,86
4.05,-1.5,114
4.05,-1.35,117
4.05,-1.2,118
4.05,-1.05,117
4.05,-0.9,119
4.05,-0.75,120
4.05,-0.6,120
4.05,-0.45,120
4.05,-0.3,110
4.05,-0.15,114
4.05,0.0,108
4.05,0.15,116
4.05,0.3,129
4.05,0.45,129
4.05,0.6,119
4.05,0.75,100
4.05,0.9,74
4.05,1.05,56
4.05,1.2,52
4.05,1.35,48
4.05,1.5,44
4.2,-1.5,109
4.2,-1.35,114
4.2,-1.2,117
4.2,-1.05,115
4.2,-0.9,117
4.2,-0.75,119
4.2,-0.6,117
4.2,-0.45,116
4.2,-0.3,110
4.2,-0.15,115
4.2,0.0,119
4.2,0.15,119
4.2,0.3,132
4.2,0.45,132
4.2,0.6,121
4.2,0.75,120
4.2,0.9,101
4.2,1.05,55
4.2,1.2,38
4.2,1.35,19
4.2,1.5,0
4.35,-1.5,109
4.35,-1.35,113
4.35,-1.2,114
4.35,-1.05,113
4.35,-0.9,114
4.35,-0.75,116
4.35,-0.6,120
4.35,-0.45,117
4.35,-0.3,169
4.35,-0.15,123
4.35,0.0,134
4.35,0.15,105
4.35,0.3,128
4.35,0.45,130
4.35,0.6,139
4.35,0.75,124
4.35,0.9,120
4.35,1.05,111
4.35,1.2,108
4.35,1.35,107
4.35,1.5,109
4.5,-1.5,108
4.5,-1.35,109
4.5,-1.2,110
4.5,-1.05,111
4.5,-0.9,111
4.5,-0.75,116
4.5,-0.6,128
4.5,-0.45,138
4.5,-0.3,158
4.5,-0.15,138
4.5,0.0,118
4.5,0.15,115
4.5,0.3,130
4.5,0.45,119
4.5,0.6,127
4.5,0.75,127
4.5,0.9,131
4.5,1.05,140
4.5,1.2,143
4.5,1.35,152
4.5,1.5,165
4.65,-1.5,98
4.65,-1.35,103
4.65,-1.2,107
4.65,-1.05,113
4.65,-0.9,111
4.65,-0.75,123
4.65,-0.6,138
4.65,-0.45,117
4.65,-0.3,122
4.65,-0.15,121
4.65,0.0,120
4.65,0.15,130
4.65,0.3,130
4.65,0.45,127
4.65,0.6,119
4.65,0.75,136
4.65,0.9,145
4.65,1.05,141
4.65,1.2,138
4.65,1.35,144
4.65,1.5,153
4.8,-1.5,107
4.8,-1.35,108
4.8,-1.2,110
4.8,-1.05,116
4.8,-0.9,114
4.8,-0.75,130
4.8,-0.6,131
4.8,-0.45,117
4.8,-0.3,117
4.8,-0.15,125
4.8,0.0,117
4.8,0.15,130
4.8,0.3,119
4.8,0.45,119
4.8,0.6,119
4.8,0.75,131
4.8,0.9,143
4.8,1.05,148
4.8,1.2,134
4.8,1.35,135
4.8,1.5,142
4.95,-1.5,159
4.95,-1.35,148
4.95,-1.2,140
4.95,-1.05,126
4.95,-0.9,118
4.95,-0.75,121
4.95,-0.6,124
4.95,-0.45,129
4.95,-0.3,152
4.95,-0.15,117
4.95,0.0,117
4.95,0.15,120
4.95,0.3,119
4.95,0.45,134
4.95,0.6,128
4.95,0.75,150
4.95,0.9,149
4.95,1.05,146
4.95,1.2,124
4.95,1.35,120
4.95,1.5,123
5.1,-1.5,130
5.1,-1.35,131
5.1,-1.2,138
5.1,-1.05,132
5.1,-0.9,127
5.1,-0.75,118
5.1,-0.6,137
5.1,-0.45,127
5.1,-0.3,147
5.1,-0.15,117
5.1,0.0,125
5.1,0.15,114
5.1,0.3,121
5.1,0.45,149
5.1,0.6,163
5.1,0.75,168
5.1,0.9,148
5.1,1.05,128
5.1,1.2,111
5.1,1.35,106
5.1,1.5,106
5.25,-1.5,90
5.25,-1.35,103
5.25,-1.2,126
5.25,-1.05,135
5.25,-0.9,135
5.25,-0.75,116
5.25,-0.6,123
5.25,-0.45,113
5.25,-0.3,60
5.25,-0.15,147
5.25,0.0,109
5.25,0.15,127
5.25,0.3,123
5.25,0.45,148
5.25,0.6,171
5.25,0.75,167
5.25,0.9,142
5.25,1.05,116
5.25,1.2,101
5.25,1.35,96
5.25,1.5,94
5.4,-1.5,86
5.4,-1.35,93
5.4,-1.2,104
5.4,-1.05,118
5.4,-0.9,126
5.4,-0.75,127
5.4,-0.6,93
5.4,-0.45,104
5.4,-0.3,93
5.4,-0.15,126
5.4,0.0,127
5.4,0.15,93
5.4,0.3,119
5.4,0.45,118
5.4,0.6,158
5.4,0.75,163
5.4,0.9,154
5.4,1.05,139
5.4,1.2,97
5.4,1.35,82
5.4,1.5,75
5.55,-1.5,81
5.55,-1.35,88
5.55,-1.2,92
5.55,-1.05,109
5.55,-0.9,122
5.55,-0.75,136
5.55,-0.6,55
5.55,-0.45,74
5.55,-0.3,82
5.55,-0.15,113
5.55,0.0,116
5.55,0.15,122
5.55,0.3,142
5.55,0.45,117
5.55,0.6,139
5.55,0.75,150
5.55,0.9,146
5.55,1.05,136
5.55,1.2,104
5.55,1.35,91
5.55,1.5,85
5.7,-1.5,54
5.7,-1.35,74
5.7,-1.2,86
5.7,-1.05,104
5.7,-0.9,121
5.7,-0.75,126
5.7,-0.6,0
5.7,-0.45,0
5.7,-0.3,0
5.7,-0.15,121
5.7,0.0,123
5.7,0.15,119
5.7,0.3,117
5.7,0.45,117
5.7,0.6,129
5.7,0.75,120
5.7,0.9,117
5.7,1.05,115
5.7,1.2,135
5.7,1.35,146
5.7,1.5,153
5.85,-1.5,29
5.85,-1.35,62
5.85,-1.2,90
5.85,-1.05,109
5.85,-0.9,131
5.85,-0.75,141
5.85,-0.6,0
5.85,-0.45,0
5.85,-0.3,92
5.85,-0.15,121
5.85,0.0,140
5.85,0.15,116
5.85,0.3,122
5.85,0.45,116
5.85,0.6,121
5.85,0.75,115
5.85,0.9,113
5.85,1.05,112
5.85,1.2,125
5.85,1.35,133
5.85,1.5,138
6.0,-1.5,9
6.0,-1.35,50
6.0,-1.2,100
6.0,-1.05,114
6.0,-0.9,127
6.0,-0.75,121
6.0,-0.6,119
6.0,-0.45,67
6.0,-0.3,140
6.0,-0.15,127
6.0,0.0,117
6.0,0.15,124
6.0,0.3,116
6.0,0.45,113
6.0,0.6,112
6.0,0.75,112
6.0,0.9,111
6.0,1.05,111
6.0,1.2,112
6.0,1.35,112
6.0,1.5,111
6.15,-1.5,4
6.15,-1.35,36
6.15,-1.2,89
6.15,-1.05,119
6.15,-0.9,127
6.15,-0.75,116
6.15,-0.6,116
6.15,-0.45,113
6.15,-0.3,148
6.15,-0.15,119
6.15,0.0,139
6.15,0.15,115
6.15,0.3,120
6.15,0.45,114
6.15,0.6,114
6.15,0.75,112
6.15,0.9,111
6.15,1.05,109
6.15,1.2,110
6.15,1.35,110
6.15,1.5,110
6.3,-1.5,1
6.3,-1.35,20
6.3,-1.2,58
6.3,-1.05,107
6.3,-0.9,127
6.3,-0.75,111
6.3,-0.6,123
6.3,-0.45,115
6.3,-0.3,180
6.3,-0.15,114
6.3,0.0,116
6.3,0.15,125
6.3,0.3,107
6.3,0.45,110
6.3,0.6,114
6.3,0.75,112
6.3,0.9,110
6.3,1.05,109
6.3,1.2,109
6.3,1.35,109
6.3,1.5,109
6.45,-1.5,0
6.45,-1.35,0
6.45,-1.2,43
6.45,-1.05,84
6.45,-0.9,107
6.45,-0.75,113
6.45,-0.6,188
6.45,-0.45,135
6.45,-0.3,159
6.45,-0.15,114
6.45,0.0,114
6.45,0.15,68
6.45,0.3,137
6.45,0.45,111
6.45,0.6,112
6.45,0.75,111
6.45,0.9,109
6.45,1.05,108
6.45,1.2,108
6.45,1.35,108
6.45,1.5,108
6.6,-1.5,0
6.6,-1.35,0
6.6,-1.2,50
6.6,-1.05,84
6.6,-0.9,115
6.6,-0.75,145
6.6,-0.6,146
6.6,-0.45,137
6.6,-0.3,169
6.6,-0.15,114
6.6,0.0,120
6.6,0.15,119
6.6,0.3,143
6.6,0.45,118
6.6,0.6,112
6.6,0.75,111
6.6,0.9,109
6.6,1.05,108
6.6,1.2,108
6.6,1.35,108
6.6,1.5,108
6.75,-1.5,0
6.75,-1.35,20
6.75,-1.2,52
6.75,-1.05,153
6.75,-0.9,205
6.75,-0.75,121
6.75,-0.6,131
6.75,-0.45,126
6.75,-0.3,123
6.75,-0.15,116
6.75,0.0,116
6.75,0.15,122
6.75,0.3,117
6.75,0.45,115
6.75,0.6,114
6.75,0.75,109
6.75,0.9,107
6.75,1.05,108
6.75,1.2,108
6.75,1.35,108
6.75,1.5,108
6.9,-1.5,8
6.9,-1.35,55
6.9,-1.2,107
6.9,-1.05,255
6.9,-0.9,255
6.9,-0.75,210
6.9,-0.6,130
6.9,-0.45,119
6.9,-0.3,123
6.9,-0.15,116
6.9,0.0,124
6.9,0.15,115
6.9,0.3,116
6.9,0.45,120
6.9,0.6,115
6.9,0.75,108
6.9,0.9,106
6.9,1.05,112
6.9,1.2,116
6.9,1.35,119
6.9,1.5,121
7.05,-1.5,43
7.05,-1.35,98
7.05,-1.2,151
7.05,-1.05,255
7.05,-0.9,255
7.05,-0.75,174
7.05,-0.6,121
7.05,-0.45,119
7.05,-0.3,119
7.05,-0.15,119
7.05,0.0,115
7.05,0.15,145
7.05,0.3,130
7.05,0.45,113
7.05,0.6,107
7.05,0.75,99
7.05,0.9,103
7.05,1.05,116
7.05,1.2,127
7.05,1.35,135
7.05,1.5,142
7.2,-1.5,249
7.2,-1.35,249
7.2,-1.2,249
7.2,-1.05,254
7.2,-0.9,184
7.2,-0.75,108
7.2,-0.6,102
7.2,-0.45,115
7.2,-0.3,115
7.2,-0.15,115
7.2,0.0,129
7.2,0.15,117
7.2,0.3,85
7.2,0.45,84
7.2,0.6,99
7.2,0.75,106
7.2,0.9,114
7.2,1.05,128
7.2,1.2,141
7.2,1.35,151
7.2,1.5,160
7.35,-1.5,249
7.35,-1.35,249
7.35,-1.2,233
7.35,-1.05,194
7.35,-0.9,127
7.35,-0.75,90
7.35,-0.6,103
7.35,-0.45,115
7.35,-0.3,115
7.35,-0.15,122
7.35,0.0,127
7.35,0.15,127
7.35,0.3,85
7.35,0.45,77
7.35,0.6,98
7.35,0.75,113
7.35,0.9,123
7.35,1.05,137
7.35,1.2,148
7.35,1.35,157
7.35,1.5,166
7.5,-1.5,249
7.5,-1.35,222
7.5,-1.2,183
7.5,-1.05,140
7.5,-0.9,120
7.5,-0.75,120
7.5,-0.6,115
7.5,-0.45,117
7.5,-0.3,122
7.5,-0.15,121
7.5,0.0,118
7.5,0.15,113
7.5,0.3,122
7.5,0.45,112
7.5,0.6,108
7.5,0.75,116
7.5,0.9,131
7.5,1.05,148
7.5,1.2,137
7.5,1.35,137
7.5,1.5,139
7.65,-1.5,215
7.65,-1.35,180
7.65,-1.2,139
7.65,-1.05,121
7.65,-0.9,115
7.65,-0.75,117
7.65,-0.6,119
7.65,-0.45,114
7.65,-0.3,114
7.65,-0.15,122
7.65,0.0,117
7.65,0.15,122
7.65,0.3,122
7.65,0.45,119
7.65,0.6,118
7.65,0.75,128
7.65,0.9,139
7.65,1.05,148
7.65,1.2,141
7.65,1.35,140
7.65,1.5,142
7.8,-1.5,193
7.8,-1.35,155
7.8,-1.2,109
7.8,-1.05,111
7.8,-0.9,117
7.8,-0.75,116
7.8,-0.6,140
7.8,-0.45,114
7.8,-0.3,115
7.8,-0.15,114
7.8,0.0,107
7.8,0.15,121
7.8,0.3,118
7.8,0.45,126
7.8,0.6,134
7.8,0.75,146
7.8,0.9,146
7.8,1.05,139
7.8,1.2,143
7.8,1.35,147
7.8,1.5,150
7.95,-1.5,141
7.95,-1.35,124
7.95,-1.2,106
7.95,-1.05,108
7.95,-0.9,114
7.95,-0.75,125
7.95,-0.6,139
7.95,-0.45,123
7.95,-0.3,142
7.95,-0.15,119
7.95,0.0,127
7.95,0.15,117
7.95,0.3,125
7.95,0.45,129
7.95,0.6,131
7.95,0.75,136
7.95,0.9,141
7.95,1.05,146
7.95,1.2,156
7.95,1.35,162
7.95,1.5,167
8.1,-1.5,125
8.1,-1.35,119
8.1,-1.2,112
8.1,-1.05,113
8.1,-0.9,113
8.1,-0.75,120
8.1,-0.6,129
8.1,-0.45,129
8.1,-0.3,137
8.1,-0.15,118
8.1,0.0,124
8.1,0.15,127
8.1,0.3,144
8.1,0.45,137
8.1,0.6,130
8.1,0.75,127
8.1,0.9,138
8.1,1.05,159
8.1,1.2,166
8.1,1.35,173
8.1,1.5,179
8.25,-1.5,121
8.25,-1.35,122
8.25,-1.2,125
8.25,-1.05,142
8.25,-0.9,134
8.25,-0.75,125
8.25,-0.6,109
8.25,-0.45,137
8.25,-0.3,124
8.25,-0.15,94
8.25,0.0,114
8.25,0.15,114
8.25,0.3,130
8.25,0.45,133
8.25,0.6,130
8.25,0.75,127
8.25,0.9,142
8.25,1.05,167
8.25,1.2,157
8.25,1.35,154
8.25,1.5,154
8.4,-1.5,134
8.4,-1.35,137
8.4,-1.2,143
8.4,-1.05,181
8.4,-0.9,165
8.4,-0.75,113
8.4,-0.6,72
8.4,-0.45,90
8.4,-0.3,118
8.4,-0.15,100
8.4,0.0,116
8.4,0.15,126
8.4,0.3,114
8.4,0.45,118
8.4,0.6,127
8.4,0.75,137
8.4,0.9,152
8.4,1.05,167
8.4,1.2,156
8.4,1.35,152
8.4,1.5,152
8.55,-1.5,164
8.55,-1.35,162
8.55,-1.2,160
8.55,-1.05,205
8.55,-0.9,186
8.55,-0.75,119
8.55,-0.6,137
8.55,-0.45,119
8.55,-0.3,137
8.55,-0.15,120
8.55,0.0,119
8.55,0.15,121
8.55,0.3,119
8.55,0.45,120
8.55,0.6,136
8.55,0.75,174
8.55,0.9,173
8.55,1.05,152
8.55,1.2,152
8.55,1.35,152
8.55,1.5,152
8.7,-1.5,176
8.7,-1.35,168
8.7,-1.2,159
8.7,-1.05,187
8.7,-0.9,173
8.7,-0.75,118
8.7,-0.6,131
8.7,-0.45,125
8.7,-0.3,119
8.7,-0.15,115
8.7,0.0,101
8.7,0.15,117
8.7,0.3,122
8.7,0.45,137
8.7,0.6,154
8.7,0.75,167
8.7,0.9,175
8.7,1.05,176
8.7,1.2,163
8.7,1.35,159
8.7,1.5,158
8.85,-1.5,167
8.85,-1.35,157
8.85,-1.2,146
8.85,-1.05,157
8.85,-0.9,148
8.85,-0.75,123
8.85,-0.6,118
8.85,-0.45,126
8.85,-0.3,126
8.85,-0.15,107
8.85,0.0,122
8.85,0.15,115
8.85,0.3,127
8.85,0.45,151
8.85,0.6,164
8.85,0.75,163
8.85,0.9,175
8.85,1.05,193
8.85,1.2,174
8.85,1.35,169
8.85,1.5,169
9.0,-1.5,144
9.0,-1.35,135
9.0,-1.2,108
9.0,-1.05,106
9.0,-0.9,111
9.0,-0.75,121
9.0,-0.6,118
9.0,-0.45,126
9.0,-0.3,114
9.0,-0.15,126
9.0,0.0,121
9.0,0.15,119
9.0,0.3,133
9.0,0.45,156
9.0,0.6,167
9.0,0.75,173
9.0,0.9,176
9.0,1.05,175
9.0,1.2,169
9.0,1.35,169
9.0,1.5,169
9.15,-1.5,117
9.15,-1.35,115
9.15,-1.2,100
9.15,-1.05,100
9.15,-0.9,113
9.15,-0.75,121
9.15,-0.6,118
9.15,-0.45,123
9.15,-0.3,120
9.15,-0.15,112
9.15,0.0,104
9.15,0.15,97
9.15,0.3,120
9.15,0.45,144
9.15,0.6,157
9.15,0.75,169
9.15,0.9,174
9.15,1.05,171
9.15,1.2,169
9.15,1.35,169
9.15,1.5,169
9.3,-1.5,63
9.3,-1.35,79
9.3,-1.2,95
9.3,-1.05,109
9.3,-0.9,121
9.3,-0.75,121
9.3,-0.6,116
9.3,-0.45,117
9.3,-0.3,114
9.3,-0.15,120
9.3,0.0,127
9.3,0.15,89
9.3,0.3,111
9.3,0.45,127
9.3,0.6,143
9.3,0.75,161
9.3,0.9,172
9.3,1.05,174
9.3,1.2,173
9.3,1.35,173
9.3,1.5,174
9.45,-1.5,85
9.45,-1.35,95
9.45,-1.2,108
9.45,-1.05,109
9.45,-0.9,116
9.45,-0.75,116
9.45,-0.6,119
9.45,-0.45,118
9.45,-0.3,112
9.45,-0.15,110
9.45,0.0,138
9.45,0.15,106
9.45,0.3,116
9.45,0.45,125
9.45,0.6,133
9.45,0.75,148
9.45,0.9,163
9.45,1.05,173
9.45,1.2,173
9.45,1.35,176
9.45,1.5,181
9.6,-1.5,142
9.6,-1.35,138
9.6,-1.2,140
9.6,-1.05,121
9.6,-0.9,121
9.6,-0.75,123
9.6,-0.6,115
9.6,-0.45,134
9.6,-0.3,124
9.6,-0.15,93
9.6,0.0,116
9.6,0.15,132
9.6,0.3,125
9.6,0.45,126
9.6,0.6,125
9.6,0.75,129
9.6,0.9,150
9.6,1.05,170
9.6,1.2,173
9.6,1.35,179
9.6,1.5,187
9.75,-1.5,150
9.75,-1.35,144
9.75,-1.2,140
9.75,-1.05,162
9.75,-0.9,161
9.75,-0.75,125
9.75,-0.6,127
9.75,-0.45,115
9.75,-0.3,115
9.75,-0.15,123
9.75,0.0,104
9.75,0.15,132
9.75,0.3,132
9.75,0.45,126
9.75,0.6,129
9.75,0.75,126
9.75,0.9,137
9.75,1.05,152
9.75,1.2,164
9.75,1.35,174
9.75,1.5,184
9.9,-1.5,157
9.9,-1.35,152
9.9,-1.2,150
9.9,-1.05,175
9.9,-0.9,157
9.9,-0.75,118
9.9,-0.6,117
9.9,-0.45,121
9.9,-0.3,131
9.9,-0.15,120
9.9,0.0,129
9.9,0.15,132
9.9,0.3,132
9.9,0.45,126
9.9,0.6,129
9.9,0.75,128
9.9,0.9,132
9.9,1.05,140
9.9,1.2,153
9.9,1.35,164
9.9,1.5,174
10.05,-1.5,163
10.05,-1.35,166
10.05,-1.2,185
10.05,-1.05,176
10.05,-0.9,161
10.05,-0.75,132
10.05,-0.6,128
10.05,-0.45,117
10.05,-0.3,117
10.05,-0.15,117
10.05,0.0,117
10.05,0.15,119
10.05,0.3,120
10.05,0.45,120
10.05,0.6,119
10.05,0.75,127
10.05,0.9,129
10.05,1.05,129
10.05,1.2,124
10.05,1.35,125
10.05,1.5,127
10.2,-1.5,183
10.2,-1.35,179
10.2,-1.2,185
10.2,-1.05,173
10.2,-0.9,158
10.2,-0.75,133
10.2,-0.6,122
10.2,-0.45,138
10.2,-0.3,120
10.2,-0.15,119
10.2,0.0,119
10.2,0.15,117
10.2,0.3,117
10.2,0.45,118
10.2,0.6,119
10.2,0.75,123
10.2,0.9,121
10.2,1.05,117
10.2,1.2,113
10.2,1.35,113
10.2,1.5,115
10.35,-1.5,222
10.35,-1.35,198
10.35,-1.2,151
10.35,-1.05,155
10.35,-0.9,132
10.35,-0.75,120
10.35,-0.6,120
10.35,-0.45,120
10.35,-0.3,126
10.35,-0.15,132
10.35,0.0,128
10.35,0.15,118
10.35,0.3,117
10.35,0.45,120
10.35,0.6,121
10.35,0.75,115
10.35,0.9,105
10.35,1.05,99
10.35,1.2,107
10.35,1.35,112
10.35,1.5,114
10.5,-1.5,193
10.5,-1.35,180
10.5,-1.2,158
10.5,-1.05,146
10.5,-0.9,134
10.5,-0.75,126
10.5,-0.6,120
10.5,-0.45,123
10.5,-0.3,139
10.5,-0.15,144
10.5,0.0,134
10.5,0.15,129
10.5,0.3,132
10.5,0.45,133
10.5,0.6,128
10.5,0.75,115
10.5,0.9,107
10.5,1.05,99
10.5,1.2,99
10.5,1.35,98
10.5,1.5,95
10.65,-1.5,158
10.65,-1.35,157
10.65,-1.2,166
10.65,-1.05,145
10.65,-0.9,140
10.65,-0.75,170
10.65,-0.6,155
10.65,-0.45,119
10.65,-0.3,118
10.65,-0.15,124
10.65,0.0,121
10.65,0.15,128
10.65,0.3,139
10.65,0.45,138
10.65,0.6,129
10.65,0.75,115
10.65,0.9,109
10.65,1.05,104
10.65,1.2,97
10.65,1.35,89
10.65,1.5,82
10.8,-1.5,121
10.8,-1.35,128
10.8,-1.2,148
10.8,-1.05,134
10.8,-0.9,150
10.8,-0.75,222
10.8,-0.6,163
10.8,-0.45,125
10.8,-0.3,125
10.8,-0.15,111
10.8,0.0,106
10.8,0.15,120
10.8,0.3,133
10.8,0.45,133
10.8,0.6,125
10.8,0.75,122
10.8,0.9,116
10.8,1.05,110
10.8,1.2,98
10.8,1.35,90
10.8,1.5,85
10.95,-1.5,116
10.95,-1.35,123
10.95,-1.2,138
10.95,-1.05,134
10.95,-0.9,141
10.95,-0.75,152
10.95,-0.6,117
10.95,-0.45,131
10.95,-0.3,123
10.95,-0.15,114
10.95,0.0,110
10.95,0.15,121
10.95,0.3,130
10.95,0.45,127
10.95,0.6,122
10.95,0.75,128
10.95,0.9,124
10.95,1.05,118
10.95,1.2,104
10.95,1.35,96
10.95,1.5,90
11.1,-1.5,147
11.1,-1.35,139
11.1,-1.2,125
11.1,-1.05,169
11.1,-0.9,166
11.1,-0.75,114
11.1,-0.6,116
11.1,-0.45,116
11.1,-0.3,117
11.1,-0.15,119
11.1,0.0,121
11.1,0.15,129
11.1,0.3,132
11.1,0.45,133
11.1,0.6,139
11.1,0.75,142
11.1,0.9,133
11.1,1.05,122
11.1,1.2,112
11.1,1.35,104
11.1,1.5,97
11.25,-1.5,143
11.25,-1.35,134
11.25,-1.2,119
11.25,-1.05,134
11.25,-0.9,131
11.25,-0.75,114
11.25,-0.6,118
11.25,-0.45,116
11.25,-0.3,121
11.25,-0.15,122
11.25,0.0,125
11.25,0.15,134
11.25,0.3,145
11.25,0.45,159
11.25,0.6,166
11.25,0.75,163
11.25,0.9,150
11.25,1.05,137
11.25,1.2,127
11.25,1.35,119
11.25,1.5,113
11.4,-1.5,137
11.4,-1.35,130
11.4,-1.2,118
11.4,-1.05,104
11.4,-0.9,106
11.4,-0.75,119
11.4,-0.6,118
11.4,-0.45,123
11.4,-0.3,135
11.4,-0.15,134
11.4,0.0,128
11.4,0.15,141
11.4,0.3,189
11.4,0.45,204
11.4,0.6,199
11.4,0.75,179
11.4,0.9,163
11.4,1.05,149
11.4,1.2,140
11.4,1.35,134
11.4,1.5,132
11.55,-1.5,136
11.55,-1.35,134
11.55,-1.2,130
11.55,-1.05,116
11.55,-0.9,112
11.55,-0.75,120
11.55,-0.6,119
11.55,-0.45,123
11.55,-0.3,138
11.55,-0.15,128
11.55,0.0,123
11.55,0.15,140
11.55,0.3,197
11.55,0.45,215
11.55,0.6,207
11.55,0.75,188
11.55,0.9,165
11.55,1.05,148
11.55,1.2,138
11.55,1.35,133
11.55,1.5,131
11.7,-1.5,136
11.7,-1.35,136
11.7,-1.2,136
11.7,-1.05,128
11.7,-0.9,120
11.7,-0.75,116
11.7,-0.6,121
11.7,-0.45,125
11.7,-0.3,120
11.7,-0.15,120
11.7,0.0,122
11.7,0.15,136
11.7,0.3,163
11.7,0.45,186
11.7,0.6,183
11.7,0.75,171
11.7,0.9,155
11.7,1.05,141
11.7,1.2,134
11.7,1.35,130
11.7,1.5,128
11.85,-1.5,118
11.85,-1.35,127
11.85,-1.2,136
11.85,-1.05,134
11.85,-0.9,124
11.85,-0.75,100
11.85,-0.6,105
11.85,-0.45,125
11.85,-0.3,120
11.85,-0.15,129
11.85,0.0,144
11.85,0.15,141
11.85,0.3,113
11.85,0.45,131
11.85,0.6,145
11.85,0.75,144
11.85,0.9,138
11.85,1.05,129
11.85,1.2,119
11.85,1.35,110
11.85,1.5,101
12.0,-1.5,113
12.0,-1.35,121
12.0,-1.2,135
12.0,-1.05,136
12.0,-0.9,126
12.0,-0.75,101
12.0,-0.6,110
12.0,-0.45,114
12.0,-0.3,125
12.0,-0.15,157
12.0,0.0,181
12.0,0.15,164
12.0,0.3,114
12.0,0.45,126
12.0,0.6,130
12.0,0.75,131
12.0,0.9,129
12.0,1.05,122
12.0,1.2,113
12.0,1.35,105
12.0,1.5,97
12.15,-1.5,115
12.15,-1.35,113
12.15,-1.2,108
12.15,-1.05,121
12.15,-0.9,118
12.15,-0.75,118
12.15,-0.6,131
12.15,-0.45,131
12.15,-0.3,130
12.15,-0.15,145
12.15,0.0,168
12.15,0.15,162
12.15,0.3,134
12.15,0.45,140
12.15,0.6,133
12.15,0.75,128
12.15,0.9,126
12.15,1.05,121
12.15,1.2,115
12.15,1.35,109
12.15,1.5,103
12.3,-1.5,108
12.3,-1.35,105
12.3,-1.2,102
12.3,-1.05,115
12.3,-0.9,123
12.3,-0.75,127
12.3,-0.6,127
12.3,-0.45,131
12.3,-0.3,131
12.3,-0.15,127
12.3,0.0,123
12.3,0.15,127
12.3,0.3,143
12.3,0.45,143
12.3,0.6,139
12.3,0.75,131
12.3,0.9,127
12.3,1.05,124
12.3,1.2,123
12.3,1.35,122
12.3,1.5,122
12.45,-1.5,103
12.45,-1.35,99
12.45,-1.2,99
12.45,-1.05,103
12.45,-0.9,113
12.45,-0.75,121
12.45,-0.6,109
12.45,-0.45,106
12.45,-0.3,118
12.45,-0.15,116
12.45,0.0,100
12.45,0.15,96
12.45,0.3,126
12.45,0.45,141
12.45,0.6,140
12.45,0.75,133
12.45,0.9,127
12.45,1.05,124
12.45,1.2,127
12.45,1.35,129
12.45,1.5,133
12.6,-1.5,99
12.6,-1.35,96
12.6,-1.2,97
12.6,-1.05,97
12.6,-0.9,109
12.6,-0.75,125
12.6,-0.6,120
12.6,-0.45,119
12.6,-0.3,115
12.6,-0.15,104
12.6,0.0,83
12.6,0.15,73
12.6,0.3,70
12.6,0.45,105
12.6,0.6,126
12.6,0.75,140
12.6,0.9,131
12.6,1.05,123
12.6,1.2,124
12.6,1.35,126
12.6,1.5,130
12.75,-1.5,104
12.75,-1.35,98
12.75,-1.2,96
12.75,-1.05,98
12.75,-0.9,112
12.75,-0.75,127
12.75,-0.6,127
12.75,-0.45,140
12.75,-0.3,120
12.75,-0.15,84
12.75,0.0,62
12.75,0.15,56
12.75,0.3,53
12.75,0.45,79
12.75,0.6,104
12.75,0.75,136
12.75,0.9,129
12.75,1.05,122
12.75,1.2,121
12.75,1.35,122
12.75,1.5,125
12.9,-1.5,111
12.9,-1.35,105
12.9,-1.2,101
12.9,-1.05,106
12.9,-0.9,119
12.9,-0.75,123
12.9,-0.6,120
12.9,-0.45,120
12.9,-0.3,121
12.9,-0.15,74
12.9,0.0,53
12.9,0.15,45
12.9,0.3,57
12.9,0.45,55
12.9,0.6,69
12.9,0.75,111
12.9,0.9,119
12.9,1.05,120
12.9,1.2,117
12.9,1.35,118
12.9,1.5,120
13.05,-1.5,111
13.05,-1.35,111
13.05,-1.2,111
13.05,-1.05,117
13.05,-0.9,123
13.05,-0.75,122
13.05,-0.6,120
13.05,-0.45,137
13.05,-0.3,150
13.05,-0.15,103
13.05,0.0,66
13.05,0.15,52
13.05,0.3,59
13.05,0.45,59
13.05,0.6,69
13.05,0.75,107
13.05,0.9,114
13.05,1.05,116
13.05,1.2,116
13.05,1.35,116
13.05,1.5,116
