-3.0,-1.5,187
-3.0,-1.35,186
-3.0,-1.2,186
-3.0,-1.05,185
-3.0,-0.9,185
-3.0,-0.75,185
-3.0,-0.6,185
-3.0,-0.45,185
-3.0,-0.3,185
-3.0,-0.15,185
-3.0,0.0,185
-3.0,0.15,185
-3.0,0.3,185
-3.0,0.45,184
-3.0,0.6,184
-3.0,0.75,184
-3.0,0.9,184
-3.0,1.05,184
-3.0,1.2,184
-3.0,1.35,184
-3.0,1.5,184
-2.85,-1.5,188
-2.85,-1.35,187
-2.85,-1.2,187
-2.85,-1.05,186
-2.85,-0.9,185
-2.85,-0.75,185
-2.85,-0.6,185
-2.85,-0.45,185
-2.85,-0.3,185
-2.85,-0.15,185
-2.85,0.0,185
-2.85,0.15,185
-2.85,0.3,185
-2.85,0.45,184
-2.85,0.6,184
-2.85,0.75,184
-2.85,0.9,184
-2.85,1.05,184
-2.85,1.2,184
-2.85,1.35,184
-2.85,1.5,184
-2.7,-1.5,189
-2.7,-1.35,189
-2.7,-1.2,188
-2.7,-1.05,187
-2.7,-0.9,186
-2.7,-0.75,185
-2.7,-0.6,185
-2.7,-0.45,185
-2.7,-0.3,185
-2.7,-0.15,185
-2.7,0.0,185
-2.7,0.15,185
-2.7,0.3,185
-2.7,0.45,184
-2.7,0.6,184
-2.7,0.75,184
-2.7,0.9,184
-2.7,1.05,184
-2.7,1.2,184
-2.7,1.35,184
-2.7,1.5,184
-2.55,-1.5,191
-2.55,-1.35,190
-2.55,-1.2,189
-2.55,-1.05,188
-2.55,-0.9,187
-2.55,-0.75,186
-2.55,-0.6,185
-2.55,-0.45,185
-2.55,-0.3,185
-2.55,-0.15,185
-2.55,0.0,185
-2.55,0.15,185
-2.55,0.3,185
-2.55,0.45,184
-2.55,0.6,184
-2.55,0.75,184
-2.55,0.9,184
-2.55,1.05,184
-2.55,1.2,184
-2.55,1.35,184
-2.55,1.5,184
-2.4,-1.5,192
-2.4,-1.35,191
-2.4,-1.2,190
-2.4,-1.05,189
-2.4,-0.9,188
-2.4,-0.75,187
-2.4,-0.6,186
-2.4,-0.45,185
-2.4,-0.3,184
-2.4,-0.15,184
-2.4,0.0,184
-2.4,0.15,184
-2.4,0.3,184
-2.4,0.45,184
-2.4,0.6,184
-2.4,0.75,184
-2.4,0.9,184
-2.4,1.05,184
-2.4,1.2,184
-2.4,1.35,184
-2.4,1.5,184
-2.25,-1.5,193
-2.25,-1.35,192
-2.25,-1.2,191
-2.25,-1.05,190
-2.25,-0.9,189
-2.25,-0.75,188
-2.25,-0.6,186
-2.25,-0.45,185
-2.25,-0.3,184
-2.25,-0.15,184
-2.25,0.0,184
-2.25,0.15,184
-2.25,0.3,184
-2.25,0.45,184
-2.25,0.6,184
-2.25,0.75,184
-2.25,0.9,184
-2.25,1.05,184
-2.25,1.2,184
-2.25,1.35,184
-2.25,1.5,184
-2.1,-1.5,194
-2.1,-1.35,193
-2.1,-1.2,192
-2.1,-1.05,191
-2.1,-0.9,190
-2.1,-0.75,189
-2.1,-0.6,187
-2.1,-0.45,186
-2.1,-0.3,185
-2.1,-0.15,184
-2.1,0.0,183
-2.1,0.15,184
-2.1,0.3,184
-2.1,0.45,184
-2.1,0.6,183
-2.1,0.75,183
-2.1,0.9,183
-2.1,1.05,184
-2.1,1.2,184
-2.1,1.35,184
-2.1,1.5,184
-1.95,-1.5,195
-1.95,-1.35,194
-1.95,-1.2,194
-1.95,-1.05,193
-1.95,-0.9,191
-1.95,-0.75,190
-1.95,-0.6,188
-1.95,-0.45,187
-1.95,-0.3,186
-1.95,-0.15,184
-1.95,0.0,183
-1.95,0.15,184
-1.95,0.3,184
-1.95,0.45,183
-1.95,0.6,183
-1.95,0.75,183
-1.95,0.9,183
-1.95,1.05,184
-1.95,1.2,184
-1.95,1.35,184
-1.95,1.5,184
-1.8,-1.5,198
-1.8,-1.35,196
-1.8,-1.2,195
-1.8,-1.05,194
-1.8,-0.9,192
-1.8,-0.75,191
-1.8,-0.6,189
-1.8,-0.45,188
-1.8,-0.3,186
-1.8,-0.15,184
-1.8,0.0,183
-1.8,0.15,182
-1.8,0.3,182
-1.8,0.45,182
-1.8,0.6,183
-1.8,0.75,183
-1.8,0.9,184
-1.8,1.05,184
-1.8,1.2,184
-1.8,1.35,184
-1.8,1.5,184
-1.65,-1.5,200
-1.65,-1.35,198
-1.65,-1.2,197
-1.65,-1.05,195
-1.65,-0.9,194
-1.65,-0.75,192
-1.65,-0.6,190
-1.65,-0.45,188
-1.65,-0.3,186
-1.65,-0.15,184
-1.65,0.0,183
-1.65,0.15,182
-1.65,0.3,181
-1.65,0.45,182
-1.65,0.6,182
-1.65,0.75,183
-1.65,0.9,184
-1.65,1.05,184
-1.65,1.2,184
-1.65,1.35,184
-1.65,1.5,184
-1.5,-1.5,202
-1.5,-1.35,200
-1.5,-1.2,198
-1.5,-1.05,196
-1.5,-0.9,194
-1.5,-0.75,192
-1.5,-0.6,190
-1.5,-0.45,188
-1.5,-0.3,186
-1.5,-0.15,185
-1.5,0.0,183
-1.5,0.15,182
-1.5,0.3,181
-1.5,0.45,181
-1.5,0.6,182
-1.5,0.75,180
-1.5,0.9,180
-1.5,1.05,181
-1.5,1.2,183
-1.5,1.35,184
-1.5,1.5,184
-1.35,-1.5,204
-1.35,-1.35,202
-1.35,-1.2,200
-1.35,-1.05,198
-1.35,-0.9,195
-1.35,-0.75,192
-1.35,-0.6,190
-1.35,-0.45,188
-1.35,-0.3,186
-1.35,-0.15,184
-1.35,0.0,183
-1.35,0.15,182
-1.35,0.3,182
-1.35,0.45,182
-1.35,0.6,181
-1.35,0.75,179
-1.35,0.9,178
-1.35,1.05,179
-1.35,1.2,180
-1.35,1.35,181
-1.35,1.5,181
-1.2,-1.5,204
-1.2,-1.35,202
-1.2,-1.2,200
-1.2,-1.05,198
-1.2,-0.9,196
-1.2,-0.75,193
-1.2,-0.6,190
-1.2,-0.45,188
-1.2,-0.3,186
-1.2,-0.15,185
-1.2,0.0,184
-1.2,0.15,184
-1.2,0.3,183
-1.2,0.45,182
-1.2,0.6,182
-1.2,0.75,181
-1.2,0.9,181
-1.2,1.05,181
-1.2,1.2,181
-1.2,1.35,181
-1.2,1.5,181
-1.05,-1.5,199
-1.05,-1.35,198
-1.05,-1.2,198
-1.05,-1.05,197
-1.05,-0.9,196
-1.05,-0.75,193
-1.05,-0.6,190
-1.05,-0.45,188
-1.05,-0.3,186
-1.05,-0.15,185
-1.05,0.0,185
-1.05,0.15,185
-1.05,0.3,185
-1.05,0.45,184
-1.05,0.6,184
-1.05,0.75,184
-1.05,0.9,184
-1.05,1.05,183
-1.05,1.2,182
-1.05,1.35,182
-1.05,1.5,182
-0.9,-1.5,197
-0.9,-1.35,197
-0.9,-1.2,197
-0.9,-1.05,197
-0.9,-0.9,196
-0.9,-0.75,194
-0.9,-0.6,191
-0.9,-0.45,188
-0.9,-0.3,187
-0.9,-0.15,187
-0.9,0.0,187
-0.9,0.15,187
-0.9,0.3,187
-0.9,0.45,187
-0.9,0.6,187
-0.9,0.75,187
-0.9,0.9,187
-0.9,1.05,186
-0.9,1.2,186
-0.9,1.35,185
-0.9,1.5,185
-0.75,-1.5,197
-0.75,-1.35,197
-0.75,-1.2,196
-0.75,-1.05,196
-0.75,-0.9,195
-0.75,-0.75,193
-0.75,-0.6,191
-0.75,-0.45,189
-0.75,-0.3,188
-0.75,-0.15,189
-0.75,0.0,190
-0.75,0.15,190
-0.75,0.3,190
-0.75,0.45,190
-0.75,0.6,190
-0.75,0.75,189
-0.75,0.9,189
-0.75,1.05,189
-0.75,1.2,190
-0.75,1.35,190
-0.75,1.5,190
-0.6,-1.5,197
-0.6,-1.35,197
-0.6,-1.2,196
-0.6,-1.05,195
-0.6,-0.9,194
-0.6,-0.75,193
-0.6,-0.6,191
-0.6,-0.45,190
-0.6,-0.3,190
-0.6,-0.15,191
-0.6,0.0,192
-0.6,0.15,193
-0.6,0.3,193
-0.6,0.45,193
-0.6,0.6,192
-0.6,0.75,192
-0.6,0.9,192
-0.6,1.05,192
-0.6,1.2,193
-0.6,1.35,193
-0.6,1.5,194
-0.45,-1.5,197
-0.45,-1.35,197
-0.45,-1.2,197
-0.45,-1.05,196
-0.45,-0.9,195
-0.45,-0.75,193
-0.45,-0.6,192
-0.45,-0.45,190
-0.45,-0.3,191
-0.45,-0.15,192
-0.45,0.0,194
-0.45,0.15,195
-0.45,0.3,195
-0.45,0.45,195
-0.45,0.6,195
-0.45,0.75,194
-0.45,0.9,194
-0.45,1.05,194
-0.45,1.2,194
-0.45,1.35,194
-0.45,1.5,194
-0.3,-1.5,197
-0.3,-1.35,196
-0.3,-1.2,197
-0.3,-1.05,197
-0.3,-0.9,195
-0.3,-0.75,193
-0.3,-0.6,193
-0.3,-0.45,192
-0.3,-0.3,192
-0.3,-0.15,193
-0.3,0.0,194
-0.3,0.15,195
-0.3,0.3,196
-0.3,0.45,196
-0.3,0.6,196
-0.3,0.75,196
-0.3,0.9,196
-0.3,1.05,196
-0.3,1.2,196
-0.3,1.35,196
-0.3,1.5,195
-0.15,-1.5,196
-0.15,-1.35,196
-0.15,-1.2,197
-0.15,-1.05,197
-0.15,-0.9,195
-0.15,-0.75,193
-0.15,-0.6,193
-0.15,-0.45,193
-0.15,-0.3,193
-0.15,-0.15,193
-0.15,0.0,194
-0.15,0.15,195
-0.15,0.3,196
-0.15,0.45,197
-0.15,0.6,199
-0.15,0.75,198
-0.15,0.9,198
-0.15,1.05,200
-0.15,1.2,201
-0.15,1.35,202
-0.15,1.5,202
0.0,-1.5,195
0.0,-1.35,194
0.0,-1.2,195
0.0,-1.05,197
0.0,-0.9,194
0.0,-0.75,192
0.0,-0.6,193
0.0,-0.45,193
0.0,-0.3,193
0.0,-0.15,193
0.0,0.0,192
0.0,0.15,194
0.0,0.3,196
0.0,0.45,198
0.0,0.6,200
0.0,0.75,200
0.0,0.9,199
0.0,1.05,203
0.0,1.2,207
0.0,1.35,208
0.0,1.5,209
0.15,-1.5,195
0.15,-1.35,194
0.15,-1.2,194
0.15,-1.05,194
0.15,-0.9,192
0.15,-0.75,191
0.15,-0.6,191
0.15,-0.45,191
0.15,-0.3,191
0.15,-0.15,190
0.15,0.0,189
0.15,0.15,192
0.15,0.3,194
0.15,0.45,197
0.15,0.6,200
0.15,0.75,202
0.15,0.9,202
0.15,1.05,206
0.15,1.2,209
0.15,1.35,211
0.15,1.5,212
0.3,-1.5,195
0.3,-1.35,193
0.3,-1.2,192
0.3,-1.05,191
0.3,-0.9,191
0.3,-0.75,191
0.3,-0.6,190
0.3,-0.45,189
0.3,-0.3,189
0.3,-0.15,189
0.3,0.0,189
0.3,0.15,190
0.3,0.3,193
0.3,0.45,197
0.3,0.6,201
0.3,0.75,204
0.3,0.9,207
0.3,1.05,209
0.3,1.2,211
0.3,1.35,214
0.3,1.5,216
0.45,-1.5,195
0.45,-1.35,193
0.45,-1.2,191
0.45,-1.05,189
0.45,-0.9,189
0.45,-0.75,191
0.45,-0.6,191
0.45,-0.45,191
0.45,-0.3,191
0.45,-0.15,189
0.45,0.0,189
0.45,0.15,189
0.45,0.3,193
0.45,0.45,197
0.45,0.6,201
0.45,0.75,204
0.45,0.9,207
0.45,1.05,209
0.45,1.2,210
0.45,1.35,213
0.45,1.5,215
0.6,-1.5,195
0.6,-1.35,192
0.6,-1.2,190
0.6,-1.05,189
0.6,-0.9,188
0.6,-0.75,190
0.6,-0.6,191
0.6,-0.45,191
0.6,-0.3,191
0.6,-0.15,190
0.6,0.0,189
0.6,0.15,189
0.6,0.3,193
0.6,0.45,197
0.6,0.6,200
0.6,0.75,203
0.6,0.9,207
0.6,1.05,208
0.6,1.2,209
0.6,1.35,211
0.6,1.5,214
0.75,-1.5,194
0.75,-1.35,192
0.75,-1.2,190
0.75,-1.05,188
0.75,-0.9,187
0.75,-0.75,188
0.75,-0.6,189
0.75,-0.45,189
0.75,-0.3,189
0.75,-0.15,189
0.75,0.0,188
0.75,0.15,188
0.75,0.3,192
0.75,0.45,195
0.75,0.6,199
0.75,0.75,202
0.75,0.9,206
0.75,1.05,206
0.75,1.2,207
0.75,1.35,210
0.75,1.5,212
0.9,-1.5,191
0.9,-1.35,190
0.9,-1.2,189
0.9,-1.05,188
0.9,-0.9,187
0.9,-0.75,187
0.9,-0.6,187
0.9,-0.45,187
0.9,-0.3,188
0.9,-0.15,188
0.9,0.0,187
0.9,0.15,187
0.9,0.3,189
0.9,0.45,194
0.9,0.6,197
0.9,0.75,201
0.9,0.9,204
0.9,1.05,204
0.9,1.2,203
0.9,1.35,205
0.9,1.5,206
1.05,-1.5,189
1.05,-1.35,188
1.05,-1.2,188
1.05,-1.05,187
1.05,-0.9,187
1.05,-0.75,187
1.05,-0.6,188
1.05,-0.45,188
1.05,-0.3,188
1.05,-0.15,188
1.05,0.0,187
1.05,0.15,187
1.05,0.3,187
1.05,0.45,192
1.05,0.6,195
1.05,0.75,199
1.05,0.9,203
1.05,1.05,201
1.05,1.2,199
1.05,1.35,200
1.05,1.5,201
1.2,-1.5,189
1.2,-1.35,189
1.2,-1.2,188
1.2,-1.05,187
1.2,-0.9,187
1.2,-0.75,188
1.2,-0.6,188
1.2,-0.45,188
1.2,-0.3,188
1.2,-0.15,188
1.2,0.0,188
1.2,0.15,187
1.2,0.3,187
1.2,0.45,190
1.2,0.6,194
1.2,0.75,197
1.2,0.9,200
1.2,1.05,198
1.2,1.2,197
1.2,1.35,198
1.2,1.5,200
1.35,-1.5,189
1.35,-1.35,189
1.35,-1.2,188
1.35,-1.05,187
1.35,-0.9,187
1.35,-0.75,188
1.35,-0.6,188
1.35,-0.45,188
1.35,-0.3,188
1.35,-0.15,188
1.35,0.0,187
1.35,0.15,189
1.35,0.3,188
1.35,0.45,190
1.35,0.6,193
1.35,0.75,194
1.35,0.9,195
1.35,1.05,195
1.35,1.2,196
1.35,1.35,197
1.35,1.5,199
1.5,-1.5,189
1.5,-1.35,189
1.5,-1.2,189
1.5,-1.05,187
1.5,-0.9,187
1.5,-0.75,188
1.5,-0.6,188
1.5,-0.45,188
1.5,-0.3,187
1.5,-0.15,188
1.5,0.0,187
1.5,0.15,189
1.5,0.3,189
1.5,0.45,189
1.5,0.6,192
1.5,0.75,193
1.5,0.9,193
1.5,1.05,194
1.5,1.2,195
1.5,1.35,196
1.5,1.5,198
1.65,-1.5,189
1.65,-1.35,189
1.65,-1.2,189
1.65,-1.05,188
1.65,-0.9,187
1.65,-0.75,187
1.65,-0.6,188
1.65,-0.45,188
1.65,-0.3,187
1.65,-0.15,187
1.65,0.0,188
1.65,0.15,189
1.65,0.3,187
1.65,0.45,187
1.65,0.6,190
1.65,0.75,191
1.65,0.9,192
1.65,1.05,194
1.65,1.2,195
1.65,1.35,197
1.65,1.5,198
1.8,-1.5,189
1.8,-1.35,189
1.8,-1.2,189
1.8,-1.05,188
1.8,-0.9,187
1.8,-0.75,186
1.8,-0.6,188
1.8,-0.45,188
1.8,-0.3,187
1.8,-0.15,186
1.8,0.0,187
1.8,0.15,187
1.8,0.3,186
1.8,0.45,186
1.8,0.6,187
1.8,0.75,188
1.8,0.9,190
1.8,1.05,192
1.8,1.2,194
1.8,1.35,195
1.8,1.5,195
1.95,-1.5,189
1.95,-1.35,189
1.95,-1.2,189
1.95,-1.05,188
1.95,-0.9,186
1.95,-0.75,185
1.95,-0.6,186
1.95,-0.45,188
1.95,-0.3,187
1.95,-0.15,186
1.95,0.0,186
1.95,0.15,186
1.95,0.3,186
1.95,0.45,186
1.95,0.6,186
1.95,0.75,186
1.95,0.9,186
1.95,1.05,191
1.95,1.2,190
1.95,1.35,188
1.95,1.5,186
2.1,-1.5,189
2.1,-1.35,189
2.1,-1.2,188
2.1,-1.05,187
2.1,-0.9,186
2.1,-0.75,185
2.1,-0.6,186
2.1,-0.45,187
2.1,-0.3,187
2.1,-0.15,186
2.1,0.0,188
2.1,0.15,188
2.1,0.3,186
2.1,0.45,186
2.1,0.6,186
2.1,0.75,186
2.1,0.9,188
2.1,1.05,191
2.1,1.2,185
2.1,1.35,181
2.1,1.5,178
2.25,-1.5,183
2.25,-1.35,184
2.25,-1.2,186
2.25,-1.05,186
2.25,-0.9,185
2.25,-0.75,187
2.25,-0.6,188
2.25,-0.45,188
2.25,-0.3,188
2.25,-0.15,186
2.25,0.0,188
2.25,0.15,192
2.25,0.3,186
2.25,0.45,186
2.25,0.6,186
2.25,0.75,187
2.25,0.9,188
2.25,1.05,186
2.25,1.2,180
2.25,1.35,178
2.25,1.5,177
2.4,-1.5,180
2.4,-1.35,180
2.4,-1.2,183
2.4,-1.05,185
2.4,-0.9,186
2.4,-0.75,188
2.4,-0.6,188
2.4,-0.45,188
2.4,-0.3,188
2.4,-0.15,186
2.4,0.0,186
2.4,0.15,193
2.4,0.3,189
2.4,0.45,190
2.4,0.6,193
2.4,0.75,186
2.4,0.9,176
2.4,1.05,173
2.4,1.2,172
2.4,1.35,172
2.4,1.5,172
2.55,-1.5,180
2.55,-1.35,180
2.55,-1.2,181
2.55,-1.05,182
2.55,-0.9,186
2.55,-0.75,188
2.55,-0.6,188
2.55,-0.45,187
2.55,-0.3,190
2.55,-0.15,202
2.55,0.0,188
2.55,0.15,192
2.55,0.3,193
2.55,0.45,193
2.55,0.6,192
2.55,0.75,177
2.55,0.9,164
2.55,1.05,147
2.55,1.2,120
2.55,1.35,99
2.55,1.5,76
2.7,-1.5,181
2.7,-1.35,181
2.7,-1.2,180
2.7,-1.05,180
2.7,-0.9,186
2.7,-0.75,187
2.7,-0.6,187
2.7,-0.45,187
2.7,-0.3,191
2.7,-0.15,188
2.7,0.0,189
2.7,0.15,192
2.7,0.3,200
2.7,0.45,186
2.7,0.6,166
2.7,0.75,155
2.7,0.9,149
2.7,1.05,107
2.7,1.2,37
2.7,1.35,0
2.7,1.5,0
2.85,-1.5,177
2.85,-1.35,180
2.85,-1.2,181
2.85,-1.05,183
2.85,-0.9,189
2.85,-0.75,191
2.85,-0.6,188
2.85,-0.45,189
2.85,-0.3,192
2.85,-0.15,192
2.85,0.0,188
2.85,0.15,188
2.85,0.3,198
2.85,0.45,175
2.85,0.6,149
2.85,0.75,145
2.85,0.9,145
2.85,1.05,105
2.85,1.2,40
2.85,1.35,0
2.85,1.5,0
3.0,-1.5,167
3.0,-1.35,171
3.0,-1.2,182
3.0,-1.05,192
3.0,-0.9,194
3.0,-0.75,195
3.0,-0.6,192
3.0,-0.45,188
3.0,-0.3,187
3.0,-0.15,192
3.0,0.0,188
3.0,0.15,192
3.0,0.3,188
3.0,0.45,159
3.0,0.6,145
3.0,0.75,147
3.0,0.9,156
3.0,1.05,147
3.0,1.2,126
3.0,1.35,121
3.0,1.5,115
3.15,-1.5,165
3.15,-1.35,170
3.15,-1.2,180
3.15,-1.05,190
3.15,-0.9,192
3.15,-0.75,196
3.15,-0.6,194
3.15,-0.45,187
3.15,-0.3,187
3.15,-0.15,189
3.15,0.0,192
3.15,0.15,192
3.15,0.3,185
3.15,0.45,159
3.15,0.6,155
3.15,0.75,156
3.15,0.9,156
3.15,1.05,152
3.15,1.2,142
3.15,1.35,142
3.15,1.5,142
3.3,-1.5,166
3.3,-1.35,173
3.3,-1.2,180
3.3,-1.05,184
3.3,-0.9,188
3.3,-0.75,195
3.3,-0.6,196
3.3,-0.45,197
3.3,-0.3,187
3.3,-0.15,187
3.3,0.0,190
3.3,0.15,187
3.3,0.3,186
3.3,0.45,167
3.3,0.6,168
3.3,0.75,155
3.3,0.9,139
3.3,1.05,129
3.3,1.2,119
3.3,1.35,113
3.3,1.5,106
3.45,-1.5,168
3.45,-1.35,175
3.45,-1.2,180
3.45,-1.05,182
3.45,-0.9,184
3.45,-0.75,190
3.45,-0.6,193
3.45,-0.45,204
3.45,-0.3,204
3.45,-0.15,194
3.45,0.0,187
3.45,0.15,187
3.45,0.3,195
3.45,0.45,190
3.45,0.6,184
3.45,0.75,159
3.45,0.9,139
3.45,1.05,128
3.45,1.2,118
3.45,1.35,108
3.45,1.5,99
3.6,-1.5,197
3.6,-1.35,195
3.6,-1.2,188
3.6,-1.05,185
3.6,-0.9,185
3.6,-0.75,185
3.6,-0.6,187
3.6,-0.45,188
3.6,-0.3,187
3.6,-0.15,189
3.6,0.0,189
3.6,0.15,172
3.6,0.3,209
3.6,0.45,221
3.6,0.6,204
3.6,0.75,171
3.6,0.9,149
3.6,1.05,138
3.6,1.2,128
3.6,1.35,117
3.6,1.5,107
3.75,-1.5,227
3.75,-1.35,216
3.75,-1.2,197
3.75,-1.05,187
3.75,-0.9,190
3.75,-0.75,186
3.75,-0.6,185
3.75,-0.45,189
3.75,-0.3,189
3.75,-0.15,187
3.75,0.0,192
3.75,0.15,158
3.75,0.3,201
3.75,0.45,205
3.75,0.6,202
3.75,0.75,179
3.75,0.9,158
3.75,1.05,147
3.75,1.2,137
3.75,1.35,126
3.75,1.5,116
3.9,-1.5,234
3.9,-1.35,223
3.9,-1.2,205
3.9,-1.05,194
3.9,-0.9,192
3.9,-0.75,188
3.9,-0.6,185
3.9,-0.45,185
3.9,-0.3,187
3.9,-0.15,187
3.9,0.0,192
3.9,0.15,192
3.9,0.3,175
3.9,0.45,175
3.9,0.6,201
3.9,0.75,195
3.9,0.9,173
3.9,1.05,160
3.9,1.2,145
3.9,1.35,134
3.9,1.5,124
4.05,-1.5,241
4.05,-1.35,228
4.05,-1.2,217
4.05,-1.05,204
4.05,-0.9,192
4.05,-0.75,185
4.05,-0.6,188
4.05,-0.45,189
4.05,-0.3,187
4.05,-0.15,188
4.05,0.0,192
4.05,0.15,183
4.05,0.3,187
4.05,0.45,178
4.05,0.6,192
4.05,0.75,197
4.05,0.9,183
4.05,1.05,169
4.05,1.2,151
4.05,1.35,141
4.05,1.5,130
4.2,-1.5,248
4.2,-1.35,234
4.2,-1.2,221
4.2,-1.05,205
4.2,-0.9,189
4.2,-0.75,185
4.2,-0.6,189
4.2,-0.45,189
4.2,-0.3,189
4.2,-0.15,192
4.2,0.0,188
4.2,0.15,186
4.2,0.3,186
4.2,0.45,190
4.2,0.6,183
4.2,0.75,188
4.2,0.9,183
4.2,1.05,174
4.2,1.2,161
4.2,1.35,153
4.2,1.5,145
4.35,-1.5,251
4.35,-1.35,239
4.35,-1.2,225
4.35,-1.05,208
4.35,-0.9,190
4.35,-0.75,187
4.35,-0.6,187
4.35,-0.45,187
4.35,-0.3,188
4.35,-0.15,190
4.35,0.0,186
4.35,0.15,181
4.35,0.3,182
4.35,0.45,186
4.35,0.6,178
4.35,0.75,183
4.35,0.9,183
4.35,1.05,179
4.35,1.2,173
4.35,1.35,169
4.35,1.5,166
4.5,-1.5,255
4.5,-1.35,244
4.5,-1.2,234
4.5,-1.05,216
4.5,-0.9,194
4.5,-0.75,187
4.5,-0.6,187
4.5,-0.45,187
4.5,-0.3,190
4.5,-0.15,188
4.5,0.0,189
4.5,0.15,186
4.5,0.3,171
4.5,0.45,174
4.5,0.6,182
4.5,0.75,186
4.5,0.9,182
4.5,1.05,179
4.5,1.2,174
4.5,1.35,170
4.5,1.5,167
4.65,-1.5,255
4.65,-1.35,249
4.65,-1.2,241
4.65,-1.05,227
4.65,-0.9,205
4.65,-0.75,187
4.65,-0.6,188
4.65,-0.45,190
4.65,-0.3,189
4.65,-0.15,188
4.65,0.0,193
4.65,0.15,247
4.65,0.3,207
4.65,0.45,180
4.65,0.6,200
4.65,0.75,193
4.65,0.9,174
4.65,1.05,173
4.65,1.2,168
4.65,1.35,164
4.65,1.5,159
4.8,-1.5,255
4.8,-1.35,252
4.8,-1.2,243
4.8,-1.05,231
4.8,-0.9,213
4.8,-0.75,193
4.8,-0.6,188
4.8,-0.45,191
4.8,-0.3,191
4.8,-0.15,188
4.8,0.0,188
4.8,0.15,192
4.8,0.3,198
4.8,0.45,189
4.8,0.6,202
4.8,0.75,194
4.8,0.9,174
4.8,1.05,169
4.8,1.2,161
4.8,1.35,155
4.8,1.5,149
4.95,-1.5,255
4.95,-1.35,252
4.95,-1.2,233
4.95,-1.05,213
4.95,-0.9,203
4.95,-0.75,192
4.95,-0.6,185
4.95,-0.45,191
4.95,-0.3,189
4.95,-0.15,187
4.95,0.0,186
4.95,0.15,188
4.95,0.3,186
4.95,0.45,188
4.95,0.6,185
4.95,0.75,184
4.95,0.9,176
4.95,1.05,149
4.95,1.2,117
4.95,1.35,102
4.95,1.5,88
5.1,-1.5,255
5.1,-1.35,246
5.1,-1.2,221
5.1,-1.05,196
5.1,-0.9,190
5.1,-0.75,188
5.1,-0.6,191
5.1,-0.45,170
5.1,-0.3,189
5.1,-0.15,188
5.1,0.0,186
5.1,0.15,189
5.1,0.3,185
5.1,0.45,182
5.1,0.6,174
5.1,0.75,170
5.1,0.9,158
5.1,1.05,117
5.1,1.2,73
5.1,1.35,50
5.1,1.5,30
5.25,-1.5,224
5.25,-1.35,218
5.25,-1.2,200
5.25,-1.05,183
5.25,-0.9,180
5.25,-0.75,182
5.25,-0.6,191
5.25,-0.45,185
5.25,-0.3,187
5.25,-0.15,186
5.25,0.0,189
5.25,0.15,187
5.25,0.3,187
5.25,0.45,182
5.25,0.6,168
5.25,0.75,145
5.25,0.9,116
5.25,1.05,98
5.25,1.2,86
5.25,1.35,73
5.25,1.5,62
5.4,-1.5,189
5.4,-1.35,188
5.4,-1.2,180
5.4,-1.05,174
5.4,-0.9,184
5.4,-0.75,196
5.4,-0.6,200
5.4,-0.45,188
5.4,-0.3,187
5.4,-0.15,188
5.4,0.0,185
5.4,0.15,192
5.4,0.3,199
5.4,0.45,182
5.4,0.6,148
5.4,0.75,110
5.4,0.9,74
5.4,1.05,81
5.4,1.2,104
5.4,1.35,104
5.4,1.5,106
5.55,-1.5,171
5.55,-1.35,172
5.55,-1.2,171
5.55,-1.05,176
5.55,-0.9,191
5.55,-0.75,195
5.55,-0.6,190
5.55,-0.45,190
5.55,-0.3,187
5.55,-0.15,188
5.55,0.0,189
5.55,0.15,184
5.55,0.3,185
5.55,0.45,156
5.55,0.6,118
5.55,0.75,83
5.55,0.9,56
5.55,1.05,57
5.55,1.2,72
5.55,1.35,70
5.55,1.5,69
5.7,-1.5,143
5.7,-1.35,147
5.7,-1.2,157
5.7,-1.05,173
5.7,-0.9,189
5.7,-0.75,190
5.7,-0.6,185
5.7,-0.45,189
5.7,-0.3,189
5.7,-0.15,188
5.7,0.0,188
5.7,0.15,185
5.7,0.3,177
5.7,0.45,128
5.7,0.6,85
5.7,0.75,61
5.7,0.9,47
5.7,1.05,38
5.7,1.2,33
5.7,1.35,24
5.7,1.5,15
5.85,-1.5,139
5.85,-1.35,145
5.85,-1.2,157
5.85,-1.05,169
5.85,-0.9,185
5.85,-0.75,190
5.85,-0.6,175
5.85,-0.45,188
5.85,-0.3,189
5.85,-0.15,188
5.85,0.0,187
5.85,0.15,188
5.85,0.3,188
5.85,0.45,132
5.85,0.6,74
5.85,0.75,47
5.85,0.9,37
5.85,1.05,29
5.85,1.2,25
5.85,1.35,17
5.85,1.5,9
6.0,-1.5,131
6.0,-1.35,141
6.0,-1.2,155
6.0,-1.05,166
6.0,-0.9,181
6.0,-0.75,187
6.0,-0.6,189
6.0,-0.45,186
6.0,-0.3,189
6.0,-0.15,187
6.0,0.0,185
6.0,0.15,188
6.0,0.3,179
6.0,0.45,153
6.0,0.6,109
6.0,0.75,55
6.0,0.9,25
6.0,1.05,17
6.0,1.2,14
6.0,1.35,5
6.0,1.5,0
6.15,-1.5,130
6.15,-1.35,144
6.15,-1.2,158
6.15,-1.05,170
6.15,-0.9,182
6.15,-0.75,189
6.15,-0.6,187
6.15,-0.45,189
6.15,-0.3,185
6.15,-0.15,186
6.15,0.0,187
6.15,0.15,184
6.15,0.3,168
6.15,0.45,158
6.15,0.6,132
6.15,0.75,75
6.15,0.9,31
6.15,1.05,18
6.15,1.2,11
6.15,1.35,0
6.15,1.5,0
6.3,-1.5,146
6.3,-1.35,156
6.3,-1.2,166
6.3,-1.05,177
6.3,-0.9,186
6.3,-0.75,189
6.3,-0.6,188
6.3,-0.45,185
6.3,-0.3,187
6.3,-0.15,185
6.3,0.0,188
6.3,0.15,177
6.3,0.3,171
6.3,0.45,160
6.3,0.6,148
6.3,0.75,110
6.3,0.9,66
6.3,1.05,32
6.3,1.2,10
6.3,1.35,0
6.3,1.5,0
6.45,-1.5,158
6.45,-1.35,165
6.45,-1.2,171
6.45,-1.05,181
6.45,-0.9,189
6.45,-0.75,189
6.45,-0.6,189
6.45,-0.45,189
6.45,-0.3,185
6.45,-0.15,185
6.45,0.0,187
6.45,0.15,188
6.45,0.3,184
6.45,0.45,171
6.45,0.6,162
6.45,0.75,134
6.45,0.9,96
6.45,1.05,51
6.45,1.2,17
6.45,1.35,0
6.45,1.5,0
6.6,-1.5,165
6.6,-1.35,170
6.6,-1.2,180
6.6,-1.05,185
6.6,-0.9,184
6.6,-0.75,189
6.6,-0.6,185
6.6,-0.45,187
6.6,-0.3,187
6.6,-0.15,197
6.6,0.0,185
6.6,0.15,188
6.6,0.3,188
6.6,0.45,181
6.6,0.6,171
6.6,0.75,149
6.6,0.9,123
6.6,1.05,82
6.6,1.2,42
6.6,1.35,20
6.6,1.5,0
6.75,-1.5,173
6.75,-1.35,177
6.75,-1.2,195
6.75,-1.05,195
6.75,-0.9,184
6.75,-0.75,185
6.75,-0.6,191
6.75,-0.45,191
6.75,-0.3,191
6.75,-0.15,191
6.75,0.0,189
6.75,0.15,185
6.75,0.3,188
6.75,0.45,182
6.75,0.6,172
6.75,0.75,159
6.75,0.9,147
6.75,1.05,112
6.75,1.2,69
6.75,1.35,45
6.75,1.5,21
6.9,-1.5,183
6.9,-1.35,184
6.9,-1.2,197
6.9,-1.05,197
6.9,-0.9,184
6.9,-0.75,189
6.9,-0.6,189
6.9,-0.45,188
6.9,-0.3,191
6.9,-0.15,189
6.9,0.0,190
6.9,0.15,183
6.9,0.3,179
6.9,0.45,173
6.9,0.6,166
6.9,0.75,160
6.9,0.9,153
6.9,1.05,129
6.9,1.2,99
6.9,1.35,81
6.9,1.5,63
7.05,-1.5,193
7.05,-1.35,192
7.05,-1.2,195
7.05,-1.05,197
7.05,-0.9,190
7.05,-0.75,187
7.05,-0.6,191
7.05,-0.45,185
7.05,-0.3,189
7.05,-0.15,189
7.05,0.0,188
7.05,0.15,185
7.05,0.3,179
7.05,0.45,169
7.05,0.6,162
7.05,0.75,161
7.05,0.9,160
7.05,1.05,149
7.05,1.2,138
7.05,1.35,130
7.05,1.5,123
7.2,-1.5,192
7.2,-1.35,195
7.2,-1.2,197
7.2,-1.05,201
7.2,-0.9,202
7.2,-0.75,191
7.2,-0.6,185
7.2,-0.45,191
7.2,-0.3,185
7.2,-0.15,188
7.2,0.0,189
7.2,0.15,189
7.2,0.3,184
7.2,0.45,174
7.2,0.6,167
7.2,0.75,163
7.2,0.9,161
7.2,1.05,155
7.2,1.2,149
7.2,1.35,144
7.2,1.5,139
7.35,-1.5,186
7.35,-1.35,193
7.35,-1.2,199
7.35,-1.05,204
7.35,-0.9,213
7.35,-0.75,207
7.35,-0.6,177
7.35,-0.45,191
7.35,-0.3,186
7.35,-0.15,189
7.35,0.0,187
7.35,0.15,187
7.35,0.3,187
7.35,0.45,180
7.35,0.6,173
7.35,0.75,166
7.35,0.9,161
7.35,1.05,162
7.35,1.2,164
7.35,1.35,163
7.35,1.5,161
7.5,-1.5,179
7.5,-1.35,186
7.5,-1.2,193
7.5,-1.05,200
7.5,-0.9,208
7.5,-0.75,201
7.5,-0.6,186
7.5,-0.45,189
7.5,-0.3,187
7.5,-0.15,189
7.5,0.0,188
7.5,0.15,190
7.5,0.3,190
7.5,0.45,184
7.5,0.6,178
7.5,0.75,171
7.5,0.9,165
7.5,1.05,169
7.5,1.2,174
7.5,1.35,174
7.5,1.5,173
7.65,-1.5,176
7.65,-1.35,179
7.65,-1.2,183
7.65,-1.05,190
7.65,-0.9,196
7.65,-0.75,189
7.65,-0.6,186
7.65,-0.45,189
7.65,-0.3,189
7.65,-0.15,189
7.65,0.0,188
7.65,0.15,190
7.65,0.3,190
7.65,0.45,189
7.65,0.6,186
7.65,0.75,181
7.65,0.9,175
7.65,1.05,177
7.65,1.2,179
7.65,1.35,178
7.65,1.5,178
7.8,-1.5,177
7.8,-1.35,176
7.8,-1.2,175
7.8,-1.05,181
7.8,-0.9,187
7.8,-0.75,187
7.8,-0.6,187
7.8,-0.45,187
7.8,-0.3,189
7.8,-0.15,187
7.8,0.0,187
7.8,0.15,190
7.8,0.3,190
7.8,0.45,190
7.8,0.6,190
7.8,0.75,188
7.8,0.9,185
7.8,1.05,185
7.8,1.2,185
7.8,1.35,184
7.8,1.5,183
7.95,-1.5,165
7.95,-1.35,168
7.95,-1.2,172
7.95,-1.05,179
7.95,-0.9,181
7.95,-0.75,181
7.95,-0.6,188
7.95,-0.45,187
7.95,-0.3,187
7.95,-0.15,188
7.95,0.0,190
7.95,0.15,187
7.95,0.3,187
7.95,0.45,190
7.95,0.6,193
7.95,0.75,196
7.95,0.9,197
7.95,1.05,195
7.95,1.2,191
7.95,1.35,190
7.95,1.5,189
8.1,-1.5,148
8.1,-1.35,157
8.1,-1.2,174
8.1,-1.05,184
8.1,-0.9,181
8.1,-0.75,184
8.1,-0.6,188
8.1,-0.45,187
8.1,-0.3,188
8.1,-0.15,190
8.1,0.0,190
8.1,0.15,187
8.1,0.3,189
8.1,0.45,193
8.1,0.6,197
8.1,0.75,203
8.1,0.9,207
8.1,1.05,204
8.1,1.2,196
8.1,1.35,195
8.1,1.5,194
8.25,-1.5,147
8.25,-1.35,157
8.25,-1.2,174
8.25,-1.05,184
8.25,-0.9,181
8.25,-0.75,185
8.25,-0.6,188
8.25,-0.45,187
8.25,-0.3,187
8.25,-0.15,187
8.25,0.0,190
8.25,0.15,189
8.25,0.3,189
8.25,0.45,195
8.25,0.6,202
8.25,0.75,206
8.25,0.9,207
8.25,1.05,207
8.25,1.2,203
8.25,1.35,202
8.25,1.5,201
8.4,-1.5,155
8.4,-1.35,161
8.4,-1.2,175
8.4,-1.05,184
8.4,-0.9,184
8.4,-0.75,183
8.4,-0.6,188
8.4,-0.45,188
8.4,-0.3,191
8.4,-0.15,187
8.4,0.0,188
8.4,0.15,188
8.4,0.3,188
8.4,0.45,195
8.4,0.6,204
8.4,0.75,206
8.4,0.9,205
8.4,1.05,207
8.4,1.2,208
8.4,1.35,209
8.4,1.5,210
8.55,-1.5,159
8.55,-1.35,165
8.55,-1.2,178
8.55,-1.05,186
8.55,-0.9,187
8.55,-0.75,187
8.55,-0.6,188
8.55,-0.45,186
8.55,-0.3,188
8.55,-0.15,201
8.55,0.0,188
8.55,0.15,188
8.55,0.3,188
8.55,0.45,192
8.55,0.6,200
8.55,0.75,204
8.55,0.9,203
8.55,1.05,206
8.55,1.2,208
8.55,1.35,209
8.55,1.5,210
8.7,-1.5,159
8.7,-1.35,166
8.7,-1.2,182
8.7,-1.05,186
8.7,-0.9,182
8.7,-0.75,182
8.7,-0.6,188
8.7,-0.45,188
8.7,-0.3,186
8.7,-0.15,189
8.7,0.0,193
8.7,0.15,189
8.7,0.3,193
8.7,0.45,193
8.7,0.6,196
8.7,0.75,201
8.7,0.9,205
8.7,1.05,206
8.7,1.2,206
8.7,1.35,208
8.7,1.5,209
8.85,-1.5,161
8.85,-1.35,168
8.85,-1.2,182
8.85,-1.05,182
8.85,-0.9,182
8.85,-0.75,182
8.85,-0.6,188
8.85,-0.45,188
8.85,-0.3,186
8.85,-0.15,187
8.85,0.0,187
8.85,0.15,191
8.85,0.3,197
8.85,0.45,196
8.85,0.6,195
8.85,0.75,198
8.85,0.9,203
8.85,1.05,205
8.85,1.2,205
8.85,1.35,206
8.85,1.5,208
9.0,-1.5,181
9.0,-1.35,180
9.0,-1.2,182
9.0,-1.05,182
9.0,-0.9,182
9.0,-0.75,184
9.0,-0.6,188
9.0,-0.45,187
9.0,-0.3,186
9.0,-0.15,191
9.0,0.0,188
9.0,0.15,194
9.0,0.3,197
9.0,0.45,197
9.0,0.6,198
9.0,0.75,198
9.0,0.9,200
9.0,1.05,201
9.0,1.2,202
9.0,1.35,204
9.0,1.5,207
9.15,-1.5,198
9.15,-1.35,192
9.15,-1.2,188
9.15,-1.05,190
9.15,-0.9,191
9.15,-0.75,188
9.15,-0.6,186
9.15,-0.45,186
9.15,-0.3,190
9.15,-0.15,188
9.15,0.0,191
9.15,0.15,195
9.15,0.3,194
9.15,0.45,194
9.15,0.6,196
9.15,0.75,196
9.15,0.9,197
9.15,1.05,198
9.15,1.2,199
9.15,1.35,202
9.15,1.5,205
9.3,-1.5,205
9.3,-1.35,198
9.3,-1.2,195
9.3,-1.05,195
9.3,-0.9,189
9.3,-0.75,186
9.3,-0.6,191
9.3,-0.45,187
9.3,-0.3,187
9.3,-0.15,187
9.3,0.0,191
9.3,0.15,189
9.3,0.3,188
9.3,0.45,189
9.3,0.6,190
9.3,0.75,192
9.3,0.9,195
9.3,1.05,196
9.3,1.2,195
9.3,1.35,198
9.3,1.5,200
9.45,-1.5,209
9.45,-1.35,206
9.45,-1.2,204
9.45,-1.05,202
9.45,-0.9,195
9.45,-0.75,193
9.45,-0.6,185
9.45,-0.45,191
9.45,-0.3,187
9.45,-0.15,191
9.45,0.0,191
9.45,0.15,187
9.45,0.3,187
9.45,0.45,187
9.45,0.6,187
9.45,0.75,189
9.45,0.9,195
9.45,1.05,195
9.45,1.2,195
9.45,1.35,195
9.45,1.5,195
9.6,-1.5,209
9.6,-1.35,209
9.6,-1.2,211
9.6,-1.05,212
9.6,-0.9,204
9.6,-0.75,192
9.6,-0.6,178
9.6,-0.45,191
9.6,-0.3,190
9.6,-0.15,189
9.6,0.0,191
9.6,0.15,191
9.6,0.3,187
9.6,0.45,187
9.6,0.6,187
9.6,0.75,190
9.6,0.9,195
9.6,1.05,195
9.6,1.2,195
9.6,1.35,195
9.6,1.5,196
9.75,-1.5,183
9.75,-1.35,193
9.75,-1.2,202
9.75,-1.05,211
9.75,-0.9,210
9.75,-0.75,200
9.75,-0.6,183
9.75,-0.45,187
9.75,-0.3,188
9.75,-0.15,187
9.75,0.0,187
9.75,0.15,189
9.75,0.3,187
9.75,0.45,187
9.75,0.6,189
9.75,0.75,193
9.75,0.9,198
9.75,1.05,200
9.75,1.2,203
9.75,1.35,206
9.75,1.5,209
9.9,-1.5,169
9.9,-1.35,181
9.9,-1.2,194
9.9,-1.05,206
9.9,-0.9,211
9.9,-0.75,207
9.9,-0.6,190
9.9,-0.45,187
9.9,-0.3,189
9.9,-0.15,189
9.9,0.0,187
9.9,0.15,187
9.9,0.3,187
9.9,0.45,191
9.9,0.6,194
9.9,0.75,199
9.9,0.9,202
9.9,1.05,205
9.9,1.2,208
9.9,1.35,211
9.9,1.5,214
10.05,-1.5,177
10.05,-1.35,179
10.05,-1.2,187
10.05,-1.05,196
10.05,-0.9,201
10.05,-0.75,197
10.05,-0.6,189
10.05,-0.45,190
10.05,-0.3,189
10.05,-0.15,187
10.05,0.0,187
10.05,0.15,187
10.05,0.3,191
10.05,0.45,198
10.05,0.6,203
10.05,0.75,203
10.05,0.9,202
10.05,1.05,204
10.05,1.2,204
10.05,1.35,205
10.05,1.5,205
10.2,-1.5,179
10.2,-1.35,170
10.2,-1.2,168
10.2,-1.05,175
10.2,-0.9,187
10.2,-0.75,193
10.2,-0.6,190
10.2,-0.45,187
10.2,-0.3,187
10.2,-0.15,188
10.2,0.0,187
10.2,0.15,188
10.2,0.3,195
10.2,0.45,201
10.2,0.6,204
10.2,0.75,204
10.2,0.9,202
10.2,1.05,203
10.2,1.2,203
10.2,1.35,203
10.2,1.5,203
10.35,-1.5,158
10.35,-1.35,147
10.35,-1.2,147
10.35,-1.05,154
10.35,-0.9,166
10.35,-0.75,185
10.35,-0.6,187
10.35,-0.45,193
10.35,-0.3,202
10.35,-0.15,187
10.35,0.0,187
10.35,0.15,187
10.35,0.3,191
10.35,0.45,198
10.35,0.6,203
10.35,0.75,204
10.35,0.9,205
10.35,1.05,206
10.35,1.2,206
10.35,1.35,205
10.35,1.5,204
10.5,-1.5,133
10.5,-1.35,128
10.5,-1.2,134
10.5,-1.05,141
10.5,-0.9,141
10.5,-0.75,161
10.5,-0.6,178
10.5,-0.45,176
10.5,-0.3,187
10.5,-0.15,188
10.5,0.0,200
10.5,0.15,191
10.5,0.3,188
10.5,0.45,194
10.5,0.6,199
10.5,0.75,202
10.5,0.9,204
10.5,1.05,207
10.5,1.2,208
10.5,1.35,207
10.5,1.5,207
10.65,-1.5,130
10.65,-1.35,128
10.65,-1.2,130
10.65,-1.05,138
10.65,-0.9,138
10.65,-0.75,167
10.65,-0.6,197
10.65,-0.45,181
10.65,-0.3,173
10.65,-0.15,191
10.65,0.0,202
10.65,0.15,192
10.65,0.3,187
10.65,0.45,191
10.65,0.6,195
10.65,0.75,196
10.65,0.9,198
10.65,1.05,211
10.65,1.2,224
10.65,1.35,228
10.65,1.5,231
10.8,-1.5,130
10.8,-1.35,128
10.8,-1.2,130
10.8,-1.05,143
10.8,-0.9,160
10.8,-0.75,207
10.8,-0.6,195
10.8,-0.45,170
10.8,-0.3,195
10.8,-0.15,201
10.8,0.0,202
10.8,0.15,188
10.8,0.3,186
10.8,0.45,188
10.8,0.6,191
10.8,0.75,191
10.8,0.9,192
10.8,1.05,216
10.8,1.2,242
10.8,1.35,251
10.8,1.5,255
10.95,-1.5,101
10.95,-1.35,110
10.95,-1.2,162
10.95,-1.05,210
10.95,-0.9,192
10.95,-0.75,172
10.95,-0.6,153
10.95,-0.45,176
10.95,-0.3,210
10.95,-0.15,206
10.95,0.0,200
10.95,0.15,187
10.95,0.3,184
10.95,0.45,185
10.95,0.6,187
10.95,0.75,186
10.95,0.9,186
10.95,1.05,206
10.95,1.2,227
10.95,1.35,235
10.95,1.5,242
11.1,-1.5,41
11.1,-1.35,78
11.1,-1.2,200
11.1,-1.05,255
11.1,-0.9,210
11.1,-0.75,184
11.1,-0.6,186
11.1,-0.45,187
11.1,-0.3,189
11.1,-0.15,193
11.1,0.0,192
11.1,0.15,185
11.1,0.3,182
11.1,0.45,182
11.1,0.6,182
11.1,0.75,181
11.1,0.9,180
11.1,1.05,188
11.1,1.2,196
11.1,1.35,199
11.1,1.5,201
11.25,-1.5,111
11.25,-1.35,137
11.25,-1.2,212
11.25,-1.05,237
11.25,-0.9,197
11.25,-0.75,184
11.25,-0.6,191
11.25,-0.45,187
11.25,-0.3,187
11.25,-0.15,191
11.25,0.0,193
11.25,0.15,186
11.25,0.3,182
11.25,0.45,182
11.25,0.6,182
11.25,0.75,180
11.25,0.9,180
11.25,1.05,183
11.25,1.2,187
11.25,1.35,188
11.25,1.5,189
11.4,-1.5,255
11.4,-1.35,255
11.4,-1.2,229
11.4,-1.05,199
11.4,-0.9,189
11.4,-0.75,188
11.4,-0.6,192
11.4,-0.45,192
11.4,-0.3,188
11.4,-0.15,192
11.4,0.0,193
11.4,0.15,189
11.4,0.3,182
11.4,0.45,182
11.4,0.6,184
11.4,0.75,183
11.4,0.9,181
11.4,1.05,180
11.4,1.2,178
11.4,1.35,177
11.4,1.5,177
11.55,-1.5,255
11.55,-1.35,255
11.55,-1.2,225
11.55,-1.05,190
11.55,-0.9,191
11.55,-0.75,192
11.55,-0.6,189
11.55,-0.45,184
11.55,-0.3,186
11.55,-0.15,192
11.55,0.0,193
11.55,0.15,190
11.55,0.3,185
11.55,0.45,185
11.55,0.6,188
11.55,0.75,186
11.55,0.9,184
11.55,1.05,179
11.55,1.2,175
11.55,1.35,173
11.55,1.5,172
11.7,-1.5,255
11.7,-1.35,246
11.7,-1.2,208
11.7,-1.05,190
11.7,-0.9,192
11.7,-0.75,189
11.7,-0.6,184
11.7,-0.45,184
11.7,-0.3,184
11.7,-0.15,186
11.7,0.0,187
11.7,0.15,188
11.7,0.3,188
11.7,0.45,188
11.7,0.6,188
11.7,0.75,188
11.7,0.9,183
11.7,1.05,182
11.7,1.2,182
11.7,1.35,181
11.7,1.5,181
11.85,-1.5,246
11.85,-1.35,231
11.85,-1.2,205
11.85,-1.05,190
11.85,-0.9,193
11.85,-0.75,193
11.85,-0.6,188
11.85,-0.45,186
11.85,-0.3,186
11.85,-0.15,184
11.85,0.0,182
11.85,0.15,184
11.85,0.3,188
11.85,0.45,188
11.85,0.6,188
11.85,0.75,188
11.85,0.9,184
11.85,1.05,185
11.85,1.2,185
11.85,1.35,185
11.85,1.5,185
12.0,-1.5,232
12.0,-1.35,225
12.0,-1.2,214
12.0,-1.05,205
12.0,-0.9,202
12.0,-0.75,199
12.0,-0.6,193
12.0,-0.45,188
12.0,-0.3,190
12.0,-0.15,187
12.0,0.0,179
12.0,0.15,179
12.0,0.3,186
12.0,0.45,188
12.0,0.6,188
12.0,0.75,188
12.0,0.9,185
12.0,1.05,185
12.0,1.2,185
12.0,1.35,185
12.0,1.5,185
12.15,-1.5,211
12.15,-1.35,211
12.15,-1.2,224
12.15,-1.05,224
12.15,-0.9,208
12.15,-0.75,195
12.15,-0.6,190
12.15,-0.45,188
12.15,-0.3,191
12.15,-0.15,186
12.15,0.0,174
12.15,0.15,175
12.15,0.3,182
12.15,0.45,188
12.15,0.6,188
12.15,0.75,188
12.15,0.9,186
12.15,1.05,185
12.15,1.2,185
12.15,1.35,185
12.15,1.5,185
12.3,-1.5,211
12.3,-1.35,214
12.3,-1.2,224
12.3,-1.05,224
12.3,-0.9,206
12.3,-0.75,188
12.3,-0.6,188
12.3,-0.45,191
12.3,-0.3,191
12.3,-0.15,186
12.3,0.0,173
12.3,0.15,173
12.3,0.3,181
12.3,0.45,188
12.3,0.6,188
12.3,0.75,188
12.3,0.9,188
12.3,1.05,186
12.3,1.2,185
12.3,1.35,185
12.3,1.5,185
12.45,-1.5,211
12.45,-1.35,220
12.45,-1.2,224
12.45,-1.05,224
12.45,-0.9,211
12.45,-0.75,190
12.45,-0.6,188
12.45,-0.45,191
12.45,-0.3,191
12.45,-0.15,191
12.45,0.0,177
12.45,0.15,175
12.45,0.3,181
12.45,0.45,187
12.45,0.6,188
12.45,0.75,188
12.45,0.9,188
12.45,1.05,188
12.45,1.2,185
12.45,1.35,185
12.45,1.5,185
12.6,-1.5,208
12.6,-1.35,218
12.6,-1.2,224
12.6,-1.05,224
12.6,-0.9,222
12.6,-0.75,206
12.6,-0.6,191
12.6,-0.45,188
12.6,-0.3,191
12.6,-0.15,191
12.6,0.0,184
12.6,0.15,180
12.6,0.3,183
12.6,0.45,186
12.6,0.6,188
12.6,0.75,188
12.6,0.9,188
12.6,1.05,188
12.6,1.2,187
12.6,1.35,186
12.6,1.5,186
12.75,-1.5,200
12.75,-1.35,212
12.75,-1.2,221
12.75,-1.05,224
12.75,-0.9,224
12.75,-0.75,210
12.75,-0.6,193
12.75,-0.45,188
12.75,-0.3,190
12.75,-0.15,191
12.75,0.0,191
12.75,0.15,187
12.75,0.3,188
12.75,0.45,185
12.75,0.6,185
12.75,0.75,187
12.75,0.9,188
12.75,1.05,188
12.75,1.2,188
12.75,1.35,188
12.75,1.5,188
12.9,-1.5,192
12.9,-1.35,205
12.9,-1.2,215
12.9,-1.05,218
12.9,-0.9,217
12.9,-0.75,205
12.9,-0.6,190
12.9,-0.45,188
12.9,-0.3,188
12.9,-0.15,190
12.9,0.0,189
12.9,0.15,190
12.9,0.3,190
12.9,0.45,184
12.9,0.6,181
12.9,0.75,183
12.9,0.9,184
12.9,1.05,186
12.9,1.2,187
12.9,1.35,188
12.9,1.5,188
13.05,-1.5,184
13.05,-1.35,195
13.05,-1.2,204
13.05,-1.05,206
13.05,-0.9,207
13.05,-0.75,201
13.05,-0.6,189
13.05,-0.45,188
13.05,-0.3,188
13.05,-0.15,188
13.05,0.0,188
13.05,0.15,190
13.05,0.3,190
13.05,0.45,181
13.05,0.6,176
13.05,0.75,178
13.05,0.9,179
13.05,1.05,181
13.05,1.2,182
13.05,1.35,184
13.05,1.5,185
