-3.0,-1.5,152
-3.0,-1.35,152
-3.0,-1.2,155
-3.0,-1.05,158
-3.0,-0.9,159
-3.0,-0.75,160
-3.0,-0.6,159
-3.0,-0.45,158
-3.0,-0.3,156
-3.0,-0.15,153
-3.0,0.0,151
-3.0,0.15,151
-3.0,0.3,151
-3.0,0.45,151
-3.0,0.6,151
-3.0,0.75,151
-3.0,0.9,151
-3.0,1.05,151
-3.0,1.2,151
-3.0,1.35,151
-3.0,1.5,151
-2.85,-1.5,152
-2.85,-1.35,153
-2.85,-1.2,156
-2.85,-1.05,158
-2.85,-0.9,160
-2.85,-0.75,160
-2.85,-0.6,159
-2.85,-0.45,158
-2.85,-0.3,156
-2.85,-0.15,153
-2.85,0.0,151
-2.85,0.15,151
-2.85,0.3,151
-2.85,0.45,151
-2.85,0.6,151
-2.85,0.75,151
-2.85,0.9,152
-2.85,1.05,153
-2.85,1.2,153
-2.85,1.35,153
-2.85,1.5,154
-2.7,-1.5,152
-2.7,-1.35,154
-2.7,-1.2,156
-2.7,-1.05,159
-2.7,-0.9,159
-2.7,-0.75,159
-2.7,-0.6,158
-2.7,-0.45,157
-2.7,-0.3,155
-2.7,-0.15,152
-2.7,0.0,151
-2.7,0.15,152
-2.7,0.3,152
-2.7,0.45,152
-2.7,0.6,154
-2.7,0.75,155
-2.7,0.9,156
-2.7,1.05,156
-2.7,1.2,157
-2.7,1.35,158
-2.7,1.5,158
-2.55,-1.5,151
-2.55,-1.35,153
-2.55,-1.2,155
-2.55,-1.05,158
-2.55,-0.9,159
-2.55,-0.75,158
-2.55,-0.6,157
-2.55,-0.45,155
-2.55,-0.3,153
-2.55,-0.15,151
-2.55,0.0,150
-2.55,0.15,151
-2.55,0.3,153
-2.55,0.45,155
-2.55,0.6,157
-2.55,0.75,158
-2.55,0.9,159
-2.55,1.05,160
-2.55,1.2,161
-2.55,1.35,162
-2.55,1.5,163
-2.4,-1.5,146
-2.4,-1.35,148
-2.4,-1.2,152
-2.4,-1.05,157
-2.4,-0.9,158
-2.4,-0.75,157
-2.4,-0.6,155
-2.4,-0.45,153
-2.4,-0.3,151
-2.4,-0.15,150
-2.4,0.0,150
-2.4,0.15,150
-2.4,0.3,154
-2.4,0.45,157
-2.4,0.6,159
-2.4,0.75,161
-2.4,0.9,163
-2.4,1.05,164
-2.4,1.2,165
-2.4,1.35,166
-2.4,1.5,167
-2.25,-1.5,143
-2.25,-1.35,145
-2.25,-1.2,150
-2.25,-1.05,155
-2.25,-0.9,156
-2.25,-0.75,155
-2.25,-0.6,153
-2.25,-0.45,151
-2.25,-0.3,150
-2.25,-0.15,150
-2.25,0.0,150
-2.25,0.15,150
-2.25,0.3,154
-2.25,0.45,158
-2.25,0.6,162
-2.25,0.75,164
-2.25,0.9,166
-2.25,1.05,168
-2.25,1.2,170
-2.25,1.35,171
-2.25,1.5,172
-2.1,-1.5,141
-2.1,-1.35,143
-2.1,-1.2,146
-2.1,-1.05,150
-2.1,-0.9,151
-2.1,-0.75,152
-2.1,-0.6,151
-2.1,-0.45,150
-2.1,-0.3,150
-2.1,-0.15,150
-2.1,0.0,150
-2.1,0.15,150
-2.1,0.3,155
-2.1,0.45,160
-2.1,0.6,165
-2.1,0.75,168
-2.1,0.9,170
-2.1,1.05,174
-2.1,1.2,177
-2.1,1.35,178
-2.1,1.5,179
-1.95,-1.5,140
-1.95,-1.35,142
-1.95,-1.2,144
-1.95,-1.05,146
-1.95,-0.9,148
-1.95,-0.75,150
-1.95,-0.6,150
-1.95,-0.45,150
-1.95,-0.3,152
-1.95,-0.15,153
-1.95,0.0,151
-1.95,0.15,153
-1.95,0.3,157
-1.95,0.45,162
-1.95,0.6,168
-1.95,0.75,171
-1.95,0.9,173
-1.95,1.05,179
-1.95,1.2,182
-1.95,1.35,183
-1.95,1.5,184
-1.8,-1.5,139
-1.8,-1.35,141
-1.8,-1.2,142
-1.8,-1.05,143
-1.8,-0.9,145
-1.8,-0.75,148
-1.8,-0.6,150
-1.8,-0.45,151
-1.8,-0.3,154
-1.8,-0.15,156
-1.8,0.0,156
-1.8,0.15,157
-1.8,0.3,159
-1.8,0.45,164
-1.8,0.6,170
-1.8,0.75,174
-1.8,0.9,177
-1.8,1.05,181
-1.8,1.2,184
-1.8,1.35,184
-1.8,1.5,184
-1.65,-1.5,138
-1.65,-1.35,140
-1.65,-1.2,141
-1.65,-1.05,142
-1.65,-0.9,144
-1.65,-0.75,147
-1.65,-0.6,149
-1.65,-0.45,151
-1.65,-0.3,154
-1.65,-0.15,156
-1.65,0.0,157
-1.65,0.15,157
-1.65,0.3,160
-1.65,0.45,166
-1.65,0.6,172
-1.65,0.75,176
-1.65,0.9,178
-1.65,1.05,181
-1.65,1.2,182
-1.65,1.35,181
-1.65,1.5,180
-1.5,-1.5,133
-1.5,-1.35,136
-1.5,-1.2,140
-1.5,-1.05,144
-1.5,-0.9,146
-1.5,-0.75,147
-1.5,-0.6,148
-1.5,-0.45,150
-1.5,-0.3,153
-1.5,-0.15,152
-1.5,0.0,152
-1.5,0.15,155
-1.5,0.3,159
-1.5,0.45,165
-1.5,0.6,171
-1.5,0.75,175
-1.5,0.9,177
-1.5,1.05,178
-1.5,1.2,178
-1.5,1.35,176
-1.5,1.5,175
-1.35,-1.5,132
-1.35,-1.35,136
-1.35,-1.2,142
-1.35,-1.05,147
-1.35,-0.9,149
-1.35,-0.75,149
-1.35,-0.6,149
-1.35,-0.45,150
-1.35,-0.3,152
-1.35,-0.15,152
-1.35,0.0,152
-1.35,0.15,153
-1.35,0.3,158
-1.35,0.45,165
-1.35,0.6,170
-1.35,0.75,174
-1.35,0.9,174
-1.35,1.05,174
-1.35,1.2,172
-1.35,1.35,172
-1.35,1.5,172
-1.2,-1.5,137
-1.2,-1.35,141
-1.2,-1.2,147
-1.2,-1.05,151
-1.2,-0.9,154
-1.2,-0.75,153
-1.2,-0.6,152
-1.2,-0.45,151
-1.2,-0.3,152
-1.2,-0.15,152
-1.2,0.0,152
-1.2,0.15,153
-1.2,0.3,160
-1.2,0.45,166
-1.2,0.6,170
-1.2,0.75,172
-1.2,0.9,172
-1.2,1.05,172
-1.2,1.2,172
-1.2,1.35,172
-1.2,1.5,173
-1.05,-1.5,141
-1.05,-1.35,146
-1.05,-1.2,152
-1.05,-1.05,157
-1.05,-0.9,159
-1.05,-0.75,158
-1.05,-0.6,155
-1.05,-0.45,151
-1.05,-0.3,151
-1.05,-0.15,154
-1.05,0.0,155
-1.05,0.15,161
-1.05,0.3,165
-1.05,0.45,168
-1.05,0.6,168
-1.05,0.75,169
-1.05,0.9,169
-1.05,1.05,168
-1.05,1.2,175
-1.05,1.35,182
-1.05,1.5,192
-0.9,-1.5,144
-0.9,-1.35,149
-0.9,-1.2,154
-0.9,-1.05,159
-0.9,-0.9,162
-0.9,-0.75,162
-0.9,-0.6,155
-0.9,-0.45,151
-0.9,-0.3,151
-0.9,-0.15,158
-0.9,0.0,160
-0.9,0.15,165
-0.9,0.3,168
-0.9,0.45,168
-0.9,0.6,167
-0.9,0.75,165
-0.9,0.9,163
-0.9,1.05,160
-0.9,1.2,164
-0.9,1.35,170
-0.9,1.5,180
-0.75,-1.5,147
-0.75,-1.35,151
-0.75,-1.2,156
-0.75,-1.05,160
-0.75,-0.9,163
-0.75,-0.75,163
-0.75,-0.6,155
-0.75,-0.45,151
-0.75,-0.3,154
-0.75,-0.15,162
-0.75,0.0,162
-0.75,0.15,163
-0.75,0.3,165
-0.75,0.45,165
-0.75,0.6,164
-0.75,0.75,159
-0.75,0.9,154
-0.75,1.05,135
-0.75,1.2,110
-0.75,1.35,98
-0.75,1.5,87
-0.6,-1.5,149
-0.6,-1.35,153
-0.6,-1.2,157
-0.6,-1.05,161
-0.6,-0.9,163
-0.6,-0.75,163
-0.6,-0.6,159
-0.6,-0.45,158
-0.6,-0.3,161
-0.6,-0.15,163
-0.6,0.0,157
-0.6,0.15,154
-0.6,0.3,158
-0.6,0.45,160
-0.6,0.6,159
-0.6,0.75,153
-0.6,0.9,148
-0.6,1.05,120
-0.6,1.2,77
-0.6,1.35,56
-0.6,1.5,35
-0.45,-1.5,152
-0.45,-1.35,156
-0.45,-1.2,159
-0.45,-1.05,162
-0.45,-0.9,164
-0.45,-0.75,167
-0.45,-0.6,168
-0.45,-0.45,170
-0.45,-0.3,168
-0.45,-0.15,159
-0.45,0.0,153
-0.45,0.15,153
-0.45,0.3,157
-0.45,0.45,157
-0.45,0.6,153
-0.45,0.75,143
-0.45,0.9,125
-0.45,1.05,98
-0.45,1.2,64
-0.45,1.35,42
-0.45,1.5,21
-0.3,-1.5,156
-0.3,-1.35,158
-0.3,-1.2,161
-0.3,-1.05,164
-0.3,-0.9,166
-0.3,-0.75,169
-0.3,-0.6,172
-0.3,-0.45,174
-0.3,-0.3,166
-0.3,-0.15,153
-0.3,0.0,153
-0.3,0.15,155
-0.3,0.3,162
-0.3,0.45,157
-0.3,0.6,150
-0.3,0.75,131
-0.3,0.9,94
-0.3,1.05,72
-0.3,1.2,50
-0.3,1.35,27
-0.3,1.5,6
-0.15,-1.5,149
-0.15,-1.35,153
-0.15,-1.2,157
-0.15,-1.05,161
-0.15,-0.9,166
-0.15,-0.75,172
-0.15,-0.6,172
-0.15,-0.45,170
-0.15,-0.3,161
-0.15,-0.15,153
-0.15,0.0,155
-0.15,0.15,162
-0.15,0.3,162
-0.15,0.45,158
-0.15,0.6,148
-0.15,0.75,121
-0.15,0.9,82
-0.15,1.05,58
-0.15,1.2,36
-0.15,1.35,14
-0.15,1.5,0
0.0,-1.5,135
0.0,-1.35,141
0.0,-1.2,152
0.0,-1.05,160
0.0,-0.9,167
0.0,-0.75,171
0.0,-0.6,168
0.0,-0.45,164
0.0,-0.3,158
0.0,-0.15,147
0.0,0.0,144
0.0,0.15,154
0.0,0.3,159
0.0,0.45,162
0.0,0.6,140
0.0,0.75,107
0.0,0.9,72
0.0,1.05,44
0.0,1.2,23
0.0,1.35,4
0.0,1.5,0
0.15,-1.5,134
0.15,-1.35,139
0.15,-1.2,152
0.15,-1.05,162
0.15,-0.9,164
0.15,-0.75,163
0.15,-0.6,159
0.15,-0.45,155
0.15,-0.3,151
0.15,-0.15,130
0.15,0.0,111
0.15,0.15,134
0.15,0.3,167
0.15,0.45,168
0.15,0.6,135
0.15,0.75,99
0.15,0.9,64
0.15,1.05,39
0.15,1.2,23
0.15,1.35,7
0.15,1.5,0
0.3,-1.5,134
0.3,-1.35,139
0.3,-1.2,152
0.3,-1.05,162
0.3,-0.9,162
0.3,-0.75,158
0.3,-0.6,151
0.3,-0.45,145
0.3,-0.3,142
0.3,-0.15,124
0.3,0.0,117
0.3,0.15,155
0.3,0.3,186
0.3,0.45,161
0.3,0.6,118
0.3,0.75,88
0.3,0.9,65
0.3,1.05,52
0.3,1.2,45
0.3,1.35,37
0.3,1.5,33
0.45,-1.5,131
0.45,-1.35,136
0.45,-1.2,147
0.45,-1.05,158
0.45,-0.9,159
0.45,-0.75,155
0.45,-0.6,146
0.45,-0.45,136
0.45,-0.3,134
0.45,-0.15,132
0.45,0.0,145
0.45,0.15,183
0.45,0.3,185
0.45,0.45,145
0.45,0.6,102
0.45,0.75,78
0.45,0.9,64
0.45,1.05,55
0.45,1.2,49
0.45,1.35,44
0.45,1.5,41
0.6,-1.5,130
0.6,-1.35,134
0.6,-1.2,140
0.6,-1.05,148
0.6,-0.9,156
0.6,-0.75,157
0.6,-0.6,147
0.6,-0.45,134
0.6,-0.3,132
0.6,-0.15,140
0.6,0.0,153
0.6,0.15,167
0.6,0.3,155
0.6,0.45,127
0.6,0.6,102
0.6,0.75,89
0.6,0.9,83
0.6,1.05,65
0.6,1.2,49
0.6,1.35,44
0.6,1.5,41
0.75,-1.5,129
0.75,-1.35,132
0.75,-1.2,136
0.75,-1.05,143
0.75,-0.9,155
0.75,-0.75,162
0.75,-0.6,159
0.75,-0.45,147
0.75,-0.3,145
0.75,-0.15,148
0.75,0.0,151
0.75,0.15,150
0.75,0.3,136
0.75,0.45,120
0.75,0.6,108
0.75,0.75,101
0.75,0.9,98
0.75,1.05,79
0.75,1.2,59
0.75,1.35,54
0.75,1.5,50
0.9,-1.5,130
0.9,-1.35,132
0.9,-1.2,134
0.9,-1.05,142
0.9,-0.9,155
0.9,-0.75,166
0.9,-0.6,170
0.9,-0.45,164
0.9,-0.3,160
0.9,-0.15,157
0.9,0.0,153
0.9,0.15,147
0.9,0.3,143
0.9,0.45,139
0.9,0.6,139
0.9,0.75,122
0.9,0.9,110
0.9,1.05,103
0.9,1.2,94
0.9,1.35,92
0.9,1.5,91
1.05,-1.5,133
1.05,-1.35,133
1.05,-1.2,133
1.05,-1.05,138
1.05,-0.9,149
1.05,-0.75,158
1.05,-0.6,164
1.05,-0.45,161
1.05,-0.3,157
1.05,-0.15,157
1.05,0.0,157
1.05,0.15,153
1.05,0.3,151
1.05,0.45,154
1.05,0.6,161
1.05,0.75,143
1.05,0.9,127
1.05,1.05,126
1.05,1.2,125
1.05,1.35,126
1.05,1.5,127
1.2,-1.5,134
1.2,-1.35,133
1.2,-1.2,133
1.2,-1.05,135
1.2,-0.9,142
1.2,-0.75,150
1.2,-0.6,156
1.2,-0.45,154
1.2,-0.3,150
1.2,-0.15,152
1.2,0.0,157
1.2,0.15,156
1.2,0.3,152
1.2,0.45,158
1.2,0.6,168
1.2,0.75,165
1.2,0.9,159
1.2,1.05,148
1.2,1.2,139
1.2,1.35,138
1.2,1.5,139
1.35,-1.5,138
1.35,-1.35,136
1.35,-1.2,135
1.35,-1.05,136
1.35,-0.9,140
1.35,-0.75,147
1.35,-0.6,155
1.35,-0.45,154
1.35,-0.3,152
1.35,-0.15,150
1.35,0.0,157
1.35,0.15,154
1.35,0.3,152
1.35,0.45,160
1.35,0.6,170
1.35,0.75,176
1.35,0.9,176
1.35,1.05,165
1.35,1.2,150
1.35,1.35,149
1.35,1.5,150
1.5,-1.5,142
1.5,-1.35,141
1.5,-1.2,141
1.5,-1.05,142
1.5,-0.9,143
1.5,-0.75,149
1.5,-0.6,156
1.5,-0.45,156
1.5,-0.3,151
1.5,-0.15,147
1.5,0.0,149
1.5,0.15,150
1.5,0.3,150
1.5,0.45,157
1.5,0.6,165
1.5,0.75,172
1.5,0.9,176
1.5,1.05,172
1.5,1.2,165
1.5,1.35,166
1.5,1.5,168
1.65,-1.5,145
1.65,-1.35,145
1.65,-1.2,147
1.65,-1.05,150
1.65,-0.9,149
1.65,-0.75,155
1.65,-0.6,156
1.65,-0.45,154
1.65,-0.3,148
1.65,-0.15,147
1.65,0.0,148
1.65,0.15,150
1.65,0.3,150
1.65,0.45,151
1.65,0.6,155
1.65,0.75,164
1.65,0.9,173
1.65,1.05,176
1.65,1.2,179
1.65,1.35,182
1.65,1.5,186
1.8,-1.5,141
1.8,-1.35,143
1.8,-1.2,149
1.8,-1.05,155
1.8,-0.9,155
1.8,-0.75,156
1.8,-0.6,156
1.8,-0.45,150
1.8,-0.3,144
1.8,-0.15,150
1.8,0.0,155
1.8,0.15,151
1.8,0.3,150
1.8,0.45,150
1.8,0.6,151
1.8,0.75,158
1.8,0.9,166
1.8,1.05,172
1.8,1.2,177
1.8,1.35,181
1.8,1.5,185
1.95,-1.5,122
1.95,-1.35,128
1.95,-1.2,139
1.95,-1.05,150
1.95,-0.9,155
1.95,-0.75,156
1.95,-0.6,156
1.95,-0.45,149
1.95,-0.3,142
1.95,-0.15,153
1.95,0.0,160
1.95,0.15,153
1.95,0.3,150
1.95,0.45,150
1.95,0.6,148
1.95,0.75,151
1.95,0.9,157
1.95,1.05,163
1.95,1.2,171
1.95,1.35,175
1.95,1.5,180
2.1,-1.5,115
2.1,-1.35,121
2.1,-1.2,133
2.1,-1.05,146
2.1,-0.9,153
2.1,-0.75,156
2.1,-0.6,156
2.1,-0.45,152
2.1,-0.3,146
2.1,-0.15,153
2.1,0.0,156
2.1,0.15,154
2.1,0.3,150
2.1,0.45,150
2.1,0.6,148
2.1,0.75,149
2.1,0.9,152
2.1,1.05,158
2.1,1.2,165
2.1,1.35,170
2.1,1.5,174
2.25,-1.5,125
2.25,-1.35,126
2.25,-1.2,131
2.25,-1.05,137
2.25,-0.9,147
2.25,-0.75,156
2.25,-0.6,156
2.25,-0.45,156
2.25,-0.3,152
2.25,-0.15,153
2.25,0.0,152
2.25,0.15,152
2.25,0.3,152
2.25,0.45,150
2.25,0.6,148
2.25,0.75,146
2.25,0.9,146
2.25,1.05,148
2.25,1.2,149
2.25,1.35,151
2.25,1.5,153
2.4,-1.5,135
2.4,-1.35,134
2.4,-1.2,132
2.4,-1.05,132
2.4,-0.9,140
2.4,-0.75,154
2.4,-0.6,156
2.4,-0.45,156
2.4,-0.3,152
2.4,-0.15,152
2.4,0.0,152
2.4,0.15,152
2.4,0.3,154
2.4,0.45,151
2.4,0.6,148
2.4,0.75,143
2.4,0.9,141
2.4,1.05,141
2.4,1.2,140
2.4,1.35,139
2.4,1.5,139
2.55,-1.5,170
2.55,-1.35,161
2.55,-1.2,147
2.55,-1.05,138
2.55,-0.9,141
2.55,-0.75,149
2.55,-0.6,156
2.55,-0.45,153
2.55,-0.3,152
2.55,-0.15,152
2.55,0.0,152
2.55,0.15,154
2.55,0.3,154
2.55,0.45,149
2.55,0.6,145
2.55,0.75,141
2.55,0.9,138
2.55,1.05,139
2.55,1.2,139
2.55,1.35,138
2.55,1.5,138
2.7,-1.5,215
2.7,-1.35,198
2.7,-1.2,169
2.7,-1.05,153
2.7,-0.9,155
2.7,-0.75,157
2.7,-0.6,158
2.7,-0.45,159
2.7,-0.3,159
2.7,-0.15,154
2.7,0.0,154
2.7,0.15,154
2.7,0.3,154
2.7,0.45,146
2.7,0.6,142
2.7,0.75,140
2.7,0.9,136
2.7,1.05,137
2.7,1.2,138
2.7,1.35,138
2.7,1.5,138
2.85,-1.5,199
2.85,-1.35,190
2.85,-1.2,171
2.85,-1.05,161
2.85,-0.9,161
2.85,-0.75,161
2.85,-0.6,159
2.85,-0.45,159
2.85,-0.3,150
2.85,-0.15,150
2.85,0.0,150
2.85,0.15,150
2.85,0.3,150
2.85,0.45,147
2.85,0.6,144
2.85,0.75,142
2.85,0.9,138
2.85,1.05,139
2.85,1.2,140
2.85,1.35,139
2.85,1.5,138
3.0,-1.5,140
3.0,-1.35,147
3.0,-1.2,152
3.0,-1.05,153
3.0,-0.9,151
3.0,-0.75,146
3.0,-0.6,150
3.0,-0.45,154
3.0,-0.3,154
3.0,-0.15,150
3.0,0.0,150
3.0,0.15,150
3.0,0.3,153
3.0,0.45,153
3.0,0.6,150
3.0,0.75,146
3.0,0.9,141
3.0,1.05,142
3.0,1.2,144
3.0,1.35,143
3.0,1.5,143
3.15,-1.5,128
3.15,-1.35,135
3.15,-1.2,141
3.15,-1.05,142
3.15,-0.9,139
3.15,-0.75,140
3.15,-0.6,151
3.15,-0.45,156
3.15,-0.3,160
3.15,-0.15,153
3.15,0.0,155
3.15,0.15,152
3.15,0.3,153
3.15,0.45,153
3.15,0.6,153
3.15,0.75,149
3.15,0.9,145
3.15,1.05,145
3.15,1.2,146
3.15,1.35,145
3.15,1.5,145
3.3,-1.5,141
3.3,-1.35,141
3.3,-1.2,138
3.3,-1.05,138
3.3,-0.9,141
3.3,-0.75,143
3.3,-0.6,153
3.3,-0.45,151
3.3,-0.3,160
3.3,-0.15,155
3.3,0.0,154
3.3,0.15,153
3.3,0.3,149
3.3,0.45,149
3.3,0.6,151
3.3,0.75,150
3.3,0.9,149
3.3,1.05,147
3.3,1.2,147
3.3,1.35,145
3.3,1.5,145
3.45,-1.5,141
3.45,-1.35,141
3.45,-1.2,138
3.45,-1.05,139
3.45,-0.9,151
3.45,-0.75,157
3.45,-0.6,161
3.45,-0.45,156
3.45,-0.3,166
3.45,-0.15,156
3.45,0.0,158
3.45,0.15,157
3.45,0.3,149
3.45,0.45,149
3.45,0.6,149
3.45,0.75,149
3.45,0.9,151
3.45,1.05,150
3.45,1.2,148
3.45,1.35,147
3.45,1.5,146
3.6,-1.5,124
3.6,-1.35,132
3.6,-1.2,136
3.6,-1.05,142
3.6,-0.9,157
3.6,-0.75,164
3.6,-0.6,184
3.6,-0.45,168
3.6,-0.3,143
3.6,-0.15,164
3.6,0.0,155
3.6,0.15,154
3.6,0.3,149
3.6,0.45,149
3.6,0.6,149
3.6,0.75,149
3.6,0.9,152
3.6,1.05,153
3.6,1.2,152
3.6,1.35,153
3.6,1.5,153
3.75,-1.5,102
3.75,-1.35,118
3.75,-1.2,137
3.75,-1.05,148
3.75,-0.9,156
3.75,-0.75,154
3.75,-0.6,188
3.75,-0.45,151
3.75,-0.3,156
3.75,-0.15,151
3.75,0.0,151
3.75,0.15,152
3.75,0.3,149
3.75,0.45,150
3.75,0.6,150
3.75,0.75,150
3.75,0.9,152
3.75,1.05,153
3.75,1.2,154
3.75,1.35,156
3.75,1.5,158
3.9,-1.5,85
3.9,-1.35,107
3.9,-1.2,131
3.9,-1.05,145
3.9,-0.9,146
3.9,-0.75,147
3.9,-0.6,158
3.9,-0.45,158
3.9,-0.3,153
3.9,-0.15,151
3.9,0.0,160
3.9,0.15,155
3.9,0.3,155
3.9,0.45,155
3.9,0.6,153
3.9,0.75,150
3.9,0.9,150
3.9,1.05,152
3.9,1.2,155
3.9,1.35,159
3.9,1.5,162
4.05,-1.5,64
4.05,-1.35,94
4.05,-1.2,121
4.05,-1.05,140
4.05,-0.9,147
4.05,-0.75,148
4.05,-0.6,157
4.05,-0.45,166
4.05,-0.3,158
4.05,-0.15,151
4.05,0.0,160
4.05,0.15,154
4.05,0.3,155
4.05,0.45,155
4.05,0.6,150
4.05,0.75,150
4.05,0.9,150
4.05,1.05,151
4.05,1.2,155
4.05,1.35,160
4.05,1.5,164
4.2,-1.5,76
4.2,-1.35,101
4.2,-1.2,119
4.2,-1.05,137
4.2,-0.9,156
4.2,-0.75,158
4.2,-0.6,148
4.2,-0.45,151
4.2,-0.3,155
4.2,-0.15,177
4.2,0.0,158
4.2,0.15,139
4.2,0.3,148
4.2,0.45,151
4.2,0.6,150
4.2,0.75,150
4.2,0.9,150
4.2,1.05,151
4.2,1.2,154
4.2,1.35,157
4.2,1.5,160
4.35,-1.5,132
4.35,-1.35,138
4.35,-1.2,127
4.35,-1.05,132
4.35,-0.9,157
4.35,-0.75,164
4.35,-0.6,158
4.35,-0.45,155
4.35,-0.3,154
4.35,-0.15,141
4.35,0.0,167
4.35,0.15,145
4.35,0.3,151
4.35,0.45,149
4.35,0.6,150
4.35,0.75,150
4.35,0.9,151
4.35,1.05,153
4.35,1.2,154
4.35,1.35,155
4.35,1.5,156
4.5,-1.5,154
4.5,-1.35,156
4.5,-1.2,141
4.5,-1.05,136
4.5,-0.9,152
4.5,-0.75,164
4.5,-0.6,163
4.5,-0.45,149
4.5,-0.3,149
4.5,-0.15,152
4.5,0.0,149
4.5,0.15,149
4.5,0.3,150
4.5,0.45,152
4.5,0.6,154
4.5,0.75,153
4.5,0.9,155
4.5,1.05,156
4.5,1.2,155
4.5,1.35,154
4.5,1.5,152
4.65,-1.5,163
4.65,-1.35,172
4.65,-1.2,218
4.65,-1.05,212
4.65,-0.9,165
4.65,-0.75,152
4.65,-0.6,162
4.65,-0.45,161
4.65,-0.3,160
4.65,-0.15,153
4.65,0.0,155
4.65,0.15,151
4.65,0.3,149
4.65,0.45,155
4.65,0.6,160
4.65,0.75,160
4.65,0.9,163
4.65,1.05,162
4.65,1.2,153
4.65,1.35,147
4.65,1.5,142
4.8,-1.5,171
4.8,-1.35,180
4.8,-1.2,255
4.8,-1.05,255
4.8,-0.9,176
4.8,-0.75,154
4.8,-0.6,158
4.8,-0.45,151
4.8,-0.3,152
4.8,-0.15,151
4.8,0.0,157
4.8,0.15,161
4.8,0.3,151
4.8,0.45,166
4.8,0.6,174
4.8,0.75,175
4.8,0.9,177
4.8,1.05,170
4.8,1.2,154
4.8,1.35,146
4.8,1.5,142
4.95,-1.5,200
4.95,-1.35,200
4.95,-1.2,233
4.95,-1.05,220
4.95,-0.9,161
4.95,-0.75,142
4.95,-0.6,142
4.95,-0.45,158
4.95,-0.3,151
4.95,-0.15,154
4.95,0.0,148
4.95,0.15,125
4.95,0.3,161
4.95,0.45,181
4.95,0.6,188
4.95,0.75,186
4.95,0.9,183
4.95,1.05,172
4.95,1.2,156
4.95,1.35,148
4.95,1.5,142
5.1,-1.5,200
5.1,-1.35,196
5.1,-1.2,173
5.1,-1.05,138
5.1,-0.9,134
5.1,-0.75,161
5.1,-0.6,157
5.1,-0.45,150
5.1,-0.3,148
5.1,-0.15,148
5.1,0.0,154
5.1,0.15,150
5.1,0.3,160
5.1,0.45,166
5.1,0.6,178
5.1,0.75,182
5.1,0.9,177
5.1,1.05,167
5.1,1.2,155
5.1,1.35,148
5.1,1.5,142
5.25,-1.5,183
5.25,-1.35,177
5.25,-1.2,150
5.25,-1.05,94
5.25,-0.9,102
5.25,-0.75,151
5.25,-0.6,144
5.25,-0.45,150
5.25,-0.3,148
5.25,-0.15,152
5.25,0.0,154
5.25,0.15,152
5.25,0.3,145
5.25,0.45,137
5.25,0.6,155
5.25,0.75,174
5.25,0.9,181
5.25,1.05,171
5.25,1.2,155
5.25,1.35,145
5.25,1.5,138
5.4,-1.5,166
5.4,-1.35,161
5.4,-1.2,131
5.4,-1.05,42
5.4,-0.9,40
5.4,-0.75,143
5.4,-0.6,115
5.4,-0.45,152
5.4,-0.3,153
5.4,-0.15,151
5.4,0.0,153
5.4,0.15,154
5.4,0.3,150
5.4,0.45,144
5.4,0.6,150
5.4,0.75,164
5.4,0.9,172
5.4,1.05,167
5.4,1.2,151
5.4,1.35,142
5.4,1.5,134
5.55,-1.5,176
5.55,-1.35,155
5.55,-1.2,115
5.55,-1.05,27
5.55,-0.9,12
5.55,-0.75,126
5.55,-0.6,161
5.55,-0.45,143
5.55,-0.3,151
5.55,-0.15,153
5.55,0.0,155
5.55,0.15,164
5.55,0.3,158
5.55,0.45,150
5.55,0.6,153
5.55,0.75,159
5.55,0.9,160
5.55,1.05,157
5.55,1.2,147
5.55,1.35,139
5.55,1.5,133
5.7,-1.5,231
5.7,-1.35,175
5.7,-1.2,111
5.7,-1.05,65
5.7,-0.9,68
5.7,-0.75,154
5.7,-0.6,160
5.7,-0.45,152
5.7,-0.3,153
5.7,-0.15,150
5.7,0.0,150
5.7,0.15,151
5.7,0.3,139
5.7,0.45,143
5.7,0.6,153
5.7,0.75,160
5.7,0.9,160
5.7,1.05,150
5.7,1.2,141
5.7,1.35,133
5.7,1.5,128
5.85,-1.5,250
5.85,-1.35,194
5.85,-1.2,141
5.85,-1.05,117
5.85,-0.9,116
5.85,-0.75,140
5.85,-0.6,140
5.85,-0.45,151
5.85,-0.3,150
5.85,-0.15,150
5.85,0.0,150
5.85,0.15,147
5.85,0.3,133
5.85,0.45,150
5.85,0.6,159
5.85,0.75,160
5.85,0.9,158
5.85,1.05,143
5.85,1.2,132
5.85,1.35,123
5.85,1.5,116
6.0,-1.5,255
6.0,-1.35,222
6.0,-1.2,167
6.0,-1.05,151
6.0,-0.9,153
6.0,-0.75,173
6.0,-0.6,164
6.0,-0.45,164
6.0,-0.3,151
6.0,-0.15,150
6.0,0.0,162
6.0,0.15,160
6.0,0.3,151
6.0,0.45,156
6.0,0.6,159
6.0,0.75,158
6.0,0.9,151
6.0,1.05,144
6.0,1.2,141
6.0,1.35,134
6.0,1.5,127
6.15,-1.5,255
6.15,-1.35,252
6.15,-1.2,194
6.15,-1.05,174
6.15,-0.9,178
6.15,-0.75,176
6.15,-0.6,151
6.15,-0.45,151
6.15,-0.3,156
6.15,-0.15,157
6.15,0.0,167
6.15,0.15,151
6.15,0.3,156
6.15,0.45,145
6.15,0.6,144
6.15,0.75,143
6.15,0.9,139
6.15,1.05,143
6.15,1.2,146
6.15,1.35,144
6.15,1.5,139
6.3,-1.5,254
6.3,-1.35,228
6.3,-1.2,206
6.3,-1.05,197
6.3,-0.9,188
6.3,-0.75,161
6.3,-0.6,151
6.3,-0.45,158
6.3,-0.3,151
6.3,-0.15,151
6.3,0.0,156
6.3,0.15,157
6.3,0.3,151
6.3,0.45,136
6.3,0.6,136
6.3,0.75,136
6.3,0.9,145
6.3,1.05,146
6.3,1.2,142
6.3,1.35,139
6.3,1.5,134
6.45,-1.5,217
6.45,-1.35,211
6.45,-1.2,209
6.45,-1.05,202
6.45,-0.9,188
6.45,-0.75,173
6.45,-0.6,158
6.45,-0.45,151
6.45,-0.3,151
6.45,-0.15,151
6.45,0.0,153
6.45,0.15,162
6.45,0.3,168
6.45,0.45,149
6.45,0.6,136
6.45,0.75,138
6.45,0.9,151
6.45,1.05,151
6.45,1.2,138
6.45,1.35,135
6.45,1.5,130
6.6,-1.5,240
6.6,-1.35,229
6.6,-1.2,225
6.6,-1.05,210
6.6,-0.9,180
6.6,-0.75,154
6.6,-0.6,157
6.6,-0.45,157
6.6,-0.3,151
6.6,-0.15,153
6.6,0.0,151
6.6,0.15,151
6.6,0.3,160
6.6,0.45,161
6.6,0.6,140
6.6,0.75,133
6.6,0.9,142
6.6,1.05,151
6.6,1.2,157
6.6,1.35,160
6.6,1.5,162
6.75,-1.5,251
6.75,-1.35,237
6.75,-1.2,236
6.75,-1.05,212
6.75,-0.9,167
6.75,-0.75,136
6.75,-0.6,159
6.75,-0.45,160
6.75,-0.3,151
6.75,-0.15,151
6.75,0.0,154
6.75,0.15,151
6.75,0.3,151
6.75,0.45,159
6.75,0.6,142
6.75,0.75,130
6.75,0.9,128
6.75,1.05,153
6.75,1.2,180
6.75,1.35,190
6.75,1.5,198
6.9,-1.5,231
6.9,-1.35,219
6.9,-1.2,223
6.9,-1.05,208
6.9,-0.9,164
6.9,-0.75,146
6.9,-0.6,157
6.9,-0.45,151
6.9,-0.3,164
6.9,-0.15,151
6.9,0.0,157
6.9,0.15,151
6.9,0.3,151
6.9,0.45,154
6.9,0.6,144
6.9,0.75,146
6.9,0.9,155
6.9,1.05,162
6.9,1.2,165
6.9,1.35,167
6.9,1.5,170
7.05,-1.5,179
7.05,-1.35,173
7.05,-1.2,191
7.05,-1.05,205
7.05,-0.9,172
7.05,-0.75,161
7.05,-0.6,152
7.05,-0.45,154
7.05,-0.3,151
7.05,-0.15,164
7.05,0.0,157
7.05,0.15,154
7.05,0.3,160
7.05,0.45,155
7.05,0.6,152
7.05,0.75,165
7.05,0.9,193
7.05,1.05,171
7.05,1.2,129
7.05,1.35,118
7.05,1.5,107
7.2,-1.5,176
7.2,-1.35,169
7.2,-1.2,187
7.2,-1.05,205
7.2,-0.9,185
7.2,-0.75,172
7.2,-0.6,165
7.2,-0.45,161
7.2,-0.3,152
7.2,-0.15,151
7.2,0.0,174
7.2,0.15,137
7.2,0.3,164
7.2,0.45,171
7.2,0.6,166
7.2,0.75,168
7.2,0.9,186
7.2,1.05,171
7.2,1.2,139
7.2,1.35,131
7.2,1.5,123
7.35,-1.5,213
7.35,-1.35,202
7.35,-1.2,202
7.35,-1.05,200
7.35,-0.9,182
7.35,-0.75,150
7.35,-0.6,148
7.35,-0.45,192
7.35,-0.3,162
7.35,-0.15,167
7.35,0.0,152
7.35,0.15,152
7.35,0.3,169
7.35,0.45,185
7.35,0.6,176
7.35,0.75,169
7.35,0.9,167
7.35,1.05,178
7.35,1.2,198
7.35,1.35,214
7.35,1.5,230
7.5,-1.5,212
7.5,-1.35,199
7.5,-1.2,188
7.5,-1.05,173
7.5,-0.9,161
7.5,-0.75,149
7.5,-0.6,148
7.5,-0.45,150
7.5,-0.3,152
7.5,-0.15,164
7.5,0.0,132
7.5,0.15,137
7.5,0.3,163
7.5,0.45,172
7.5,0.6,172
7.5,0.75,168
7.5,0.9,164
7.5,1.05,180
7.5,1.2,213
7.5,1.35,234
7.5,1.5,255
7.65,-1.5,173
7.65,-1.35,167
7.65,-1.2,155
7.65,-1.05,143
7.65,-0.9,142
7.65,-0.75,149
7.65,-0.6,152
7.65,-0.45,148
7.65,-0.3,151
7.65,-0.15,153
7.65,0.0,157
7.65,0.15,154
7.65,0.3,143
7.65,0.45,148
7.65,0.6,167
7.65,0.75,169
7.65,0.9,162
7.65,1.05,162
7.65,1.2,171
7.65,1.35,179
7.65,1.5,188
7.8,-1.5,141
7.8,-1.35,144
7.8,-1.2,139
7.8,-1.05,136
7.8,-0.9,141
7.8,-0.75,152
7.8,-0.6,149
7.8,-0.45,148
7.8,-0.3,153
7.8,-0.15,153
7.8,0.0,149
7.8,0.15,147
7.8,0.3,143
7.8,0.45,144
7.8,0.6,167
7.8,0.75,169
7.8,0.9,161
7.8,1.05,148
7.8,1.2,141
7.8,1.35,141
7.8,1.5,141
7.95,-1.5,117
7.95,-1.35,128
7.95,-1.2,131
7.95,-1.05,138
7.95,-0.9,148
7.95,-0.75,152
7.95,-0.6,152
7.95,-0.45,152
7.95,-0.3,148
7.95,-0.15,149
7.95,0.0,157
7.95,0.15,162
7.95,0.3,157
7.95,0.45,155
7.95,0.6,163
7.95,0.75,171
7.95,0.9,177
7.95,1.05,167
7.95,1.2,159
7.95,1.35,162
7.95,1.5,164
8.1,-1.5,102
8.1,-1.35,118
8.1,-1.2,127
8.1,-1.05,141
8.1,-0.9,153
8.1,-0.75,153
8.1,-0.6,163
8.1,-0.45,151
8.1,-0.3,150
8.1,-0.15,139
8.1,0.0,138
8.1,0.15,155
8.1,0.3,162
8.1,0.45,165
8.1,0.6,162
8.1,0.75,175
8.1,0.9,192
8.1,1.05,192
8.1,1.2,192
8.1,1.35,199
8.1,1.5,205
8.25,-1.5,74
8.25,-1.35,99
8.25,-1.2,108
8.25,-1.05,115
8.25,-0.9,137
8.25,-0.75,143
8.25,-0.6,153
8.25,-0.45,156
8.25,-0.3,150
8.25,-0.15,150
8.25,0.0,152
8.25,0.15,151
8.25,0.3,154
8.25,0.45,165
8.25,0.6,171
8.25,0.75,179
8.25,0.9,190
8.25,1.05,190
8.25,1.2,187
8.25,1.35,191
8.25,1.5,195
8.4,-1.5,1
8.4,-1.35,47
8.4,-1.2,63
8.4,-1.05,65
8.4,-0.9,114
8.4,-0.75,146
8.4,-0.6,151
8.4,-0.45,150
8.4,-0.3,152
8.4,-0.15,150
8.4,0.0,151
8.4,0.15,151
8.4,0.3,154
8.4,0.45,163
8.4,0.6,178
8.4,0.75,183
8.4,0.9,184
8.4,1.05,175
8.4,1.2,160
8.4,1.35,154
8.4,1.5,148
8.55,-1.5,0
8.55,-1.35,12
8.55,-1.2,44
8.55,-1.05,70
8.55,-0.9,126
8.55,-0.75,158
8.55,-0.6,157
8.55,-0.45,153
8.55,-0.3,157
8.55,-0.15,165
8.55,0.0,153
8.55,0.15,152
8.55,0.3,155
8.55,0.45,160
8.55,0.6,173
8.55,0.75,182
8.55,0.9,187
8.55,1.05,178
8.55,1.2,161
8.55,1.35,155
8.55,1.5,147
8.7,-1.5,0
8.7,-1.35,0
8.7,-1.2,19
8.7,-1.05,73
8.7,-0.9,131
8.7,-0.75,166
8.7,-0.6,150
8.7,-0.45,159
8.7,-0.3,159
8.7,-0.15,151
8.7,0.0,151
8.7,0.15,151
8.7,0.3,151
8.7,0.45,158
8.7,0.6,168
8.7,0.75,182
8.7,0.9,193
8.7,1.05,191
8.7,1.2,186
8.7,1.35,187
8.7,1.5,187
8.85,-1.5,0
8.85,-1.35,0
8.85,-1.2,11
8.85,-1.05,71
8.85,-0.9,133
8.85,-0.75,151
8.85,-0.6,148
8.85,-0.45,150
8.85,-0.3,153
8.85,-0.15,153
8.85,0.0,152
8.85,0.15,151
8.85,0.3,151
8.85,0.45,158
8.85,0.6,169
8.85,0.75,181
8.85,0.9,190
8.85,1.05,197
8.85,1.2,201
8.85,1.35,206
8.85,1.5,209
9.0,-1.5,0
9.0,-1.35,0
9.0,-1.2,33
9.0,-1.05,82
9.0,-0.9,122
9.0,-0.75,135
9.0,-0.6,151
9.0,-0.45,155
9.0,-0.3,155
9.0,-0.15,152
9.0,0.0,147
9.0,0.15,154
9.0,0.3,154
9.0,0.45,161
9.0,0.6,170
9.0,0.75,180
9.0,0.9,190
9.0,1.05,205
9.0,1.2,221
9.0,1.35,230
9.0,1.5,239
9.15,-1.5,0
9.15,-1.35,6
9.15,-1.2,44
9.15,-1.05,73
9.15,-0.9,91
9.15,-0.75,118
9.15,-0.6,153
9.15,-0.45,155
9.15,-0.3,155
9.15,-0.15,147
9.15,0.0,151
9.15,0.15,149
9.15,0.3,152
9.15,0.45,164
9.15,0.6,171
9.15,0.75,182
9.15,0.9,197
9.15,1.05,212
9.15,1.2,231
9.15,1.35,243
9.15,1.5,254
9.3,-1.5,14
9.3,-1.35,33
9.3,-1.2,46
9.3,-1.05,56
9.3,-0.9,74
9.3,-0.75,126
9.3,-0.6,159
9.3,-0.45,151
9.3,-0.3,149
9.3,-0.15,147
9.3,0.0,155
9.3,0.15,154
9.3,0.3,163
9.3,0.45,170
9.3,0.6,173
9.3,0.75,185
9.3,0.9,198
9.3,1.05,209
9.3,1.2,221
9.3,1.35,230
9.3,1.5,238
9.45,-1.5,68
9.45,-1.35,71
9.45,-1.2,67
9.45,-1.05,72
9.45,-0.9,95
9.45,-0.75,134
9.45,-0.6,159
9.45,-0.45,149
9.45,-0.3,148
9.45,-0.15,155
9.45,0.0,141
9.45,0.15,142
9.45,0.3,155
9.45,0.45,166
9.45,0.6,175
9.45,0.75,187
9.45,0.9,197
9.45,1.05,205
9.45,1.2,213
9.45,1.35,219
9.45,1.5,224
9.6,-1.5,61
9.6,-1.35,72
9.6,-1.2,90
9.6,-1.05,110
9.6,-0.9,136
9.6,-0.75,159
9.6,-0.6,159
9.6,-0.45,152
9.6,-0.3,157
9.6,-0.15,157
9.6,0.0,143
9.6,0.15,150
9.6,0.3,148
9.6,0.45,156
9.6,0.6,169
9.6,0.75,183
9.6,0.9,194
9.6,1.05,203
9.6,1.2,211
9.6,1.35,216
9.6,1.5,220
9.75,-1.5,34
9.75,-1.35,65
9.75,-1.2,120
9.75,-1.05,158
9.75,-0.9,159
9.75,-0.75,158
9.75,-0.6,138
9.75,-0.45,153
9.75,-0.3,153
9.75,-0.15,152
9.75,0.0,160
9.75,0.15,153
9.75,0.3,150
9.75,0.45,155
9.75,0.6,166
9.75,0.75,179
9.75,0.9,190
9.75,1.05,199
9.75,1.2,206
9.75,1.35,209
9.75,1.5,211
9.9,-1.5,52
9.9,-1.35,81
9.9,-1.2,135
9.9,-1.05,162
9.9,-0.9,147
9.9,-0.75,147
9.9,-0.6,149
9.9,-0.45,150
9.9,-0.3,171
9.9,-0.15,160
9.9,0.0,159
9.9,0.15,158
9.9,0.3,152
9.9,0.45,155
9.9,0.6,165
9.9,0.75,177
9.9,0.9,187
9.9,1.05,196
9.9,1.2,203
9.9,1.35,206
9.9,1.5,209
10.05,-1.5,94
10.05,-1.35,112
10.05,-1.2,146
10.05,-1.05,162
10.05,-0.9,147
10.05,-0.75,164
10.05,-0.6,112
10.05,-0.45,95
10.05,-0.3,236
10.05,-0.15,189
10.05,0.0,151
10.05,0.15,159
10.05,0.3,151
10.05,0.45,152
10.05,0.6,161
10.05,0.75,173
10.05,0.9,182
10.05,1.05,192
10.05,1.2,200
10.05,1.35,205
10.05,1.5,209
10.2,-1.5,118
10.2,-1.35,130
10.2,-1.2,152
10.2,-1.05,162
10.2,-0.9,158
10.2,-0.75,170
10.2,-0.6,146
10.2,-0.45,212
10.2,-0.3,202
10.2,-0.15,161
10.2,0.0,151
10.2,0.15,157
10.2,0.3,151
10.2,0.45,151
10.2,0.6,158
10.2,0.75,169
10.2,0.9,178
10.2,1.05,189
10.2,1.2,197
10.2,1.35,203
10.2,1.5,207
10.35,-1.5,165
10.35,-1.35,165
10.35,-1.2,175
10.35,-1.05,185
10.35,-0.9,207
10.35,-0.75,203
10.35,-0.6,154
10.35,-0.45,146
10.35,-0.3,154
10.35,-0.15,163
10.35,0.0,160
10.35,0.15,151
10.35,0.3,151
10.35,0.45,151
10.35,0.6,156
10.35,0.75,165
10.35,0.9,175
10.35,1.05,186
10.35,1.2,197
10.35,1.35,204
10.35,1.5,210
10.5,-1.5,197
10.5,-1.35,189
10.5,-1.2,192
10.5,-1.05,196
10.5,-0.9,217
10.5,-0.75,205
10.5,-0.6,154
10.5,-0.45,154
10.5,-0.3,161
10.5,-0.15,163
10.5,0.0,152
10.5,0.15,151
10.5,0.3,151
10.5,0.45,151
10.5,0.6,156
10.5,0.75,164
10.5,0.9,173
10.5,1.05,185
10.5,1.2,197
10.5,1.35,205
10.5,1.5,213
10.65,-1.5,222
10.65,-1.35,211
10.65,-1.2,206
10.65,-1.05,196
10.65,-0.9,190
10.65,-0.75,159
10.65,-0.6,154
10.65,-0.45,161
10.65,-0.3,146
10.65,-0.15,136
10.65,0.0,140
10.65,0.15,151
10.65,0.3,151
10.65,0.45,153
10.65,0.6,158
10.65,0.75,158
10.65,0.9,160
10.65,1.05,178
10.65,1.2,197
10.65,1.35,206
10.65,1.5,213
10.8,-1.5,255
10.8,-1.35,243
10.8,-1.2,229
10.8,-1.05,207
10.8,-0.9,190
10.8,-0.75,160
10.8,-0.6,150
10.8,-0.45,150
10.8,-0.3,132
10.8,-0.15,124
10.8,0.0,136
10.8,0.15,148
10.8,0.3,150
10.8,0.45,156
10.8,0.6,163
10.8,0.75,156
10.8,0.9,149
10.8,1.05,174
10.8,1.2,201
10.8,1.35,209
10.8,1.5,217
10.95,-1.5,255
10.95,-1.35,255
10.95,-1.2,251
10.95,-1.05,237
10.95,-0.9,209
10.95,-0.75,173
10.95,-0.6,163
10.95,-0.45,157
10.95,-0.3,165
10.95,-0.15,147
10.95,0.0,140
10.95,0.15,147
10.95,0.3,153
10.95,0.45,159
10.95,0.6,167
10.95,0.75,163
10.95,0.9,159
10.95,1.05,175
10.95,1.2,193
10.95,1.35,200
10.95,1.5,206
11.1,-1.5,247
11.1,-1.35,236
11.1,-1.2,243
11.1,-1.05,230
11.1,-0.9,186
11.1,-0.75,171
11.1,-0.6,173
11.1,-0.45,148
11.1,-0.3,148
11.1,-0.15,159
11.1,0.0,153
11.1,0.15,149
11.1,0.3,155
11.1,0.45,162
11.1,0.6,170
11.1,0.75,174
11.1,0.9,176
11.1,1.05,176
11.1,1.2,176
11.1,1.35,178
11.1,1.5,179
11.25,-1.5,245
11.25,-1.35,232
11.25,-1.2,230
11.25,-1.05,207
11.25,-0.9,167
11.25,-0.75,158
11.25,-0.6,165
11.25,-0.45,156
11.25,-0.3,149
11.25,-0.15,149
11.25,0.0,156
11.25,0.15,153
11.25,0.3,153
11.25,0.45,161
11.25,0.6,170
11.25,0.75,178
11.25,0.9,183
11.25,1.05,182
11.25,1.2,179
11.25,1.35,180
11.25,1.5,180
11.4,-1.5,255
11.4,-1.35,254
11.4,-1.2,216
11.4,-1.05,180
11.4,-0.9,155
11.4,-0.75,140
11.4,-0.6,145
11.4,-0.45,155
11.4,-0.3,155
11.4,-0.15,152
11.4,0.0,159
11.4,0.15,153
11.4,0.3,153
11.4,0.45,158
11.4,0.6,169
11.4,0.75,181
11.4,0.9,190
11.4,1.05,192
11.4,1.2,191
11.4,1.35,193
11.4,1.5,196
11.55,-1.5,255
11.55,-1.35,251
11.55,-1.2,204
11.55,-1.05,168
11.55,-0.9,151
11.55,-0.75,138
11.55,-0.6,142
11.55,-0.45,156
11.55,-0.3,160
11.55,-0.15,160
11.55,0.0,160
11.55,0.15,153
11.55,0.3,153
11.55,0.45,157
11.55,0.6,169
11.55,0.75,181
11.55,0.9,191
11.55,1.05,195
11.55,1.2,195
11.55,1.35,198
11.55,1.5,201
11.7,-1.5,230
11.7,-1.35,210
11.7,-1.2,179
11.7,-1.05,155
11.7,-0.9,146
11.7,-0.75,143
11.7,-0.6,147
11.7,-0.45,154
11.7,-0.3,160
11.7,-0.15,160
11.7,0.0,160
11.7,0.15,158
11.7,0.3,154
11.7,0.45,159
11.7,0.6,169
11.7,0.75,180
11.7,0.9,190
11.7,1.05,194
11.7,1.2,195
11.7,1.35,199
11.7,1.5,202
11.85,-1.5,194
11.85,-1.35,184
11.85,-1.2,166
11.85,-1.05,151
11.85,-0.9,149
11.85,-0.75,149
11.85,-0.6,149
11.85,-0.45,149
11.85,-0.3,150
11.85,-0.15,156
11.85,0.0,160
11.85,0.15,160
11.85,0.3,160
11.85,0.45,160
11.85,0.6,165
11.85,0.75,177
11.85,0.9,189
11.85,1.05,191
11.85,1.2,191
11.85,1.35,195
11.85,1.5,198
12.0,-1.5,178
12.0,-1.35,172
12.0,-1.2,162
12.0,-1.05,154
12.0,-0.9,154
12.0,-0.75,154
12.0,-0.6,150
12.0,-0.45,149
12.0,-0.3,149
12.0,-0.15,150
12.0,0.0,160
12.0,0.15,160
12.0,0.3,157
12.0,0.45,155
12.0,0.6,158
12.0,0.75,171
12.0,0.9,184
12.0,1.05,186
12.0,1.2,187
12.0,1.35,190
12.0,1.5,193
12.15,-1.5,159
12.15,-1.35,160
12.15,-1.2,156
12.15,-1.05,154
12.15,-0.9,156
12.15,-0.75,155
12.15,-0.6,151
12.15,-0.45,149
12.15,-0.3,149
12.15,-0.15,150
12.15,0.0,153
12.15,0.15,150
12.15,0.3,141
12.15,0.45,142
12.15,0.6,145
12.15,0.75,161
12.15,0.9,174
12.15,1.05,178
12.15,1.2,182
12.15,1.35,185
12.15,1.5,188
12.3,-1.5,154
12.3,-1.35,156
12.3,-1.2,156
12.3,-1.05,156
12.3,-0.9,156
12.3,-0.75,156
12.3,-0.6,152
12.3,-0.45,149
12.3,-0.3,149
12.3,-0.15,153
12.3,0.0,148
12.3,0.15,140
12.3,0.3,130
12.3,0.45,129
12.3,0.6,132
12.3,0.75,150
12.3,0.9,164
12.3,1.05,171
12.3,1.2,176
12.3,1.35,179
12.3,1.5,182
12.45,-1.5,152
12.45,-1.35,152
12.45,-1.2,155
12.45,-1.05,156
12.45,-0.9,156
12.45,-0.75,155
12.45,-0.6,152
12.45,-0.45,149
12.45,-0.3,155
12.45,-0.15,164
12.45,0.0,157
12.45,0.15,138
12.45,0.3,124
12.45,0.45,120
12.45,0.6,120
12.45,0.75,134
12.45,0.9,147
12.45,1.05,160
12.45,1.2,169
12.45,1.35,172
12.45,1.5,175
12.6,-1.5,152
12.6,-1.35,152
12.6,-1.2,155
12.6,-1.05,156
12.6,-0.9,155
12.6,-0.75,153
12.6,-0.6,150
12.6,-0.45,148
12.6,-0.3,156
12.6,-0.15,166
12.6,0.0,162
12.6,0.15,141
12.6,0.3,124
12.6,0.45,119
12.6,0.6,120
12.6,0.75,127
12.6,0.9,136
12.6,1.05,150
12.6,1.2,159
12.6,1.35,162
12.6,1.5,165
12.75,-1.5,152
12.75,-1.35,153
12.75,-1.2,154
12.75,-1.05,154
12.75,-0.9,151
12.75,-0.75,145
12.75,-0.6,142
12.75,-0.45,143
12.75,-0.3,150
12.75,-0.15,157
12.75,0.0,157
12.75,0.15,145
12.75,0.3,130
12.75,0.45,124
12.75,0.6,125
12.75,0.75,124
12.75,0.9,127
12.75,1.05,134
12.75,1.2,141
12.75,1.35,145
12.75,1.5,149
12.9,-1.5,151
12.9,-1.35,152
12.9,-1.2,152
12.9,-1.05,149
12.9,-0.9,145
12.9,-0.75,136
12.9,-0.6,135
12.9,-0.45,136
12.9,-0.3,141
12.9,-0.15,146
12.9,0.0,146
12.9,0.15,140
12.9,0.3,129
12.9,0.45,124
12.9,0.6,125
12.9,0.75,125
12.9,0.9,127
12.9,1.05,132
12.9,1.2,138
12.9,1.35,144
12.9,1.5,148
13.05,-1.5,150
13.05,-1.35,150
13.05,-1.2,149
13.05,-1.05,145
13.05,-0.9,139
13.05,-0.75,135
13.05,-0.6,135
13.05,-0.45,135
13.05,-0.3,135
13.05,-0.15,135
13.05,0.0,135
13.05,0.15,131
13.05,0.3,124
13.05,0.45,124
13.05,0.6,124
13.05,0.75,127
13.05,0.9,131
13.05,1.05,135
13.05,1.2,141
13.05,1.35,146
13.05,1.5,148
