-3.0,-1.5,121
-3.0,-1.35,116
-3.0,-1.2,110
-3.0,-1.05,105
-3.0,-0.9,99
-3.0,-0.75,94
-3.0,-0.6,91
-3.0,-0.45,91
-3.0,-0.3,94
-3.0,-0.15,101
-3.0,0.0,122
-3.0,0.15,127
-3.0,0.3,107
-3.0,0.45,94
-3.0,0.6,91
-3.0,0.75,90
-3.0,0.9,94
-3.0,1.05,100
-3.0,1.2,107
-3.0,1.35,114
-3.0,1.5,121
-2.85,-1.5,123
-2.85,-1.35,118
-2.85,-1.2,112
-2.85,-1.05,106
-2.85,-0.9,101
-2.85,-0.75,95
-2.85,-0.6,91
-2.85,-0.45,91
-2.85,-0.3,94
-2.85,-0.15,100
-2.85,0.0,122
-2.85,0.15,126
-2.85,0.3,106
-2.85,0.45,93
-2.85,0.6,90
-2.85,0.75,90
-2.85,0.9,94
-2.85,1.05,101
-2.85,1.2,108
-2.85,1.35,115
-2.85,1.5,122
-2.7,-1.5,125
-2.7,-1.35,119
-2.7,-1.2,114
-2.7,-1.05,108
-2.7,-0.9,102
-2.7,-0.75,97
-2.7,-0.6,91
-2.7,-0.45,91
-2.7,-0.3,93
-2.7,-0.15,99
-2.7,0.0,122
-2.7,0.15,126
-2.7,0.3,105
-2.7,0.45,92
-2.7,0.6,90
-2.7,0.75,90
-2.7,0.9,95
-2.7,1.05,101
-2.7,1.2,108
-2.7,1.35,116
-2.7,1.5,124
-2.55,-1.5,126
-2.55,-1.35,121
-2.55,-1.2,115
-2.55,-1.05,109
-2.55,-0.9,104
-2.55,-0.75,98
-2.55,-0.6,93
-2.55,-0.45,91
-2.55,-0.3,92
-2.55,-0.15,97
-2.55,0.0,118
-2.55,0.15,122
-2.55,0.3,102
-2.55,0.45,90
-2.55,0.6,90
-2.55,0.75,90
-2.55,0.9,96
-2.55,1.05,102
-2.55,1.2,109
-2.55,1.35,117
-2.55,1.5,125
-2.4,-1.5,122
-2.4,-1.35,118
-2.4,-1.2,114
-2.4,-1.05,110
-2.4,-0.9,105
-2.4,-0.75,100
-2.4,-0.6,94
-2.4,-0.45,91
-2.4,-0.3,88
-2.4,-0.15,90
-2.4,0.0,100
-2.4,0.15,102
-2.4,0.3,91
-2.4,0.45,86
-2.4,0.6,88
-2.4,0.75,91
-2.4,0.9,97
-2.4,1.05,103
-2.4,1.2,111
-2.4,1.35,118
-2.4,1.5,127
-2.25,-1.5,118
-2.25,-1.35,114
-2.25,-1.2,111
-2.25,-1.05,111
-2.25,-0.9,107
-2.25,-0.75,101
-2.25,-0.6,96
-2.25,-0.45,92
-2.25,-0.3,88
-2.25,-0.15,86
-2.25,0.0,89
-2.25,0.15,90
-2.25,0.3,86
-2.25,0.45,85
-2.25,0.6,88
-2.25,0.75,93
-2.25,0.9,98
-2.25,1.05,105
-2.25,1.2,112
-2.25,1.35,120
-2.25,1.5,129
-2.1,-1.5,115
-2.1,-1.35,111
-2.1,-1.2,109
-2.1,-1.05,110
-2.1,-0.9,106
-2.1,-0.75,102
-2.1,-0.6,98
-2.1,-0.45,90
-2.1,-0.3,83
-2.1,-0.15,81
-2.1,0.0,83
-2.1,0.15,84
-2.1,0.3,82
-2.1,0.45,82
-2.1,0.6,85
-2.1,0.75,88
-2.1,0.9,94
-2.1,1.05,105
-2.1,1.2,116
-2.1,1.35,125
-2.1,1.5,135
-1.95,-1.5,110
-1.95,-1.35,107
-1.95,-1.2,105
-1.95,-1.05,105
-1.95,-0.9,102
-1.95,-0.75,102
-1.95,-0.6,100
-1.95,-0.45,88
-1.95,-0.3,77
-1.95,-0.15,77
-1.95,0.0,78
-1.95,0.15,79
-1.95,0.3,80
-1.95,0.45,82
-1.95,0.6,83
-1.95,0.75,85
-1.95,0.9,91
-1.95,1.05,108
-1.95,1.2,122
-1.95,1.35,133
-1.95,1.5,145
-1.8,-1.5,109
-1.8,-1.35,105
-1.8,-1.2,103
-1.8,-1.05,104
-1.8,-0.9,102
-1.8,-0.75,101
-1.8,-0.6,99
-1.8,-0.45,90
-1.8,-0.3,82
-1.8,-0.15,82
-1.8,0.0,84
-1.8,0.15,86
-1.8,0.3,88
-1.8,0.45,90
-1.8,0.6,91
-1.8,0.75,93
-1.8,0.9,98
-1.8,1.05,113
-1.8,1.2,127
-1.8,1.35,138
-1.8,1.5,150
-1.65,-1.5,107
-1.65,-1.35,104
-1.65,-1.2,101
-1.65,-1.05,99
-1.65,-0.9,97
-1.65,-0.75,91
-1.65,-0.6,86
-1.65,-0.45,86
-1.65,-0.3,87
-1.65,-0.15,89
-1.65,0.0,91
-1.65,0.15,95
-1.65,0.3,98
-1.65,0.45,100
-1.65,0.6,100
-1.65,0.75,102
-1.65,0.9,107
-1.65,1.05,118
-1.65,1.2,129
-1.65,1.35,140
-1.65,1.5,150
-1.5,-1.5,107
-1.5,-1.35,104
-1.5,-1.2,101
-1.5,-1.05,97
-1.5,-0.9,95
-1.5,-0.75,88
-1.5,-0.6,86
-1.5,-0.45,88
-1.5,-0.3,93
-1.5,-0.15,95
-1.5,0.0,99
-1.5,0.15,104
-1.5,0.3,109
-1.5,0.45,111
-1.5,0.6,111
-1.5,0.75,113
-1.5,0.9,118
-1.5,1.05,126
-1.5,1.2,135
-1.5,1.35,144
-1.5,1.5,155
-1.35,-1.5,94
-1.35,-1.35,94
-1.35,-1.2,93
-1.35,-1.05,94
-1.35,-0.9,94
-1.35,-0.75,95
-1.35,-0.6,95
-1.35,-0.45,97
-1.35,-0.3,100
-1.35,-0.15,102
-1.35,0.0,105
-1.35,0.15,113
-1.35,0.3,120
-1.35,0.45,123
-1.35,0.6,123
-1.35,0.75,124
-1.35,0.9,128
-1.35,1.05,133
-1.35,1.2,142
-1.35,1.35,151
-1.35,1.5,159
-1.2,-1.5,76
-1.2,-1.35,80
-1.2,-1.2,85
-1.2,-1.05,90
-1.2,-0.9,94
-1.2,-0.75,102
-1.2,-0.6,105
-1.2,-0.45,106
-1.2,-0.3,108
-1.2,-0.15,109
-1.2,0.0,111
-1.2,0.15,120
-1.2,0.3,129
-1.2,0.45,134
-1.2,0.6,133
-1.2,0.75,132
-1.2,0.9,134
-1.2,1.05,136
-1.2,1.2,143
-1.2,1.35,151
-1.2,1.5,159
-1.05,-1.5,77
-1.05,-1.35,82
-1.05,-1.2,88
-1.05,-1.05,95
-1.05,-0.9,101
-1.05,-0.75,109
-1.05,-0.6,112
-1.05,-0.45,114
-1.05,-0.3,115
-1.05,-0.15,115
-1.05,0.0,116
-1.05,0.15,126
-1.05,0.3,137
-1.05,0.45,139
-1.05,0.6,138
-1.05,0.75,137
-1.05,0.9,139
-1.05,1.05,140
-1.05,1.2,146
-1.05,1.35,154
-1.05,1.5,161
-0.9,-1.5,78
-0.9,-1.35,85
-0.9,-1.2,92
-0.9,-1.05,100
-0.9,-0.9,107
-0.9,-0.75,115
-0.9,-0.6,120
-0.9,-0.45,123
-0.9,-0.3,124
-0.9,-0.15,122
-0.9,0.0,122
-0.9,0.15,132
-0.9,0.3,139
-0.9,0.45,139
-0.9,0.6,134
-0.9,0.75,135
-0.9,0.9,140
-0.9,1.05,144
-0.9,1.2,153
-0.9,1.35,163
-0.9,1.5,171
-0.75,-1.5,79
-0.75,-1.35,86
-0.75,-1.2,95
-0.75,-1.05,104
-0.75,-0.9,111
-0.75,-0.75,119
-0.75,-0.6,126
-0.75,-0.45,128
-0.75,-0.3,128
-0.75,-0.15,127
-0.75,0.0,131
-0.75,0.15,139
-0.75,0.3,139
-0.75,0.45,136
-0.75,0.6,128
-0.75,0.75,133
-0.75,0.9,142
-0.75,1.05,151
-0.75,1.2,163
-0.75,1.35,174
-0.75,1.5,184
-0.6,-1.5,87
-0.6,-1.35,93
-0.6,-1.2,100
-0.6,-1.05,106
-0.6,-0.9,113
-0.6,-0.75,120
-0.6,-0.6,127
-0.6,-0.45,128
-0.6,-0.3,128
-0.6,-0.15,128
-0.6,0.0,130
-0.6,0.15,138
-0.6,0.3,139
-0.6,0.45,132
-0.6,0.6,124
-0.6,0.75,134
-0.6,0.9,146
-0.6,1.05,157
-0.6,1.2,167
-0.6,1.35,175
-0.6,1.5,181
-0.45,-1.5,99
-0.45,-1.35,103
-0.45,-1.2,105
-0.45,-1.05,106
-0.45,-0.9,111
-0.45,-0.75,118
-0.45,-0.6,122
-0.45,-0.45,124
-0.45,-0.3,125
-0.45,-0.15,124
-0.45,0.0,123
-0.45,0.15,131
-0.45,0.3,139
-0.45,0.45,133
-0.45,0.6,128
-0.45,0.75,138
-0.45,0.9,149
-0.45,1.05,156
-0.45,1.2,161
-0.45,1.35,163
-0.45,1.5,164
-0.3,-1.5,102
-0.3,-1.35,105
-0.3,-1.2,106
-0.3,-1.05,105
-0.3,-0.9,109
-0.3,-0.75,114
-0.3,-0.6,117
-0.3,-0.45,118
-0.3,-0.3,120
-0.3,-0.15,122
-0.3,0.0,122
-0.3,0.15,131
-0.3,0.3,139
-0.3,0.45,139
-0.3,0.6,138
-0.3,0.75,142
-0.3,0.9,149
-0.3,1.05,155
-0.3,1.2,156
-0.3,1.35,156
-0.3,1.5,155
-0.15,-1.5,94
-0.15,-1.35,98
-0.15,-1.2,102
-0.15,-1.05,108
-0.15,-0.9,111
-0.15,-0.75,112
-0.15,-0.6,113
-0.15,-0.45,116
-0.15,-0.3,120
-0.15,-0.15,123
-0.15,0.0,122
-0.15,0.15,127
-0.15,0.3,135
-0.15,0.45,137
-0.15,0.6,139
-0.15,0.75,143
-0.15,0.9,148
-0.15,1.05,152
-0.15,1.2,153
-0.15,1.35,153
-0.15,1.5,153
0.0,-1.5,89
0.0,-1.35,93
0.0,-1.2,100
0.0,-1.05,111
0.0,-0.9,114
0.0,-0.75,111
0.0,-0.6,112
0.0,-0.45,117
0.0,-0.3,121
0.0,-0.15,124
0.0,0.0,122
0.0,0.15,122
0.0,0.3,121
0.0,0.45,120
0.0,0.6,128
0.0,0.75,138
0.0,0.9,144
0.0,1.05,146
0.0,1.2,148
0.0,1.35,151
0.0,1.5,154
0.15,-1.5,95
0.15,-1.35,98
0.15,-1.2,104
0.15,-1.05,113
0.15,-0.9,115
0.15,-0.75,114
0.15,-0.6,115
0.15,-0.45,119
0.15,-0.3,122
0.15,-0.15,124
0.15,0.0,124
0.15,0.15,122
0.15,0.3,118
0.15,0.45,118
0.15,0.6,122
0.15,0.75,129
0.15,0.9,134
0.15,1.05,139
0.15,1.2,145
0.15,1.35,152
0.15,1.5,160
0.3,-1.5,99
0.3,-1.35,102
0.3,-1.2,107
0.3,-1.05,114
0.3,-0.9,116
0.3,-0.75,120
0.3,-0.6,122
0.3,-0.45,122
0.3,-0.3,123
0.3,-0.15,125
0.3,0.0,130
0.3,0.15,131
0.3,0.3,126
0.3,0.45,120
0.3,0.6,118
0.3,0.75,122
0.3,0.9,131
0.3,1.05,139
0.3,1.2,150
0.3,1.35,164
0.3,1.5,178
0.45,-1.5,97
0.45,-1.35,101
0.45,-1.2,106
0.45,-1.05,113
0.45,-0.9,115
0.45,-0.75,120
0.45,-0.6,122
0.45,-0.45,122
0.45,-0.3,123
0.45,-0.15,127
0.45,0.0,136
0.45,0.15,138
0.45,0.3,129
0.45,0.45,116
0.45,0.6,111
0.45,0.75,119
0.45,0.9,134
0.45,1.05,147
0.45,1.2,161
0.45,1.35,176
0.45,1.5,192
0.6,-1.5,93
0.6,-1.35,98
0.6,-1.2,104
0.6,-1.05,111
0.6,-0.9,114
0.6,-0.75,117
0.6,-0.6,118
0.6,-0.45,120
0.6,-0.3,123
0.6,-0.15,128
0.6,0.0,138
0.6,0.15,140
0.6,0.3,129
0.6,0.45,117
0.6,0.6,114
0.6,0.75,127
0.6,0.9,146
0.6,1.05,164
0.6,1.2,182
0.6,1.35,200
0.6,1.5,218
0.75,-1.5,89
0.75,-1.35,95
0.75,-1.2,101
0.75,-1.05,108
0.75,-0.9,112
0.75,-0.75,114
0.75,-0.6,115
0.75,-0.45,117
0.75,-0.3,121
0.75,-0.15,126
0.75,0.0,133
0.75,0.15,133
0.75,0.3,127
0.75,0.45,125
0.75,0.6,134
0.75,0.75,150
0.75,0.9,166
0.75,1.05,187
0.75,1.2,209
0.75,1.35,230
0.75,1.5,251
0.9,-1.5,89
0.9,-1.35,94
0.9,-1.2,101
0.9,-1.05,108
0.9,-0.9,112
0.9,-0.75,114
0.9,-0.6,115
0.9,-0.45,118
0.9,-0.3,119
0.9,-0.15,121
0.9,0.0,122
0.9,0.15,119
0.9,0.3,117
0.9,0.45,127
0.9,0.6,150
0.9,0.75,171
0.9,0.9,189
0.9,1.05,207
0.9,1.2,226
0.9,1.35,244
0.9,1.5,255
1.05,-1.5,93
1.05,-1.35,96
1.05,-1.2,101
1.05,-1.05,109
1.05,-0.9,112
1.05,-0.75,114
1.05,-0.6,117
1.05,-0.45,121
1.05,-0.3,124
1.05,-0.15,123
1.05,0.0,118
1.05,0.15,109
1.05,0.3,106
1.05,0.45,126
1.05,0.6,159
1.05,0.75,193
1.05,0.9,218
1.05,1.05,219
1.05,1.2,224
1.05,1.35,237
1.05,1.5,250
1.2,-1.5,95
1.2,-1.35,96
1.2,-1.2,100
1.2,-1.05,107
1.2,-0.9,111
1.2,-0.75,115
1.2,-0.6,121
1.2,-0.45,126
1.2,-0.3,131
1.2,-0.15,135
1.2,0.0,129
1.2,0.15,107
1.2,0.3,94
1.2,0.45,120
1.2,0.6,165
1.2,0.75,209
1.2,0.9,237
1.2,1.05,225
1.2,1.2,222
1.2,1.35,231
1.2,1.5,241
1.35,-1.5,96
1.35,-1.35,97
1.35,-1.2,99
1.35,-1.05,103
1.35,-0.9,107
1.35,-0.75,115
1.35,-0.6,123
1.35,-0.45,129
1.35,-0.3,135
1.35,-0.15,141
1.35,0.0,143
1.35,0.15,111
1.35,0.3,88
1.35,0.45,121
1.35,0.6,167
1.35,0.75,204
1.35,0.9,221
1.35,1.05,206
1.35,1.2,200
1.35,1.35,204
1.35,1.5,207
1.5,-1.5,97
1.5,-1.35,98
1.5,-1.2,99
1.5,-1.05,101
1.5,-0.9,105
1.5,-0.75,113
1.5,-0.6,120
1.5,-0.45,128
1.5,-0.3,133
1.5,-0.15,136
1.5,0.0,144
1.5,0.15,117
1.5,0.3,110
1.5,0.45,153
1.5,0.6,187
1.5,0.75,204
1.5,0.9,203
1.5,1.05,182
1.5,1.2,175
1.5,1.35,174
1.5,1.5,175
1.65,-1.5,86
1.65,-1.35,90
1.65,-1.2,95
1.65,-1.05,101
1.65,-0.9,105
1.65,-0.75,111
1.65,-0.6,116
1.65,-0.45,122
1.65,-0.3,127
1.65,-0.15,131
1.65,0.0,135
1.65,0.15,132
1.65,0.3,149
1.65,0.45,171
1.65,0.6,190
1.65,0.75,204
1.65,0.9,196
1.65,1.05,168
1.65,1.2,157
1.65,1.35,155
1.65,1.5,156
1.8,-1.5,57
1.8,-1.35,69
1.8,-1.2,83
1.8,-1.05,100
1.8,-0.9,107
1.8,-0.75,114
1.8,-0.6,117
1.8,-0.45,120
1.8,-0.3,122
1.8,-0.15,123
1.8,0.0,124
1.8,0.15,129
1.8,0.3,136
1.8,0.45,141
1.8,0.6,157
1.8,0.75,178
1.8,0.9,171
1.8,1.05,149
1.8,1.2,137
1.8,1.35,132
1.8,1.5,128
1.95,-1.5,48
1.95,-1.35,62
1.95,-1.2,81
1.95,-1.05,105
1.95,-0.9,114
1.95,-0.75,122
1.95,-0.6,126
1.95,-0.45,128
1.95,-0.3,128
1.95,-0.15,123
1.95,0.0,123
1.95,0.15,125
1.95,0.3,128
1.95,0.45,128
1.95,0.6,136
1.95,0.75,148
1.95,0.9,147
1.95,1.05,135
1.95,1.2,128
1.95,1.35,124
1.95,1.5,122
2.1,-1.5,66
2.1,-1.35,75
2.1,-1.2,89
2.1,-1.05,110
2.1,-0.9,122
2.1,-0.75,135
2.1,-0.6,140
2.1,-0.45,141
2.1,-0.3,135
2.1,-0.15,125
2.1,0.0,123
2.1,0.15,125
2.1,0.3,124
2.1,0.45,124
2.1,0.6,124
2.1,0.75,128
2.1,0.9,130
2.1,1.05,128
2.1,1.2,125
2.1,1.35,124
2.1,1.5,122
2.25,-1.5,86
2.25,-1.35,90
2.25,-1.2,97
2.25,-1.05,113
2.25,-0.9,127
2.25,-0.75,144
2.25,-0.6,148
2.25,-0.45,142
2.25,-0.3,129
2.25,-0.15,123
2.25,0.0,125
2.25,0.15,125
2.25,0.3,124
2.25,0.45,124
2.25,0.6,124
2.25,0.75,126
2.25,0.9,129
2.25,1.05,127
2.25,1.2,125
2.25,1.35,123
2.25,1.5,120
2.4,-1.5,82
2.4,-1.35,87
2.4,-1.2,94
2.4,-1.05,110
2.4,-0.9,125
2.4,-0.75,137
2.4,-0.6,138
2.4,-0.45,132
2.4,-0.3,123
2.4,-0.15,124
2.4,0.0,125
2.4,0.15,125
2.4,0.3,124
2.4,0.45,124
2.4,0.6,125
2.4,0.75,127
2.4,0.9,126
2.4,1.05,123
2.4,1.2,121
2.4,1.35,120
2.4,1.5,120
2.55,-1.5,59
2.55,-1.35,65
2.55,-1.2,73
2.55,-1.05,87
2.55,-0.9,105
2.55,-0.75,116
2.55,-0.6,121
2.55,-0.45,126
2.55,-0.3,123
2.55,-0.15,123
2.55,0.0,123
2.55,0.15,124
2.55,0.3,124
2.55,0.45,124
2.55,0.6,126
2.55,0.75,124
2.55,0.9,120
2.55,1.05,120
2.55,1.2,120
2.55,1.35,120
2.55,1.5,121
2.7,-1.5,48
2.7,-1.35,54
2.7,-1.2,58
2.7,-1.05,65
2.7,-0.9,85
2.7,-0.75,103
2.7,-0.6,116
2.7,-0.45,126
2.7,-0.3,123
2.7,-0.15,123
2.7,0.0,123
2.7,0.15,125
2.7,0.3,124
2.7,0.45,125
2.7,0.6,122
2.7,0.75,120
2.7,0.9,120
2.7,1.05,120
2.7,1.2,120
2.7,1.35,120
2.7,1.5,122
2.85,-1.5,95
2.85,-1.35,92
2.85,-1.2,82
2.85,-1.05,65
2.85,-0.9,75
2.85,-0.75,91
2.85,-0.6,107
2.85,-0.45,120
2.85,-0.3,123
2.85,-0.15,125
2.85,0.0,125
2.85,0.15,124
2.85,0.3,124
2.85,0.45,123
2.85,0.6,122
2.85,0.75,122
2.85,0.9,120
2.85,1.05,120
2.85,1.2,120
2.85,1.35,122
2.85,1.5,127
3.0,-1.5,129
3.0,-1.35,125
3.0,-1.2,105
3.0,-1.05,71
3.0,-0.9,71
3.0,-0.75,80
3.0,-0.6,99
3.0,-0.45,113
3.0,-0.3,125
3.0,-0.15,126
3.0,0.0,124
3.0,0.15,119
3.0,0.3,113
3.0,0.45,116
3.0,0.6,121
3.0,0.75,123
3.0,0.9,123
3.0,1.05,120
3.0,1.2,121
3.0,1.35,127
3.0,1.5,133
3.15,-1.5,129
3.15,-1.35,120
3.15,-1.2,100
3.15,-1.05,71
3.15,-0.9,71
3.15,-0.75,74
3.15,-0.6,100
3.15,-0.45,116
3.15,-0.3,125
3.15,-0.15,135
3.15,0.0,129
3.15,0.15,122
3.15,0.3,138
3.15,0.45,129
3.15,0.6,121
3.15,0.75,123
3.15,0.9,123
3.15,1.05,119
3.15,1.2,121
3.15,1.35,128
3.15,1.5,136
3.3,-1.5,129
3.3,-1.35,117
3.3,-1.2,101
3.3,-1.05,84
3.3,-0.9,78
3.3,-0.75,72
3.3,-0.6,99
3.3,-0.45,125
3.3,-0.3,120
3.3,-0.15,121
3.3,0.0,159
3.3,0.15,110
3.3,0.3,127
3.3,0.45,151
3.3,0.6,140
3.3,0.75,127
3.3,0.9,116
3.3,1.05,112
3.3,1.2,118
3.3,1.35,129
3.3,1.5,144
3.45,-1.5,130
3.45,-1.35,118
3.45,-1.2,105
3.45,-1.05,92
3.45,-0.9,83
3.45,-0.75,72
3.45,-0.6,86
3.45,-0.45,125
3.45,-0.3,125
3.45,-0.15,105
3.45,0.0,123
3.45,0.15,102
3.45,0.3,114
3.45,0.45,163
3.45,0.6,154
3.45,0.75,134
3.45,0.9,120
3.45,1.05,115
3.45,1.2,125
3.45,1.35,138
3.45,1.5,155
3.6,-1.5,132
3.6,-1.35,123
3.6,-1.2,113
3.6,-1.05,103
3.6,-0.9,95
3.6,-0.75,82
3.6,-0.6,89
3.6,-0.45,114
3.6,-0.3,124
3.6,-0.15,124
3.6,0.0,123
3.6,0.15,115
3.6,0.3,127
3.6,0.45,149
3.6,0.6,129
3.6,0.75,123
3.6,0.9,120
3.6,1.05,121
3.6,1.2,123
3.6,1.35,126
3.6,1.5,130
3.75,-1.5,136
3.75,-1.35,129
3.75,-1.2,123
3.75,-1.05,119
3.75,-0.9,115
3.75,-0.75,111
3.75,-0.6,112
3.75,-0.45,129
3.75,-0.3,131
3.75,-0.15,131
3.75,0.0,103
3.75,0.15,121
3.75,0.3,135
3.75,0.45,104
3.75,0.6,97
3.75,0.75,119
3.75,0.9,133
3.75,1.05,130
3.75,1.2,119
3.75,1.35,109
3.75,1.5,98
3.9,-1.5,144
3.9,-1.35,137
3.9,-1.2,133
3.9,-1.05,130
3.9,-0.9,129
3.9,-0.75,129
3.9,-0.6,122
3.9,-0.45,126
3.9,-0.3,129
3.9,-0.15,131
3.9,0.0,126
3.9,0.15,116
3.9,0.3,127
3.9,0.45,132
3.9,0.6,101
3.9,0.75,120
3.9,0.9,145
3.9,1.05,134
3.9,1.2,117
3.9,1.35,112
3.9,1.5,111
4.05,-1.5,156
4.05,-1.35,148
4.05,-1.2,138
4.05,-1.05,128
4.05,-0.9,125
4.05,-0.75,129
4.05,-0.6,127
4.05,-0.45,126
4.05,-0.3,130
4.05,-0.15,124
4.05,0.0,131
4.05,0.15,133
4.05,0.3,124
4.05,0.45,132
4.05,0.6,106
4.05,0.75,111
4.05,0.9,131
4.05,1.05,108
4.05,1.2,101
4.05,1.35,126
4.05,1.5,168
4.2,-1.5,164
4.2,-1.35,153
4.2,-1.2,139
4.2,-1.05,123
4.2,-0.9,121
4.2,-0.75,132
4.2,-0.6,143
4.2,-0.45,143
4.2,-0.3,133
4.2,-0.15,124
4.2,0.0,152
4.2,0.15,131
4.2,0.3,124
4.2,0.45,130
4.2,0.6,126
4.2,0.75,120
4.2,0.9,118
4.2,1.05,93
4.2,1.2,111
4.2,1.35,166
4.2,1.5,237
4.35,-1.5,170
4.35,-1.35,158
4.35,-1.2,139
4.35,-1.05,114
4.35,-0.9,112
4.35,-0.75,125
4.35,-0.6,145
4.35,-0.45,150
4.35,-0.3,129
4.35,-0.15,120
4.35,0.0,120
4.35,0.15,139
4.35,0.3,127
4.35,0.45,129
4.35,0.6,130
4.35,0.75,130
4.35,0.9,124
4.35,1.05,119
4.35,1.2,144
4.35,1.35,180
4.35,1.5,220
4.5,-1.5,177
4.5,-1.35,168
4.5,-1.2,142
4.5,-1.05,100
4.5,-0.9,98
4.5,-0.75,112
4.5,-0.6,132
4.5,-0.45,138
4.5,-0.3,129
4.5,-0.15,122
4.5,0.0,123
4.5,0.15,116
4.5,0.3,121
4.5,0.45,114
4.5,0.6,117
4.5,0.75,109
4.5,0.9,111
4.5,1.05,129
4.5,1.2,130
4.5,1.35,124
4.5,1.5,111
4.65,-1.5,171
4.65,-1.35,165
4.65,-1.2,141
4.65,-1.05,95
4.65,-0.9,93
4.65,-0.75,107
4.65,-0.6,121
4.65,-0.45,125
4.65,-0.3,126
4.65,-0.15,131
4.65,0.0,114
4.65,0.15,127
4.65,0.3,129
4.65,0.45,143
4.65,0.6,72
4.65,0.75,40
4.65,0.9,85
4.65,1.05,141
4.65,1.2,142
4.65,1.35,129
4.65,1.5,109
4.8,-1.5,138
4.8,-1.35,140
4.8,-1.2,130
4.8,-1.05,101
4.8,-0.9,100
4.8,-0.75,109
4.8,-0.6,115
4.8,-0.45,120
4.8,-0.3,115
4.8,-0.15,98
4.8,0.0,138
4.8,0.15,139
4.8,0.3,145
4.8,0.45,48
4.8,0.6,0
4.8,0.75,56
4.8,0.9,148
4.8,1.05,185
4.8,1.2,186
4.8,1.35,186
4.8,1.5,180
4.95,-1.5,128
4.95,-1.35,128
4.95,-1.2,124
4.95,-1.05,108
4.95,-0.9,108
4.95,-0.75,112
4.95,-0.6,112
4.95,-0.45,120
4.95,-0.3,127
4.95,-0.15,114
4.95,0.0,132
4.95,0.15,134
4.95,0.3,120
4.95,0.45,131
4.95,0.6,66
4.95,0.75,147
4.95,0.9,215
4.95,1.05,218
4.95,1.2,224
4.95,1.35,238
4.95,1.5,247
5.1,-1.5,142
5.1,-1.35,141
5.1,-1.2,138
5.1,-1.05,131
5.1,-0.9,131
5.1,-0.75,122
5.1,-0.6,113
5.1,-0.45,114
5.1,-0.3,122
5.1,-0.15,128
5.1,0.0,124
5.1,0.15,139
5.1,0.3,146
5.1,0.45,126
5.1,0.6,118
5.1,0.75,156
5.1,0.9,191
5.1,1.05,243
5.1,1.2,255
5.1,1.35,255
5.1,1.5,255
5.25,-1.5,159
5.25,-1.35,154
5.25,-1.2,148
5.25,-1.05,143
5.25,-0.9,143
5.25,-0.75,134
5.25,-0.6,124
5.25,-0.45,115
5.25,-0.3,119
5.25,-0.15,128
5.25,0.0,116
5.25,0.15,127
5.25,0.3,136
5.25,0.45,125
5.25,0.6,121
5.25,0.75,124
5.25,0.9,140
5.25,1.05,232
5.25,1.2,255
5.25,1.35,255
5.25,1.5,255
5.4,-1.5,167
5.4,-1.35,159
5.4,-1.2,146
5.4,-1.05,131
5.4,-0.9,130
5.4,-0.75,135
5.4,-0.6,135
5.4,-0.45,126
5.4,-0.3,123
5.4,-0.15,125
5.4,0.0,124
5.4,0.15,128
5.4,0.3,124
5.4,0.45,134
5.4,0.6,150
5.4,0.75,124
5.4,0.9,132
5.4,1.05,199
5.4,1.2,255
5.4,1.35,255
5.4,1.5,255
5.55,-1.5,188
5.55,-1.35,174
5.55,-1.2,154
5.55,-1.05,130
5.55,-0.9,122
5.55,-0.75,125
5.55,-0.6,132
5.55,-0.45,121
5.55,-0.3,124
5.55,-0.15,122
5.55,0.0,125
5.55,0.15,128
5.55,0.3,126
5.55,0.45,124
5.55,0.6,177
5.55,0.75,191
5.55,0.9,183
5.55,1.05,177
5.55,1.2,213
5.55,1.35,254
5.55,1.5,255
5.7,-1.5,191
5.7,-1.35,183
5.7,-1.2,162
5.7,-1.05,140
5.7,-0.9,130
5.7,-0.75,122
5.7,-0.6,122
5.7,-0.45,121
5.7,-0.3,121
5.7,-0.15,124
5.7,0.0,116
5.7,0.15,128
5.7,0.3,124
5.7,0.45,124
5.7,0.6,183
5.7,0.75,199
5.7,0.9,201
5.7,1.05,183
5.7,1.2,199
5.7,1.35,223
5.7,1.5,244
5.85,-1.5,191
5.85,-1.35,181
5.85,-1.2,170
5.85,-1.05,162
5.85,-0.9,151
5.85,-0.75,131
5.85,-0.6,126
5.85,-0.45,124
5.85,-0.3,124
5.85,-0.15,112
5.85,0.0,119
5.85,0.15,128
5.85,0.3,124
5.85,0.45,124
5.85,0.6,131
5.85,0.75,146
5.85,0.9,194
5.85,1.05,201
5.85,1.2,210
5.85,1.35,230
5.85,1.5,244
6.0,-1.5,191
6.0,-1.35,183
6.0,-1.2,179
6.0,-1.05,182
6.0,-0.9,163
6.0,-0.75,116
6.0,-0.6,115
6.0,-0.45,134
6.0,-0.3,122
6.0,-0.15,119
6.0,0.0,124
6.0,0.15,128
6.0,0.3,123
6.0,0.45,123
6.0,0.6,116
6.0,0.75,96
6.0,0.9,155
6.0,1.05,198
6.0,1.2,206
6.0,1.35,221
6.0,1.5,234
6.15,-1.5,200
6.15,-1.35,193
6.15,-1.2,184
6.15,-1.05,170
6.15,-0.9,149
6.15,-0.75,98
6.15,-0.6,102
6.15,-0.45,126
6.15,-0.3,127
6.15,-0.15,122
6.15,0.0,119
6.15,0.15,122
6.15,0.3,120
6.15,0.45,123
6.15,0.6,110
6.15,0.75,94
6.15,0.9,139
6.15,1.05,181
6.15,1.2,194
6.15,1.35,209
6.15,1.5,222
6.3,-1.5,208
6.3,-1.35,206
6.3,-1.2,175
6.3,-1.05,115
6.3,-0.9,110
6.3,-0.75,106
6.3,-0.6,78
6.3,-0.45,82
6.3,-0.3,120
6.3,-0.15,123
6.3,0.0,126
6.3,0.15,120
6.3,0.3,121
6.3,0.45,110
6.3,0.6,117
6.3,0.75,118
6.3,0.9,146
6.3,1.05,162
6.3,1.2,176
6.3,1.35,191
6.3,1.5,205
6.45,-1.5,206
6.45,-1.35,206
6.45,-1.2,162
6.45,-1.05,77
6.45,-0.9,90
6.45,-0.75,130
6.45,-0.6,97
6.45,-0.45,81
6.45,-0.3,134
6.45,-0.15,112
6.45,0.0,130
6.45,0.15,124
6.45,0.3,130
6.45,0.45,129
6.45,0.6,141
6.45,0.75,125
6.45,0.9,140
6.45,1.05,153
6.45,1.2,172
6.45,1.35,186
6.45,1.5,200
6.6,-1.5,194
6.6,-1.35,193
6.6,-1.2,168
6.6,-1.05,119
6.6,-0.9,118
6.6,-0.75,128
6.6,-0.6,131
6.6,-0.45,123
6.6,-0.3,112
6.6,-0.15,114
6.6,0.0,118
6.6,0.15,130
6.6,0.3,123
6.6,0.45,120
6.6,0.6,120
6.6,0.75,112
6.6,0.9,121
6.6,1.05,147
6.6,1.2,162
6.6,1.35,169
6.6,1.5,175
6.75,-1.5,172
6.75,-1.35,171
6.75,-1.2,178
6.75,-1.05,178
6.75,-0.9,147
6.75,-0.75,76
6.75,-0.6,102
6.75,-0.45,141
6.75,-0.3,143
6.75,-0.15,129
6.75,0.0,120
6.75,0.15,129
6.75,0.3,137
6.75,0.45,121
6.75,0.6,139
6.75,0.75,125
6.75,0.9,131
6.75,1.05,147
6.75,1.2,145
6.75,1.35,143
6.75,1.5,140
6.9,-1.5,139
6.9,-1.35,140
6.9,-1.2,145
6.9,-1.05,143
6.9,-0.9,108
6.9,-0.75,33
6.9,-0.6,65
6.9,-0.45,118
6.9,-0.3,122
6.9,-0.15,122
6.9,0.0,122
6.9,0.15,124
6.9,0.3,123
6.9,0.45,139
6.9,0.6,139
6.9,0.75,138
6.9,0.9,146
6.9,1.05,147
6.9,1.2,139
6.9,1.35,135
6.9,1.5,131
7.05,-1.5,88
7.05,-1.35,93
7.05,-1.2,74
7.05,-1.05,24
7.05,-0.9,26
7.05,-0.75,19
7.05,-0.6,50
7.05,-0.45,109
7.05,-0.3,124
7.05,-0.15,124
7.05,0.0,124
7.05,0.15,124
7.05,0.3,124
7.05,0.45,129
7.05,0.6,130
7.05,0.75,154
7.05,0.9,162
7.05,1.05,146
7.05,1.2,137
7.05,1.35,134
7.05,1.5,131
7.2,-1.5,59
7.2,-1.35,67
7.2,-1.2,42
7.2,-1.05,0
7.2,-0.9,16
7.2,-0.75,45
7.2,-0.6,67
7.2,-0.45,98
7.2,-0.3,124
7.2,-0.15,118
7.2,0.0,118
7.2,0.15,114
7.2,0.3,126
7.2,0.45,114
7.2,0.6,134
7.2,0.75,156
7.2,0.9,157
7.2,1.05,140
7.2,1.2,133
7.2,1.35,132
7.2,1.5,131
7.35,-1.5,45
7.35,-1.35,53
7.35,-1.2,37
7.35,-1.05,4
7.35,-0.9,34
7.35,-0.75,60
7.35,-0.6,104
7.35,-0.45,127
7.35,-0.3,125
7.35,-0.15,122
7.35,0.0,127
7.35,0.15,124
7.35,0.3,122
7.35,0.45,134
7.35,0.6,132
7.35,0.75,137
7.35,0.9,137
7.35,1.05,128
7.35,1.2,126
7.35,1.35,129
7.35,1.5,132
7.5,-1.5,32
7.5,-1.35,41
7.5,-1.2,31
7.5,-1.05,11
7.5,-0.9,40
7.5,-0.75,71
7.5,-0.6,120
7.5,-0.45,133
7.5,-0.3,122
7.5,-0.15,122
7.5,0.0,122
7.5,0.15,127
7.5,0.3,131
7.5,0.45,114
7.5,0.6,123
7.5,0.75,115
7.5,0.9,111
7.5,1.05,107
7.5,1.2,110
7.5,1.35,119
7.5,1.5,131
7.65,-1.5,0
7.65,-1.35,15
7.65,-1.2,19
7.65,-1.05,20
7.65,-0.9,49
7.65,-0.75,84
7.65,-0.6,121
7.65,-0.45,135
7.65,-0.3,122
7.65,-0.15,122
7.65,0.0,127
7.65,0.15,127
7.65,0.3,124
7.65,0.45,124
7.65,0.6,108
7.65,0.75,94
7.65,0.9,86
7.65,1.05,89
7.65,1.2,100
7.65,1.35,112
7.65,1.5,127
7.8,-1.5,0
7.8,-1.35,0
7.8,-1.2,1
7.8,-1.05,42
7.8,-0.9,69
7.8,-0.75,99
7.8,-0.6,116
7.8,-0.45,123
7.8,-0.3,128
7.8,-0.15,123
7.8,0.0,122
7.8,0.15,122
7.8,0.3,123
7.8,0.45,122
7.8,0.6,119
7.8,0.75,109
7.8,0.9,93
7.8,1.05,91
7.8,1.2,103
7.8,1.35,116
7.8,1.5,127
7.95,-1.5,0
7.95,-1.35,0
7.95,-1.2,0
7.95,-1.05,51
7.95,-0.9,75
7.95,-0.75,98
7.95,-0.6,113
7.95,-0.45,122
7.95,-0.3,122
7.95,-0.15,124
7.95,0.0,122
7.95,0.15,122
7.95,0.3,121
7.95,0.45,121
7.95,0.6,129
7.95,0.75,137
7.95,0.9,129
7.95,1.05,108
7.95,1.2,109
7.95,1.35,118
7.95,1.5,127
8.1,-1.5,0
8.1,-1.35,2
8.1,-1.2,31
8.1,-1.05,65
8.1,-0.9,80
8.1,-0.75,94
8.1,-0.6,110
8.1,-0.45,125
8.1,-0.3,125
8.1,-0.15,122
8.1,0.0,124
8.1,0.15,129
8.1,0.3,129
8.1,0.45,129
8.1,0.6,126
8.1,0.75,152
8.1,0.9,162
8.1,1.05,118
8.1,1.2,85
8.1,1.35,72
8.1,1.5,60
8.25,-1.5,45
8.25,-1.35,52
8.25,-1.2,64
8.25,-1.05,79
8.25,-0.9,84
8.25,-0.75,91
8.25,-0.6,103
8.25,-0.45,119
8.25,-0.3,125
8.25,-0.15,127
8.25,0.0,129
8.25,0.15,128
8.25,0.3,123
8.25,0.45,123
8.25,0.6,128
8.25,0.75,156
8.25,0.9,174
8.25,1.05,122
8.25,1.2,69
8.25,1.35,35
8.25,1.5,1
8.4,-1.5,50
8.4,-1.35,57
8.4,-1.2,66
8.4,-1.05,73
8.4,-0.9,80
8.4,-0.75,93
8.4,-0.6,106
8.4,-0.45,120
8.4,-0.3,126
8.4,-0.15,129
8.4,0.0,128
8.4,0.15,121
8.4,0.3,127
8.4,0.45,124
8.4,0.6,128
8.4,0.75,151
8.4,0.9,165
8.4,1.05,130
8.4,1.2,90
8.4,1.35,62
8.4,1.5,34
8.55,-1.5,50
8.55,-1.35,58
8.55,-1.2,62
8.55,-1.05,62
8.55,-0.9,77
8.55,-0.75,103
8.55,-0.6,115
8.55,-0.45,122
8.55,-0.3,127
8.55,-0.15,122
8.55,0.0,129
8.55,0.15,123
8.55,0.3,121
8.55,0.45,121
8.55,0.6,125
8.55,0.75,141
8.55,0.9,148
8.55,1.05,133
8.55,1.2,117
8.55,1.35,108
8.55,1.5,100
8.7,-1.5,52
8.7,-1.35,63
8.7,-1.2,68
8.7,-1.05,68
8.7,-0.9,86
8.7,-0.75,111
8.7,-0.6,121
8.7,-0.45,120
8.7,-0.3,122
8.7,-0.15,126
8.7,0.0,124
8.7,0.15,128
8.7,0.3,121
8.7,0.45,123
8.7,0.6,121
8.7,0.75,121
8.7,0.9,127
8.7,1.05,121
8.7,1.2,114
8.7,1.35,113
8.7,1.5,113
8.85,-1.5,61
8.85,-1.35,72
8.85,-1.2,82
8.85,-1.05,93
8.85,-0.9,105
8.85,-0.75,119
8.85,-0.6,122
8.85,-0.45,120
8.85,-0.3,121
8.85,-0.15,122
8.85,0.0,124
8.85,0.15,121
8.85,0.3,121
8.85,0.45,124
8.85,0.6,121
8.85,0.75,121
8.85,0.9,121
8.85,1.05,113
8.85,1.2,113
8.85,1.35,113
8.85,1.5,114
9.0,-1.5,68
9.0,-1.35,78
9.0,-1.2,93
9.0,-1.05,112
9.0,-0.9,118
9.0,-0.75,122
9.0,-0.6,122
9.0,-0.45,121
9.0,-0.3,121
9.0,-0.15,124
9.0,0.0,121
9.0,0.15,123
9.0,0.3,124
9.0,0.45,124
9.0,0.6,124
9.0,0.75,127
9.0,0.9,132
9.0,1.05,118
9.0,1.2,114
9.0,1.35,122
9.0,1.5,131
9.15,-1.5,72
9.15,-1.35,82
9.15,-1.2,96
9.15,-1.05,114
9.15,-0.9,120
9.15,-0.75,122
9.15,-0.6,122
9.15,-0.45,123
9.15,-0.3,134
9.15,-0.15,124
9.15,0.0,121
9.15,0.15,124
9.15,0.3,123
9.15,0.45,123
9.15,0.6,128
9.15,0.75,141
9.15,0.9,147
9.15,1.05,125
9.15,1.2,116
9.15,1.35,120
9.15,1.5,126
9.3,-1.5,81
9.3,-1.35,89
9.3,-1.2,99
9.3,-1.05,110
9.3,-0.9,116
9.3,-0.75,121
9.3,-0.6,121
9.3,-0.45,121
9.3,-0.3,132
9.3,-0.15,125
9.3,0.0,121
9.3,0.15,121
9.3,0.3,124
9.3,0.45,123
9.3,0.6,126
9.3,0.75,144
9.3,0.9,151
9.3,1.05,123
9.3,1.2,104
9.3,1.35,96
9.3,1.5,90
9.45,-1.5,83
9.45,-1.35,90
9.45,-1.2,98
9.45,-1.05,104
9.45,-0.9,112
9.45,-0.75,120
9.45,-0.6,121
9.45,-0.45,123
9.45,-0.3,124
9.45,-0.15,126
9.45,0.0,122
9.45,0.15,121
9.45,0.3,124
9.45,0.45,123
9.45,0.6,134
9.45,0.75,145
9.45,0.9,145
9.45,1.05,118
9.45,1.2,95
9.45,1.35,82
9.45,1.5,69
9.6,-1.5,80
9.6,-1.35,88
9.6,-1.2,95
9.6,-1.05,102
9.6,-0.9,109
9.6,-0.75,117
9.6,-0.6,123
9.6,-0.45,127
9.6,-0.3,125
9.6,-0.15,143
9.6,0.0,124
9.6,0.15,115
9.6,0.3,125
9.6,0.45,125
9.6,0.6,135
9.6,0.75,140
9.6,0.9,137
9.6,1.05,120
9.6,1.2,107
9.6,1.35,99
9.6,1.5,92
9.75,-1.5,75
9.75,-1.35,83
9.75,-1.2,92
9.75,-1.05,99
9.75,-0.9,106
9.75,-0.75,114
9.75,-0.6,124
9.75,-0.45,129
9.75,-0.3,127
9.75,-0.15,121
9.75,0.0,110
9.75,0.15,133
9.75,0.3,135
9.75,0.45,129
9.75,0.6,126
9.75,0.75,126
9.75,0.9,124
9.75,1.05,119
9.75,1.2,116
9.75,1.35,116
9.75,1.5,116
9.9,-1.5,71
9.9,-1.35,79
9.9,-1.2,88
9.9,-1.05,96
9.9,-0.9,104
9.9,-0.75,114
9.9,-0.6,126
9.9,-0.45,136
9.9,-0.3,138
9.9,-0.15,121
9.9,0.0,157
9.9,0.15,164
9.9,0.3,140
9.9,0.45,125
9.9,0.6,118
9.9,0.75,113
9.9,0.9,110
9.9,1.05,109
9.9,1.2,109
9.9,1.35,110
9.9,1.5,111
10.05,-1.5,65
10.05,-1.35,72
10.05,-1.2,80
10.05,-1.05,89
10.05,-0.9,101
10.05,-0.75,115
10.05,-0.6,129
10.05,-0.45,135
10.05,-0.3,147
10.05,-0.15,137
10.05,0.0,137
10.05,0.15,131
10.05,0.3,130
10.05,0.45,119
10.05,0.6,107
10.05,0.75,97
10.05,0.9,89
10.05,1.05,90
10.05,1.2,91
10.05,1.35,90
10.05,1.5,89
10.2,-1.5,60
10.2,-1.35,68
10.2,-1.2,76
10.2,-1.05,85
10.2,-0.9,100
10.2,-0.75,116
10.2,-0.6,129
10.2,-0.45,126
10.2,-0.3,141
10.2,-0.15,146
10.2,0.0,106
10.2,0.15,127
10.2,0.3,132
10.2,0.45,125
10.2,0.6,105
10.2,0.75,88
10.2,0.9,75
10.2,1.05,73
10.2,1.2,73
10.2,1.35,71
10.2,1.5,70
10.35,-1.5,62
10.35,-1.35,69
10.35,-1.2,74
10.35,-1.05,78
10.35,-0.9,93
10.35,-0.75,114
10.35,-0.6,124
10.35,-0.45,128
10.35,-0.3,133
10.35,-0.15,120
10.35,0.0,128
10.35,0.15,145
10.35,0.3,122
10.35,0.45,125
10.35,0.6,115
10.35,0.75,85
10.35,0.9,67
10.35,1.05,65
10.35,1.2,64
10.35,1.35,60
10.35,1.5,58
10.5,-1.5,71
10.5,-1.35,76
10.5,-1.2,73
10.5,-1.05,65
10.5,-0.9,81
10.5,-0.75,112
10.5,-0.6,120
10.5,-0.45,124
10.5,-0.3,129
10.5,-0.15,124
10.5,0.0,127
10.5,0.15,137
10.5,0.3,131
10.5,0.45,122
10.5,0.6,117
10.5,0.75,91
10.5,0.9,68
10.5,1.05,61
10.5,1.2,58
10.5,1.35,52
10.5,1.5,47
10.65,-1.5,77
10.65,-1.35,81
10.65,-1.2,77
10.65,-1.05,67
10.65,-0.9,82
10.65,-0.75,118
10.65,-0.6,126
10.65,-0.45,122
10.65,-0.3,124
10.65,-0.15,134
10.65,0.0,137
10.65,0.15,137
10.65,0.3,137
10.65,0.45,124
10.65,0.6,114
10.65,0.75,96
10.65,0.9,76
10.65,1.05,66
10.65,1.2,61
10.65,1.35,55
10.65,1.5,51
10.8,-1.5,85
10.8,-1.35,88
10.8,-1.2,92
10.8,-1.05,97
10.8,-0.9,103
10.8,-0.75,122
10.8,-0.6,139
10.8,-0.45,140
10.8,-0.3,134
10.8,-0.15,124
10.8,0.0,128
10.8,0.15,137
10.8,0.3,137
10.8,0.45,127
10.8,0.6,115
10.8,0.75,103
10.8,0.9,92
10.8,1.05,84
10.8,1.2,81
10.8,1.35,79
10.8,1.5,77
10.95,-1.5,92
10.95,-1.35,94
10.95,-1.2,102
10.95,-1.05,114
10.95,-0.9,113
10.95,-0.75,114
10.95,-0.6,136
10.95,-0.45,151
10.95,-0.3,151
10.95,-0.15,133
10.95,0.0,126
10.95,0.15,134
10.95,0.3,137
10.95,0.45,132
10.95,0.6,119
10.95,0.75,111
10.95,0.9,103
10.95,1.05,96
10.95,1.2,93
10.95,1.35,92
10.95,1.5,92
11.1,-1.5,117
11.1,-1.35,114
11.1,-1.2,113
11.1,-1.05,115
11.1,-0.9,112
11.1,-0.75,108
11.1,-0.6,123
11.1,-0.45,141
11.1,-0.3,147
11.1,-0.15,137
11.1,0.0,126
11.1,0.15,128
11.1,0.3,136
11.1,0.45,133
11.1,0.6,124
11.1,0.75,117
11.1,0.9,109
11.1,1.05,101
11.1,1.2,95
11.1,1.35,92
11.1,1.5,92
11.25,-1.5,160
11.25,-1.35,147
11.25,-1.2,132
11.25,-1.05,117
11.25,-0.9,110
11.25,-0.75,105
11.25,-0.6,113
11.25,-0.45,128
11.25,-0.3,136
11.25,-0.15,128
11.25,0.0,120
11.25,0.15,124
11.25,0.3,134
11.25,0.45,134
11.25,0.6,128
11.25,0.75,121
11.25,0.9,113
11.25,1.05,105
11.25,1.2,99
11.25,1.35,92
11.25,1.5,92
11.4,-1.5,176
11.4,-1.35,166
11.4,-1.2,144
11.4,-1.05,120
11.4,-0.9,110
11.4,-0.75,109
11.4,-0.6,116
11.4,-0.45,128
11.4,-0.3,135
11.4,-0.15,126
11.4,0.0,119
11.4,0.15,125
11.4,0.3,133
11.4,0.45,133
11.4,0.6,127
11.4,0.75,121
11.4,0.9,114
11.4,1.05,108
11.4,1.2,101
11.4,1.35,94
11.4,1.5,92
11.55,-1.5,176
11.55,-1.35,168
11.55,-1.2,151
11.55,-1.05,126
11.55,-0.9,114
11.55,-0.75,115
11.55,-0.6,120
11.55,-0.45,125
11.55,-0.3,128
11.55,-0.15,123
11.55,0.0,118
11.55,0.15,122
11.55,0.3,126
11.55,0.45,126
11.55,0.6,122
11.55,0.75,118
11.55,0.9,114
11.55,1.05,107
11.55,1.2,100
11.55,1.35,93
11.55,1.5,92
11.7,-1.5,178
11.7,-1.35,178
11.7,-1.2,172
11.7,-1.05,155
11.7,-0.9,136
11.7,-0.75,122
11.7,-0.6,119
11.7,-0.45,117
11.7,-0.3,116
11.7,-0.15,115
11.7,0.0,113
11.7,0.15,116
11.7,0.3,116
11.7,0.45,112
11.7,0.6,110
11.7,0.75,113
11.7,0.9,111
11.7,1.05,104
11.7,1.2,97
11.7,1.35,92
11.7,1.5,92
11.85,-1.5,184
11.85,-1.35,192
11.85,-1.2,197
11.85,-1.05,193
11.85,-0.9,173
11.85,-0.75,142
11.85,-0.6,126
11.85,-0.45,117
11.85,-0.3,115
11.85,-0.15,114
11.85,0.0,109
11.85,0.15,106
11.85,0.3,100
11.85,0.45,93
11.85,0.6,94
11.85,0.75,100
11.85,0.9,100
11.85,1.05,102
11.85,1.2,98
11.85,1.35,93
11.85,1.5,92
12.0,-1.5,184
12.0,-1.35,201
12.0,-1.2,216
12.0,-1.05,224
12.0,-0.9,214
12.0,-0.75,190
12.0,-0.6,160
12.0,-0.45,125
12.0,-0.3,114
12.0,-0.15,116
12.0,0.0,103
12.0,0.15,85
12.0,0.3,75
12.0,0.45,74
12.0,0.6,72
12.0,0.75,72
12.0,0.9,81
12.0,1.05,99
12.0,1.2,102
12.0,1.35,99
12.0,1.5,96
12.15,-1.5,190
12.15,-1.35,214
12.15,-1.2,234
12.15,-1.05,246
12.15,-0.9,242
12.15,-0.75,222
12.15,-0.6,182
12.15,-0.45,125
12.15,-0.3,114
12.15,-0.15,123
12.15,0.0,107
12.15,0.15,72
12.15,0.3,55
12.15,0.45,56
12.15,0.6,53
12.15,0.75,58
12.15,0.9,71
12.15,1.05,99
12.15,1.2,106
12.15,1.35,104
12.15,1.5,102
12.3,-1.5,195
12.3,-1.35,220
12.3,-1.2,238
12.3,-1.05,247
12.3,-0.9,245
12.3,-0.75,225
12.3,-0.6,180
12.3,-0.45,116
12.3,-0.3,122
12.3,-0.15,159
12.3,0.0,132
12.3,0.15,75
12.3,0.3,38
12.3,0.45,24
12.3,0.6,26
12.3,0.75,52
12.3,0.9,70
12.3,1.05,103
12.3,1.2,112
12.3,1.35,112
12.3,1.5,112
12.45,-1.5,190
12.45,-1.35,213
12.45,-1.2,228
12.45,-1.05,230
12.45,-0.9,223
12.45,-0.75,199
12.45,-0.6,154
12.45,-0.45,116
12.45,-0.3,157
12.45,-0.15,207
12.45,0.0,177
12.45,0.15,110
12.45,0.3,48
12.45,0.45,10
12.45,0.6,12
12.45,0.75,55
12.45,0.9,74
12.45,1.05,105
12.45,1.2,115
12.45,1.35,116
12.45,1.5,117
12.6,-1.5,172
12.6,-1.35,190
12.6,-1.2,201
12.6,-1.05,199
12.6,-0.9,187
12.6,-0.75,163
12.6,-0.6,132
12.6,-0.45,125
12.6,-0.3,178
12.6,-0.15,225
12.6,0.0,205
12.6,0.15,145
12.6,0.3,81
12.6,0.45,38
12.6,0.6,28
12.6,0.75,51
12.6,0.9,61
12.6,1.05,91
12.6,1.2,104
12.6,1.35,107
12.6,1.5,111
12.75,-1.5,150
12.75,-1.35,161
12.75,-1.2,166
12.75,-1.05,164
12.75,-0.9,153
12.75,-0.75,135
12.75,-0.6,120
12.75,-0.45,134
12.75,-0.3,182
12.75,-0.15,220
12.75,0.0,211
12.75,0.15,166
12.75,0.3,127
12.75,0.45,104
12.75,0.6,82
12.75,0.75,73
12.75,0.9,69
12.75,1.05,84
12.75,1.2,94
12.75,1.35,100
12.75,1.5,107
12.9,-1.5,132
12.9,-1.35,138
12.9,-1.2,139
12.9,-1.05,135
12.9,-0.9,126
12.9,-0.75,116
12.9,-0.6,114
12.9,-0.45,134
12.9,-0.3,174
12.9,-0.15,204
12.9,0.0,201
12.9,0.15,170
12.9,0.3,154
12.9,0.45,147
12.9,0.6,128
12.9,0.75,119
12.9,0.9,107
12.9,1.05,101
12.9,1.2,103
12.9,1.35,108
12.9,1.5,114
13.05,-1.5,120
13.05,-1.35,120
13.05,-1.2,118
13.05,-1.05,113
13.05,-0.9,107
13.05,-0.75,103
13.05,-0.6,109
13.05,-0.45,130
13.05,-0.3,161
13.05,-0.15,185
13.05,0.0,184
13.05,0.15,164
13.05,0.3,168
13.05,0.45,176
13.05,0.6,164
13.05,0.75,160
13.05,0.9,145
13.05,1.05,122
13.05,1.2,117
13.05,1.35,120
13.05,1.5,125
