-3.0,-1.5,205
-3.0,-1.35,206
-3.0,-1.2,206
-3.0,-1.05,206
-3.0,-0.9,207
-3.0,-0.75,207
-3.0,-0.6,207
-3.0,-0.45,207
-3.0,-0.3,207
-3.0,-0.15,207
-3.0,0.0,207
-3.0,0.15,207
-3.0,0.3,207
-3.0,0.45,207
-3.0,0.6,208
-3.0,0.75,208
-3.0,0.9,208
-3.0,1.05,208
-3.0,1.2,208
-3.0,1.35,208
-3.0,1.5,208
-2.85,-1.5,205
-2.85,-1.35,206
-2.85,-1.2,206
-2.85,-1.05,207
-2.85,-0.9,207
-2.85,-0.75,207
-2.85,-0.6,207
-2.85,-0.45,207
-2.85,-0.3,207
-2.85,-0.15,207
-2.85,0.0,207
-2.85,0.15,207
-2.85,0.3,209
-2.85,0.45,210
-2.85,0.6,210
-2.85,0.75,211
-2.85,0.9,210
-2.85,1.05,209
-2.85,1.2,208
-2.85,1.35,208
-2.85,1.5,208
-2.7,-1.5,205
-2.7,-1.35,206
-2.7,-1.2,206
-2.7,-1.05,207
-2.7,-0.9,208
-2.7,-0.75,207
-2.7,-0.6,207
-2.7,-0.45,207
-2.7,-0.3,208
-2.7,-0.15,209
-2.7,0.0,209
-2.7,0.15,210
-2.7,0.3,212
-2.7,0.45,212
-2.7,0.6,213
-2.7,0.75,213
-2.7,0.9,212
-2.7,1.05,211
-2.7,1.2,210
-2.7,1.35,208
-2.7,1.5,208
-2.55,-1.5,204
-2.55,-1.35,205
-2.55,-1.2,206
-2.55,-1.05,207
-2.55,-0.9,208
-2.55,-0.75,209
-2.55,-0.6,209
-2.55,-0.45,209
-2.55,-0.3,210
-2.55,-0.15,211
-2.55,0.0,212
-2.55,0.15,213
-2.55,0.3,214
-2.55,0.45,215
-2.55,0.6,215
-2.55,0.75,214
-2.55,0.9,213
-2.55,1.05,212
-2.55,1.2,210
-2.55,1.35,209
-2.55,1.5,208
-2.4,-1.5,204
-2.4,-1.35,204
-2.4,-1.2,206
-2.4,-1.05,207
-2.4,-0.9,208
-2.4,-0.75,209
-2.4,-0.6,210
-2.4,-0.45,211
-2.4,-0.3,211
-2.4,-0.15,213
-2.4,0.0,214
-2.4,0.15,216
-2.4,0.3,217
-2.4,0.45,217
-2.4,0.6,216
-2.4,0.75,215
-2.4,0.9,214
-2.4,1.05,212
-2.4,1.2,210
-2.4,1.35,208
-2.4,1.5,208
-2.25,-1.5,204
-2.25,-1.35,204
-2.25,-1.2,206
-2.25,-1.05,207
-2.25,-0.9,208
-2.25,-0.75,209
-2.25,-0.6,211
-2.25,-0.45,213
-2.25,-0.3,212
-2.25,-0.15,214
-2.25,0.0,216
-2.25,0.15,217
-2.25,0.3,218
-2.25,0.45,218
-2.25,0.6,217
-2.25,0.75,215
-2.25,0.9,214
-2.25,1.05,212
-2.25,1.2,210
-2.25,1.35,208
-2.25,1.5,208
-2.1,-1.5,203
-2.1,-1.35,203
-2.1,-1.2,204
-2.1,-1.05,205
-2.1,-0.9,207
-2.1,-0.75,208
-2.1,-0.6,210
-2.1,-0.45,212
-2.1,-0.3,215
-2.1,-0.15,217
-2.1,0.0,219
-2.1,0.15,219
-2.1,0.3,219
-2.1,0.45,217
-2.1,0.6,216
-2.1,0.75,214
-2.1,0.9,212
-2.1,1.05,211
-2.1,1.2,209
-2.1,1.35,208
-2.1,1.5,208
-1.95,-1.5,203
-1.95,-1.35,203
-1.95,-1.2,202
-1.95,-1.05,204
-1.95,-0.9,207
-1.95,-0.75,207
-1.95,-0.6,209
-1.95,-0.45,211
-1.95,-0.3,215
-1.95,-0.15,218
-1.95,0.0,219
-1.95,0.15,218
-1.95,0.3,217
-1.95,0.45,214
-1.95,0.6,212
-1.95,0.75,210
-1.95,0.9,209
-1.95,1.05,209
-1.95,1.2,208
-1.95,1.35,208
-1.95,1.5,208
-1.8,-1.5,202
-1.8,-1.35,202
-1.8,-1.2,202
-1.8,-1.05,207
-1.8,-0.9,211
-1.8,-0.75,211
-1.8,-0.6,211
-1.8,-0.45,211
-1.8,-0.3,213
-1.8,-0.15,215
-1.8,0.0,216
-1.8,0.15,215
-1.8,0.3,213
-1.8,0.45,210
-1.8,0.6,207
-1.8,0.75,206
-1.8,0.9,205
-1.8,1.05,206
-1.8,1.2,206
-1.8,1.35,207
-1.8,1.5,207
-1.65,-1.5,202
-1.65,-1.35,202
-1.65,-1.2,203
-1.65,-1.05,207
-1.65,-0.9,211
-1.65,-0.75,211
-1.65,-0.6,210
-1.65,-0.45,208
-1.65,-0.3,210
-1.65,-0.15,212
-1.65,0.0,213
-1.65,0.15,212
-1.65,0.3,209
-1.65,0.45,206
-1.65,0.6,203
-1.65,0.75,202
-1.65,0.9,202
-1.65,1.05,203
-1.65,1.2,205
-1.65,1.35,206
-1.65,1.5,206
-1.5,-1.5,201
-1.5,-1.35,202
-1.5,-1.2,208
-1.5,-1.05,209
-1.5,-0.9,208
-1.5,-0.75,207
-1.5,-0.6,206
-1.5,-0.45,205
-1.5,-0.3,207
-1.5,-0.15,210
-1.5,0.0,211
-1.5,0.15,210
-1.5,0.3,206
-1.5,0.45,202
-1.5,0.6,200
-1.5,0.75,199
-1.5,0.9,200
-1.5,1.05,202
-1.5,1.2,206
-1.5,1.35,206
-1.5,1.5,206
-1.35,-1.5,202
-1.35,-1.35,201
-1.35,-1.2,201
-1.35,-1.05,206
-1.35,-0.9,209
-1.35,-0.75,206
-1.35,-0.6,203
-1.35,-0.45,203
-1.35,-0.3,205
-1.35,-0.15,208
-1.35,0.0,210
-1.35,0.15,210
-1.35,0.3,206
-1.35,0.45,201
-1.35,0.6,199
-1.35,0.75,199
-1.35,0.9,199
-1.35,1.05,197
-1.35,1.2,198
-1.35,1.35,198
-1.35,1.5,197
-1.2,-1.5,202
-1.2,-1.35,201
-1.2,-1.2,188
-1.2,-1.05,202
-1.2,-0.9,209
-1.2,-0.75,206
-1.2,-0.6,202
-1.2,-0.45,200
-1.2,-0.3,203
-1.2,-0.15,207
-1.2,0.0,211
-1.2,0.15,212
-1.2,0.3,208
-1.2,0.45,202
-1.2,0.6,200
-1.2,0.75,200
-1.2,0.9,199
-1.2,1.05,192
-1.2,1.2,187
-1.2,1.35,181
-1.2,1.5,175
-1.05,-1.5,191
-1.05,-1.35,191
-1.05,-1.2,188
-1.05,-1.05,195
-1.05,-0.9,200
-1.05,-0.75,200
-1.05,-0.6,200
-1.05,-0.45,200
-1.05,-0.3,200
-1.05,-0.15,203
-1.05,0.0,210
-1.05,0.15,214
-1.05,0.3,211
-1.05,0.45,208
-1.05,0.6,205
-1.05,0.75,202
-1.05,0.9,200
-1.05,1.05,196
-1.05,1.2,198
-1.05,1.35,198
-1.05,1.5,198
-0.9,-1.5,180
-0.9,-1.35,183
-0.9,-1.2,189
-0.9,-1.05,191
-0.9,-0.9,194
-0.9,-0.75,198
-0.9,-0.6,200
-0.9,-0.45,200
-0.9,-0.3,200
-0.9,-0.15,203
-0.9,0.0,212
-0.9,0.15,217
-0.9,0.3,215
-0.9,0.45,211
-0.9,0.6,210
-0.9,0.75,207
-0.9,0.9,203
-0.9,1.05,202
-0.9,1.2,207
-0.9,1.35,211
-0.9,1.5,214
-0.75,-1.5,180
-0.75,-1.35,182
-0.75,-1.2,185
-0.75,-1.05,196
-0.75,-0.9,198
-0.75,-0.75,197
-0.75,-0.6,201
-0.75,-0.45,203
-0.75,-0.3,201
-0.75,-0.15,205
-0.75,0.0,214
-0.75,0.15,218
-0.75,0.3,215
-0.75,0.45,210
-0.75,0.6,212
-0.75,0.75,212
-0.75,0.9,210
-0.75,1.05,209
-0.75,1.2,212
-0.75,1.35,215
-0.75,1.5,215
-0.6,-1.5,179
-0.6,-1.35,181
-0.6,-1.2,184
-0.6,-1.05,196
-0.6,-0.9,198
-0.6,-0.75,197
-0.6,-0.6,204
-0.6,-0.45,209
-0.6,-0.3,208
-0.6,-0.15,211
-0.6,0.0,217
-0.6,0.15,218
-0.6,0.3,210
-0.6,0.45,210
-0.6,0.6,214
-0.6,0.75,216
-0.6,0.9,214
-0.6,1.05,213
-0.6,1.2,215
-0.6,1.35,215
-0.6,1.5,215
-0.45,-1.5,178
-0.45,-1.35,181
-0.45,-1.2,184
-0.45,-1.05,188
-0.45,-0.9,192
-0.45,-0.75,196
-0.45,-0.6,205
-0.45,-0.45,219
-0.45,-0.3,218
-0.45,-0.15,218
-0.45,0.0,220
-0.45,0.15,219
-0.45,0.3,211
-0.45,0.45,210
-0.45,0.6,214
-0.45,0.75,216
-0.45,0.9,215
-0.45,1.05,215
-0.45,1.2,215
-0.45,1.35,215
-0.45,1.5,215
-0.3,-1.5,180
-0.3,-1.35,182
-0.3,-1.2,184
-0.3,-1.05,187
-0.3,-0.9,190
-0.3,-0.75,193
-0.3,-0.6,201
-0.3,-0.45,215
-0.3,-0.3,224
-0.3,-0.15,230
-0.3,0.0,229
-0.3,0.15,223
-0.3,0.3,215
-0.3,0.45,210
-0.3,0.6,208
-0.3,0.75,210
-0.3,0.9,216
-0.3,1.05,221
-0.3,1.2,218
-0.3,1.35,216
-0.3,1.5,215
-0.15,-1.5,183
-0.15,-1.35,184
-0.15,-1.2,183
-0.15,-1.05,186
-0.15,-0.9,189
-0.15,-0.75,190
-0.15,-0.6,193
-0.15,-0.45,196
-0.15,-0.3,223
-0.15,-0.15,240
-0.15,0.0,237
-0.15,0.15,221
-0.15,0.3,206
-0.15,0.45,201
-0.15,0.6,201
-0.15,0.75,207
-0.15,0.9,216
-0.15,1.05,223
-0.15,1.2,219
-0.15,1.35,216
-0.15,1.5,215
0.0,-1.5,184
0.0,-1.35,184
0.0,-1.2,185
0.0,-1.05,186
0.0,-0.9,187
0.0,-0.75,189
0.0,-0.6,188
0.0,-0.45,186
0.0,-0.3,199
0.0,-0.15,209
0.0,0.0,216
0.0,0.15,214
0.0,0.3,202
0.0,0.45,197
0.0,0.6,200
0.0,0.75,208
0.0,0.9,215
0.0,1.05,221
0.0,1.2,214
0.0,1.35,203
0.0,1.5,192
0.15,-1.5,185
0.15,-1.35,185
0.15,-1.2,186
0.15,-1.05,186
0.15,-0.9,186
0.15,-0.75,186
0.15,-0.6,186
0.15,-0.45,186
0.15,-0.3,190
0.15,-0.15,195
0.15,0.0,206
0.15,0.15,215
0.15,0.3,208
0.15,0.45,201
0.15,0.6,202
0.15,0.75,209
0.15,0.9,213
0.15,1.05,217
0.15,1.2,206
0.15,1.35,191
0.15,1.5,175
0.3,-1.5,185
0.3,-1.35,186
0.3,-1.2,187
0.3,-1.05,188
0.3,-0.9,188
0.3,-0.75,186
0.3,-0.6,187
0.3,-0.45,192
0.3,-0.3,195
0.3,-0.15,199
0.3,0.0,202
0.3,0.15,208
0.3,0.3,210
0.3,0.45,206
0.3,0.6,205
0.3,0.75,208
0.3,0.9,209
0.3,1.05,202
0.3,1.2,194
0.3,1.35,181
0.3,1.5,167
0.45,-1.5,186
0.45,-1.35,186
0.45,-1.2,186
0.45,-1.05,187
0.45,-0.9,190
0.45,-0.75,190
0.45,-0.6,195
0.45,-0.45,201
0.45,-0.3,206
0.45,-0.15,210
0.45,0.0,209
0.45,0.15,209
0.45,0.3,212
0.45,0.45,209
0.45,0.6,206
0.45,0.75,206
0.45,0.9,203
0.45,1.05,193
0.45,1.2,186
0.45,1.35,179
0.45,1.5,172
0.6,-1.5,186
0.6,-1.35,186
0.6,-1.2,186
0.6,-1.05,188
0.6,-0.9,194
0.6,-0.75,197
0.6,-0.6,204
0.6,-0.45,211
0.6,-0.3,213
0.6,-0.15,213
0.6,0.0,207
0.6,0.15,207
0.6,0.3,218
0.6,0.45,221
0.6,0.6,214
0.6,0.75,201
0.6,0.9,187
0.6,1.05,186
0.6,1.2,190
0.6,1.35,197
0.6,1.5,203
0.75,-1.5,186
0.75,-1.35,186
0.75,-1.2,186
0.75,-1.05,191
0.75,-0.9,198
0.75,-0.75,204
0.75,-0.6,210
0.75,-0.45,213
0.75,-0.3,213
0.75,-0.15,210
0.75,0.0,207
0.75,0.15,209
0.75,0.3,221
0.75,0.45,227
0.75,0.6,210
0.75,0.75,192
0.75,0.9,172
0.75,1.05,172
0.75,1.2,180
0.75,1.35,191
0.75,1.5,203
0.9,-1.5,186
0.9,-1.35,188
0.9,-1.2,187
0.9,-1.05,195
0.9,-0.9,202
0.9,-0.75,209
0.9,-0.6,213
0.9,-0.45,213
0.9,-0.3,209
0.9,-0.15,206
0.9,0.0,207
0.9,0.15,206
0.9,0.3,220
0.9,0.45,236
0.9,0.6,217
0.9,0.75,181
0.9,0.9,161
0.9,1.05,165
0.9,1.2,176
0.9,1.35,191
0.9,1.5,205
1.05,-1.5,186
1.05,-1.35,188
1.05,-1.2,198
1.05,-1.05,202
1.05,-0.9,206
1.05,-0.75,211
1.05,-0.6,213
1.05,-0.45,210
1.05,-0.3,208
1.05,-0.15,206
1.05,0.0,206
1.05,0.15,206
1.05,0.3,220
1.05,0.45,242
1.05,0.6,224
1.05,0.75,178
1.05,0.9,161
1.05,1.05,173
1.05,1.2,187
1.05,1.35,201
1.05,1.5,214
1.2,-1.5,186
1.2,-1.35,188
1.2,-1.2,199
1.2,-1.05,206
1.2,-0.9,211
1.2,-0.75,213
1.2,-0.6,215
1.2,-0.45,212
1.2,-0.3,209
1.2,-0.15,206
1.2,0.0,206
1.2,0.15,206
1.2,0.3,226
1.2,0.45,232
1.2,0.6,217
1.2,0.75,189
1.2,0.9,181
1.2,1.05,187
1.2,1.2,190
1.2,1.35,191
1.2,1.5,193
1.35,-1.5,186
1.35,-1.35,186
1.35,-1.2,191
1.35,-1.05,205
1.35,-0.9,216
1.35,-0.75,216
1.35,-0.6,216
1.35,-0.45,213
1.35,-0.3,211
1.35,-0.15,212
1.35,0.0,212
1.35,0.15,205
1.35,0.3,208
1.35,0.45,211
1.35,0.6,211
1.35,0.75,204
1.35,0.9,205
1.35,1.05,204
1.35,1.2,175
1.35,1.35,145
1.35,1.5,119
1.5,-1.5,194
1.5,-1.35,197
1.5,-1.2,204
1.5,-1.05,211
1.5,-0.9,216
1.5,-0.75,216
1.5,-0.6,216
1.5,-0.45,214
1.5,-0.3,212
1.5,-0.15,212
1.5,0.0,212
1.5,0.15,205
1.5,0.3,206
1.5,0.45,208
1.5,0.6,207
1.5,0.75,208
1.5,0.9,208
1.5,1.05,208
1.5,1.2,184
1.5,1.35,154
1.5,1.5,127
1.65,-1.5,209
1.65,-1.35,211
1.65,-1.2,219
1.65,-1.05,216
1.65,-0.9,215
1.65,-0.75,216
1.65,-0.6,216
1.65,-0.45,216
1.65,-0.3,209
1.65,-0.15,207
1.65,0.0,205
1.65,0.15,207
1.65,0.3,205
1.65,0.45,209
1.65,0.6,206
1.65,0.75,204
1.65,0.9,199
1.65,1.05,191
1.65,1.2,181
1.65,1.35,157
1.65,1.5,131
1.8,-1.5,221
1.8,-1.35,221
1.8,-1.2,221
1.8,-1.05,218
1.8,-0.9,217
1.8,-0.75,214
1.8,-0.6,212
1.8,-0.45,211
1.8,-0.3,206
1.8,-0.15,205
1.8,0.0,207
1.8,0.15,207
1.8,0.3,212
1.8,0.45,205
1.8,0.6,205
1.8,0.75,206
1.8,0.9,192
1.8,1.05,175
1.8,1.2,165
1.8,1.35,149
1.8,1.5,135
1.95,-1.5,221
1.95,-1.35,221
1.95,-1.2,221
1.95,-1.05,219
1.95,-0.9,216
1.95,-0.75,211
1.95,-0.6,209
1.95,-0.45,207
1.95,-0.3,205
1.95,-0.15,207
1.95,0.0,207
1.95,0.15,206
1.95,0.3,211
1.95,0.45,214
1.95,0.6,214
1.95,0.75,207
1.95,0.9,190
1.95,1.05,175
1.95,1.2,160
1.95,1.35,146
1.95,1.5,136
2.1,-1.5,221
2.1,-1.35,221
2.1,-1.2,221
2.1,-1.05,218
2.1,-0.9,215
2.1,-0.75,210
2.1,-0.6,206
2.1,-0.45,206
2.1,-0.3,205
2.1,-0.15,207
2.1,0.0,205
2.1,0.15,205
2.1,0.3,207
2.1,0.45,209
2.1,0.6,216
2.1,0.75,216
2.1,0.9,196
2.1,1.05,171
2.1,1.2,170
2.1,1.35,162
2.1,1.5,153
2.25,-1.5,221
2.25,-1.35,221
2.25,-1.2,219
2.25,-1.05,217
2.25,-0.9,213
2.25,-0.75,207
2.25,-0.6,203
2.25,-0.45,205
2.25,-0.3,206
2.25,-0.15,205
2.25,0.0,207
2.25,0.15,215
2.25,0.3,213
2.25,0.45,207
2.25,0.6,216
2.25,0.75,229
2.25,0.9,212
2.25,1.05,179
2.25,1.2,167
2.25,1.35,154
2.25,1.5,142
2.4,-1.5,221
2.4,-1.35,221
2.4,-1.2,218
2.4,-1.05,215
2.4,-0.9,212
2.4,-0.75,207
2.4,-0.6,203
2.4,-0.45,203
2.4,-0.3,207
2.4,-0.15,206
2.4,0.0,213
2.4,0.15,219
2.4,0.3,207
2.4,0.45,211
2.4,0.6,220
2.4,0.75,232
2.4,0.9,211
2.4,1.05,179
2.4,1.2,156
2.4,1.35,134
2.4,1.5,114
2.55,-1.5,221
2.55,-1.35,221
2.55,-1.2,220
2.55,-1.05,217
2.55,-0.9,214
2.55,-0.75,209
2.55,-0.6,204
2.55,-0.45,203
2.55,-0.3,203
2.55,-0.15,210
2.55,0.0,210
2.55,0.15,208
2.55,0.3,207
2.55,0.45,213
2.55,0.6,213
2.55,0.75,208
2.55,0.9,197
2.55,1.05,174
2.55,1.2,152
2.55,1.35,130
2.55,1.5,111
2.7,-1.5,221
2.7,-1.35,221
2.7,-1.2,221
2.7,-1.05,219
2.7,-0.9,215
2.7,-0.75,211
2.7,-0.6,206
2.7,-0.45,203
2.7,-0.3,203
2.7,-0.15,210
2.7,0.0,208
2.7,0.15,210
2.7,0.3,208
2.7,0.45,208
2.7,0.6,213
2.7,0.75,213
2.7,0.9,197
2.7,1.05,167
2.7,1.2,141
2.7,1.35,118
2.7,1.5,98
2.85,-1.5,221
2.85,-1.35,221
2.85,-1.2,221
2.85,-1.05,219
2.85,-0.9,216
2.85,-0.75,212
2.85,-0.6,207
2.85,-0.45,203
2.85,-0.3,205
2.85,-0.15,208
2.85,0.0,208
2.85,0.15,208
2.85,0.3,208
2.85,0.45,212
2.85,0.6,213
2.85,0.75,212
2.85,0.9,196
2.85,1.05,161
2.85,1.2,147
2.85,1.35,135
2.85,1.5,124
3.0,-1.5,221
3.0,-1.35,221
3.0,-1.2,222
3.0,-1.05,219
3.0,-0.9,215
3.0,-0.75,212
3.0,-0.6,207
3.0,-0.45,203
3.0,-0.3,207
3.0,-0.15,208
3.0,0.0,209
3.0,0.15,208
3.0,0.3,208
3.0,0.45,208
3.0,0.6,209
3.0,0.75,211
3.0,0.9,199
3.0,1.05,168
3.0,1.2,161
3.0,1.35,152
3.0,1.5,144
3.15,-1.5,239
3.15,-1.35,232
3.15,-1.2,225
3.15,-1.05,218
3.15,-0.9,213
3.15,-0.75,210
3.15,-0.6,204
3.15,-0.45,201
3.15,-0.3,207
3.15,-0.15,204
3.15,0.0,209
3.15,0.15,208
3.15,0.3,209
3.15,0.45,208
3.15,0.6,211
3.15,0.75,209
3.15,0.9,206
3.15,1.05,205
3.15,1.2,190
3.15,1.35,182
3.15,1.5,176
3.3,-1.5,235
3.3,-1.35,228
3.3,-1.2,218
3.3,-1.05,213
3.3,-0.9,209
3.3,-0.75,201
3.3,-0.6,202
3.3,-0.45,201
3.3,-0.3,204
3.3,-0.15,204
3.3,0.0,209
3.3,0.15,209
3.3,0.3,208
3.3,0.45,209
3.3,0.6,208
3.3,0.75,209
3.3,0.9,207
3.3,1.05,203
3.3,1.2,188
3.3,1.35,179
3.3,1.5,176
3.45,-1.5,229
3.45,-1.35,222
3.45,-1.2,208
3.45,-1.05,207
3.45,-0.9,204
3.45,-0.75,190
3.45,-0.6,197
3.45,-0.45,206
3.45,-0.3,209
3.45,-0.15,209
3.45,0.0,204
3.45,0.15,209
3.45,0.3,208
3.45,0.45,208
3.45,0.6,208
3.45,0.75,210
3.45,0.9,207
3.45,1.05,199
3.45,1.2,187
3.45,1.35,179
3.45,1.5,176
3.6,-1.5,242
3.6,-1.35,213
3.6,-1.2,142
3.6,-1.05,177
3.6,-0.9,200
3.6,-0.75,198
3.6,-0.6,198
3.6,-0.45,204
3.6,-0.3,204
3.6,-0.15,209
3.6,0.0,204
3.6,0.15,209
3.6,0.3,208
3.6,0.45,220
3.6,0.6,214
3.6,0.75,208
3.6,0.9,201
3.6,1.05,199
3.6,1.2,193
3.6,1.35,187
3.6,1.5,183
3.75,-1.5,232
3.75,-1.35,204
3.75,-1.2,133
3.75,-1.05,174
3.75,-0.9,202
3.75,-0.75,204
3.75,-0.6,195
3.75,-0.45,190
3.75,-0.3,206
3.75,-0.15,210
3.75,0.0,208
3.75,0.15,204
3.75,0.3,200
3.75,0.45,206
3.75,0.6,206
3.75,0.75,199
3.75,0.9,197
3.75,1.05,199
3.75,1.2,194
3.75,1.35,190
3.75,1.5,187
3.9,-1.5,135
3.9,-1.35,163
3.9,-1.2,205
3.9,-1.05,208
3.9,-0.9,210
3.9,-0.75,210
3.9,-0.6,205
3.9,-0.45,208
3.9,-0.3,218
3.9,-0.15,209
3.9,0.0,206
3.9,0.15,205
3.9,0.3,187
3.9,0.45,213
3.9,0.6,208
3.9,0.75,204
3.9,0.9,197
3.9,1.05,197
3.9,1.2,196
3.9,1.35,193
3.9,1.5,191
4.05,-1.5,144
4.05,-1.35,165
4.05,-1.2,191
4.05,-1.05,202
4.05,-0.9,209
4.05,-0.75,200
4.05,-0.6,211
4.05,-0.45,216
4.05,-0.3,214
4.05,-0.15,208
4.05,0.0,208
4.05,0.15,208
4.05,0.3,212
4.05,0.45,218
4.05,0.6,230
4.05,0.75,205
4.05,0.9,199
4.05,1.05,200
4.05,1.2,198
4.05,1.35,194
4.05,1.5,192
4.2,-1.5,193
4.2,-1.35,184
4.2,-1.2,146
4.2,-1.05,182
4.2,-0.9,191
4.2,-0.75,175
4.2,-0.6,196
4.2,-0.45,194
4.2,-0.3,209
4.2,-0.15,210
4.2,0.0,206
4.2,0.15,208
4.2,0.3,212
4.2,0.45,189
4.2,0.6,218
4.2,0.75,205
4.2,0.9,205
4.2,1.05,202
4.2,1.2,198
4.2,1.35,195
4.2,1.5,193
4.35,-1.5,191
4.35,-1.35,188
4.35,-1.2,166
4.35,-1.05,181
4.35,-0.9,194
4.35,-0.75,187
4.35,-0.6,183
4.35,-0.45,171
4.35,-0.3,203
4.35,-0.15,210
4.35,0.0,201
4.35,0.15,207
4.35,0.3,208
4.35,0.45,211
4.35,0.6,210
4.35,0.75,210
4.35,0.9,210
4.35,1.05,201
4.35,1.2,200
4.35,1.35,200
4.35,1.5,200
4.5,-1.5,181
4.5,-1.35,184
4.5,-1.2,181
4.5,-1.05,175
4.5,-0.9,187
4.5,-0.75,196
4.5,-0.6,191
4.5,-0.45,182
4.5,-0.3,206
4.5,-0.15,201
4.5,0.0,208
4.5,0.15,209
4.5,0.3,211
4.5,0.45,208
4.5,0.6,207
4.5,0.75,209
4.5,0.9,205
4.5,1.05,200
4.5,1.2,202
4.5,1.35,204
4.5,1.5,204
4.65,-1.5,100
4.65,-1.35,128
4.65,-1.2,162
4.65,-1.05,179
4.65,-0.9,191
4.65,-0.75,198
4.65,-0.6,211
4.65,-0.45,211
4.65,-0.3,201
4.65,-0.15,208
4.65,0.0,207
4.65,0.15,184
4.65,0.3,205
4.65,0.45,209
4.65,0.6,207
4.65,0.75,211
4.65,0.9,203
4.65,1.05,205
4.65,1.2,206
4.65,1.35,206
4.65,1.5,206
4.8,-1.5,95
4.8,-1.35,123
4.8,-1.2,157
4.8,-1.05,179
4.8,-0.9,193
4.8,-0.75,194
4.8,-0.6,222
4.8,-0.45,236
4.8,-0.3,223
4.8,-0.15,205
4.8,0.0,206
4.8,0.15,217
4.8,0.3,201
4.8,0.45,202
4.8,0.6,213
4.8,0.75,213
4.8,0.9,208
4.8,1.05,206
4.8,1.2,204
4.8,1.35,202
4.8,1.5,200
4.95,-1.5,137
4.95,-1.35,149
4.95,-1.2,150
4.95,-1.05,169
4.95,-0.9,186
4.95,-0.75,197
4.95,-0.6,205
4.95,-0.45,210
4.95,-0.3,196
4.95,-0.15,215
4.95,0.0,208
4.95,0.15,209
4.95,0.3,207
4.95,0.45,213
4.95,0.6,209
4.95,0.75,194
4.95,0.9,187
4.95,1.05,191
4.95,1.2,187
4.95,1.35,181
4.95,1.5,173
5.1,-1.5,41
5.1,-1.35,83
5.1,-1.2,137
5.1,-1.05,155
5.1,-0.9,164
5.1,-0.75,190
5.1,-0.6,187
5.1,-0.45,196
5.1,-0.3,214
5.1,-0.15,213
5.1,0.0,206
5.1,0.15,210
5.1,0.3,213
5.1,0.45,213
5.1,0.6,205
5.1,0.75,209
5.1,0.9,198
5.1,1.05,168
5.1,1.2,177
5.1,1.35,186
5.1,1.5,191
5.25,-1.5,0
5.25,-1.35,7
5.25,-1.2,122
5.25,-1.05,139
5.25,-0.9,145
5.25,-0.75,184
5.25,-0.6,186
5.25,-0.45,196
5.25,-0.3,180
5.25,-0.15,189
5.25,0.0,203
5.25,0.15,203
5.25,0.3,203
5.25,0.45,213
5.25,0.6,207
5.25,0.75,205
5.25,0.9,203
5.25,1.05,172
5.25,1.2,182
5.25,1.35,199
5.25,1.5,214
5.4,-1.5,0
5.4,-1.35,24
5.4,-1.2,69
5.4,-1.05,82
5.4,-0.9,104
5.4,-0.75,190
5.4,-0.6,202
5.4,-0.45,205
5.4,-0.3,164
5.4,-0.15,226
5.4,0.0,214
5.4,0.15,207
5.4,0.3,211
5.4,0.45,209
5.4,0.6,224
5.4,0.75,201
5.4,0.9,201
5.4,1.05,198
5.4,1.2,204
5.4,1.35,215
5.4,1.5,224
5.55,-1.5,0
5.55,-1.35,16
5.55,-1.2,52
5.55,-1.05,73
5.55,-0.9,110
5.55,-0.75,194
5.55,-0.6,212
5.55,-0.45,219
5.55,-0.3,178
5.55,-0.15,215
5.55,0.0,211
5.55,0.15,203
5.55,0.3,202
5.55,0.45,205
5.55,0.6,205
5.55,0.75,191
5.55,0.9,200
5.55,1.05,206
5.55,1.2,209
5.55,1.35,211
5.55,1.5,211
5.7,-1.5,0
5.7,-1.35,0
5.7,-1.2,90
5.7,-1.05,79
5.7,-0.9,99
5.7,-0.75,178
5.7,-0.6,196
5.7,-0.45,195
5.7,-0.3,159
5.7,-0.15,201
5.7,0.0,208
5.7,0.15,191
5.7,0.3,221
5.7,0.45,213
5.7,0.6,203
5.7,0.75,207
5.7,0.9,206
5.7,1.05,216
5.7,1.2,192
5.7,1.35,159
5.7,1.5,127
5.85,-1.5,0
5.85,-1.35,0
5.85,-1.2,55
5.85,-1.05,56
5.85,-0.9,85
5.85,-0.75,153
5.85,-0.6,181
5.85,-0.45,197
5.85,-0.3,191
5.85,-0.15,204
5.85,0.0,219
5.85,0.15,204
5.85,0.3,207
5.85,0.45,191
5.85,0.6,207
5.85,0.75,203
5.85,0.9,209
5.85,1.05,221
5.85,1.2,186
5.85,1.35,149
5.85,1.5,123
6.0,-1.5,0
6.0,-1.35,0
6.0,-1.2,14
6.0,-1.05,40
6.0,-0.9,83
6.0,-0.75,118
6.0,-0.6,170
6.0,-0.45,202
6.0,-0.3,211
6.0,-0.15,209
6.0,0.0,220
6.0,0.15,210
6.0,0.3,208
6.0,0.45,220
6.0,0.6,206
6.0,0.75,175
6.0,0.9,202
6.0,1.05,211
6.0,1.2,173
6.0,1.35,144
6.0,1.5,123
6.15,-1.5,0
6.15,-1.35,0
6.15,-1.2,33
6.15,-1.05,52
6.15,-0.9,79
6.15,-0.75,106
6.15,-0.6,158
6.15,-0.45,200
6.15,-0.3,212
6.15,-0.15,212
6.15,0.0,220
6.15,0.15,196
6.15,0.3,222
6.15,0.45,206
6.15,0.6,207
6.15,0.75,192
6.15,0.9,215
6.15,1.05,204
6.15,1.2,167
6.15,1.35,131
6.15,1.5,97
6.3,-1.5,0
6.3,-1.35,9
6.3,-1.2,34
6.3,-1.05,49
6.3,-0.9,67
6.3,-0.75,94
6.3,-0.6,134
6.3,-0.45,174
6.3,-0.3,198
6.3,-0.15,208
6.3,0.0,186
6.3,0.15,205
6.3,0.3,209
6.3,0.45,206
6.3,0.6,211
6.3,0.75,212
6.3,0.9,238
6.3,1.05,198
6.3,1.2,145
6.3,1.35,97
6.3,1.5,55
6.45,-1.5,22
6.45,-1.35,30
6.45,-1.2,49
6.45,-1.05,54
6.45,-0.9,68
6.45,-0.75,97
6.45,-0.6,135
6.45,-0.45,159
6.45,-0.3,181
6.45,-0.15,203
6.45,0.0,197
6.45,0.15,203
6.45,0.3,206
6.45,0.45,223
6.45,0.6,216
6.45,0.75,186
6.45,0.9,186
6.45,1.05,162
6.45,1.2,112
6.45,1.35,65
6.45,1.5,22
6.6,-1.5,40
6.6,-1.35,48
6.6,-1.2,64
6.6,-1.05,64
6.6,-0.9,82
6.6,-0.75,126
6.6,-0.6,189
6.6,-0.45,228
6.6,-0.3,163
6.6,-0.15,215
6.6,0.0,215
6.6,0.15,197
6.6,0.3,212
6.6,0.45,206
6.6,0.6,200
6.6,0.75,137
6.6,0.9,118
6.6,1.05,89
6.6,1.2,91
6.6,1.35,72
6.6,1.5,46
6.75,-1.5,74
6.75,-1.35,80
6.75,-1.2,89
6.75,-1.05,86
6.75,-0.9,109
6.75,-0.75,156
6.75,-0.6,201
6.75,-0.45,212
6.75,-0.3,133
6.75,-0.15,210
6.75,0.0,212
6.75,0.15,226
6.75,0.3,210
6.75,0.45,210
6.75,0.6,196
6.75,0.75,131
6.75,0.9,77
6.75,1.05,48
6.75,1.2,131
6.75,1.35,161
6.75,1.5,163
6.9,-1.5,96
6.9,-1.35,103
6.9,-1.2,107
6.9,-1.05,123
6.9,-0.9,149
6.9,-0.75,193
6.9,-0.6,217
6.9,-0.45,214
6.9,-0.3,179
6.9,-0.15,203
6.9,0.0,207
6.9,0.15,215
6.9,0.3,205
6.9,0.45,207
6.9,0.6,232
6.9,0.75,211
6.9,0.9,158
6.9,1.05,105
6.9,1.2,148
6.9,1.35,163
6.9,1.5,162
7.05,-1.5,118
7.05,-1.35,129
7.05,-1.2,137
7.05,-1.05,160
7.05,-0.9,182
7.05,-0.75,209
7.05,-0.6,217
7.05,-0.45,210
7.05,-0.3,199
7.05,-0.15,208
7.05,0.0,207
7.05,0.15,208
7.05,0.3,205
7.05,0.45,205
7.05,0.6,225
7.05,0.75,215
7.05,0.9,210
7.05,1.05,176
7.05,1.2,173
7.05,1.35,167
7.05,1.5,154
7.2,-1.5,142
7.2,-1.35,157
7.2,-1.2,174
7.2,-1.05,207
7.2,-0.9,218
7.2,-0.75,207
7.2,-0.6,209
7.2,-0.45,229
7.2,-0.3,209
7.2,-0.15,203
7.2,0.0,206
7.2,0.15,204
7.2,0.3,208
7.2,0.45,205
7.2,0.6,207
7.2,0.75,207
7.2,0.9,233
7.2,1.05,242
7.2,1.2,246
7.2,1.35,248
7.2,1.5,250
7.35,-1.5,157
7.35,-1.35,176
7.35,-1.2,202
7.35,-1.05,221
7.35,-0.9,221
7.35,-0.75,210
7.35,-0.6,193
7.35,-0.45,178
7.35,-0.3,206
7.35,-0.15,211
7.35,0.0,204
7.35,0.15,208
7.35,0.3,207
7.35,0.45,205
7.35,0.6,219
7.35,0.75,211
7.35,0.9,225
7.35,1.05,244
7.35,1.2,254
7.35,1.35,255
7.35,1.5,255
7.5,-1.5,129
7.5,-1.35,167
7.5,-1.2,227
7.5,-1.05,225
7.5,-0.9,219
7.5,-0.75,211
7.5,-0.6,193
7.5,-0.45,179
7.5,-0.3,218
7.5,-0.15,206
7.5,0.0,209
7.5,0.15,206
7.5,0.3,207
7.5,0.45,209
7.5,0.6,205
7.5,0.75,201
7.5,0.9,203
7.5,1.05,224
7.5,1.2,239
7.5,1.35,251
7.5,1.5,255
7.65,-1.5,172
7.65,-1.35,188
7.65,-1.2,217
7.65,-1.05,211
7.65,-0.9,207
7.65,-0.75,206
7.65,-0.6,205
7.65,-0.45,202
7.65,-0.3,218
7.65,-0.15,206
7.65,0.0,206
7.65,0.15,208
7.65,0.3,209
7.65,0.45,209
7.65,0.6,209
7.65,0.75,207
7.65,0.9,200
7.65,1.05,201
7.65,1.2,203
7.65,1.35,207
7.65,1.5,210
7.8,-1.5,234
7.8,-1.35,219
7.8,-1.2,201
7.8,-1.05,186
7.8,-0.9,174
7.8,-0.75,178
7.8,-0.6,200
7.8,-0.45,204
7.8,-0.3,231
7.8,-0.15,234
7.8,0.0,206
7.8,0.15,206
7.8,0.3,209
7.8,0.45,206
7.8,0.6,206
7.8,0.75,209
7.8,0.9,200
7.8,1.05,180
7.8,1.2,162
7.8,1.35,150
7.8,1.5,140
7.95,-1.5,212
7.95,-1.35,200
7.95,-1.2,179
7.95,-1.05,171
7.95,-0.9,162
7.95,-0.75,156
7.95,-0.6,173
7.95,-0.45,198
7.95,-0.3,255
7.95,-0.15,215
7.95,0.0,209
7.95,0.15,209
7.95,0.3,208
7.95,0.45,209
7.95,0.6,209
7.95,0.75,202
7.95,0.9,190
7.95,1.05,178
7.95,1.2,166
7.95,1.35,158
7.95,1.5,152
8.1,-1.5,197
8.1,-1.35,189
8.1,-1.2,171
8.1,-1.05,169
8.1,-0.9,165
8.1,-0.75,152
8.1,-0.6,160
8.1,-0.45,176
8.1,-0.3,255
8.1,-0.15,208
8.1,0.0,205
8.1,0.15,205
8.1,0.3,207
8.1,0.45,206
8.1,0.6,205
8.1,0.75,206
8.1,0.9,191
8.1,1.05,178
8.1,1.2,174
8.1,1.35,171
8.1,1.5,168
8.25,-1.5,179
8.25,-1.35,177
8.25,-1.2,176
8.25,-1.05,178
8.25,-0.9,182
8.25,-0.75,183
8.25,-0.6,205
8.25,-0.45,221
8.25,-0.3,241
8.25,-0.15,205
8.25,0.0,205
8.25,0.15,205
8.25,0.3,207
8.25,0.45,205
8.25,0.6,205
8.25,0.75,206
8.25,0.9,198
8.25,1.05,188
8.25,1.2,185
8.25,1.35,183
8.25,1.5,179
8.4,-1.5,151
8.4,-1.35,163
8.4,-1.2,180
8.4,-1.05,184
8.4,-0.9,196
8.4,-0.75,213
8.4,-0.6,219
8.4,-0.45,205
8.4,-0.3,218
8.4,-0.15,206
8.4,0.0,206
8.4,0.15,205
8.4,0.3,205
8.4,0.45,205
8.4,0.6,214
8.4,0.75,218
8.4,0.9,217
8.4,1.05,203
8.4,1.2,194
8.4,1.35,188
8.4,1.5,183
8.55,-1.5,76
8.55,-1.35,123
8.55,-1.2,180
8.55,-1.05,181
8.55,-0.9,197
8.55,-0.75,216
8.55,-0.6,218
8.55,-0.45,203
8.55,-0.3,218
8.55,-0.15,207
8.55,0.0,212
8.55,0.15,206
8.55,0.3,206
8.55,0.45,205
8.55,0.6,206
8.55,0.75,213
8.55,0.9,232
8.55,1.05,210
8.55,1.2,183
8.55,1.35,171
8.55,1.5,163
8.7,-1.5,118
8.7,-1.35,139
8.7,-1.2,140
8.7,-1.05,184
8.7,-0.9,203
8.7,-0.75,200
8.7,-0.6,194
8.7,-0.45,214
8.7,-0.3,218
8.7,-0.15,207
8.7,0.0,212
8.7,0.15,212
8.7,0.3,205
8.7,0.45,213
8.7,0.6,213
8.7,0.75,208
8.7,0.9,223
8.7,1.05,215
8.7,1.2,197
8.7,1.35,184
8.7,1.5,172
8.85,-1.5,186
8.85,-1.35,174
8.85,-1.2,108
8.85,-1.05,179
8.85,-0.9,197
8.85,-0.75,189
8.85,-0.6,197
8.85,-0.45,205
8.85,-0.3,208
8.85,-0.15,213
8.85,0.0,213
8.85,0.15,210
8.85,0.3,205
8.85,0.45,213
8.85,0.6,208
8.85,0.75,213
8.85,0.9,214
8.85,1.05,208
8.85,1.2,198
8.85,1.35,185
8.85,1.5,172
9.0,-1.5,193
9.0,-1.35,200
9.0,-1.2,224
9.0,-1.05,191
9.0,-0.9,179
9.0,-0.75,204
9.0,-0.6,206
9.0,-0.45,202
9.0,-0.3,208
9.0,-0.15,205
9.0,0.0,204
9.0,0.15,191
9.0,0.3,213
9.0,0.45,208
9.0,0.6,212
9.0,0.75,206
9.0,0.9,202
9.0,1.05,195
9.0,1.2,191
9.0,1.35,182
9.0,1.5,172
9.15,-1.5,193
9.15,-1.35,204
9.15,-1.2,255
9.15,-1.05,204
9.15,-0.9,185
9.15,-0.75,218
9.15,-0.6,209
9.15,-0.45,202
9.15,-0.3,208
9.15,-0.15,207
9.15,0.0,206
9.15,0.15,202
9.15,0.3,209
9.15,0.45,207
9.15,0.6,206
9.15,0.75,217
9.15,0.9,217
9.15,1.05,204
9.15,1.2,191
9.15,1.35,181
9.15,1.5,172
9.3,-1.5,196
9.3,-1.35,209
9.3,-1.2,255
9.3,-1.05,251
9.3,-0.9,236
9.3,-0.75,215
9.3,-0.6,212
9.3,-0.45,208
9.3,-0.3,203
9.3,-0.15,208
9.3,0.0,206
9.3,0.15,207
9.3,0.3,209
9.3,0.45,207
9.3,0.6,222
9.3,0.75,212
9.3,0.9,217
9.3,1.05,206
9.3,1.2,195
9.3,1.35,184
9.3,1.5,174
9.45,-1.5,192
9.45,-1.35,206
9.45,-1.2,255
9.45,-1.05,248
9.45,-0.9,221
9.45,-0.75,173
9.45,-0.6,170
9.45,-0.45,203
9.45,-0.3,208
9.45,-0.15,207
9.45,0.0,207
9.45,0.15,221
9.45,0.3,207
9.45,0.45,207
9.45,0.6,216
9.45,0.75,212
9.45,0.9,208
9.45,1.05,203
9.45,1.2,205
9.45,1.35,207
9.45,1.5,209
9.6,-1.5,187
9.6,-1.35,201
9.6,-1.2,250
9.6,-1.05,236
9.6,-0.9,204
9.6,-0.75,149
9.6,-0.6,96
9.6,-0.45,195
9.6,-0.3,196
9.6,-0.15,207
9.6,0.0,208
9.6,0.15,207
9.6,0.3,211
9.6,0.45,207
9.6,0.6,207
9.6,0.75,208
9.6,0.9,212
9.6,1.05,203
9.6,1.2,219
9.6,1.35,237
9.6,1.5,255
9.75,-1.5,236
9.75,-1.35,236
9.75,-1.2,248
9.75,-1.05,164
9.75,-0.9,115
9.75,-0.75,115
9.75,-0.6,133
9.75,-0.45,195
9.75,-0.3,207
9.75,-0.15,207
9.75,0.0,209
9.75,0.15,207
9.75,0.3,207
9.75,0.45,220
9.75,0.6,211
9.75,0.75,207
9.75,0.9,210
9.75,1.05,214
9.75,1.2,221
9.75,1.35,231
9.75,1.5,242
9.9,-1.5,253
9.9,-1.35,246
9.9,-1.2,241
9.9,-1.05,157
9.9,-0.9,136
9.9,-0.75,183
9.9,-0.6,210
9.9,-0.45,209
9.9,-0.3,210
9.9,-0.15,209
9.9,0.0,208
9.9,0.15,208
9.9,0.3,207
9.9,0.45,212
9.9,0.6,207
9.9,0.75,213
9.9,0.9,213
9.9,1.05,212
9.9,1.2,216
9.9,1.35,221
9.9,1.5,229
10.05,-1.5,255
10.05,-1.35,245
10.05,-1.2,231
10.05,-1.05,174
10.05,-0.9,176
10.05,-0.75,205
10.05,-0.6,208
10.05,-0.45,214
10.05,-0.3,208
10.05,-0.15,208
10.05,0.0,208
10.05,0.15,208
10.05,0.3,207
10.05,0.45,207
10.05,0.6,212
10.05,0.75,213
10.05,0.9,207
10.05,1.05,208
10.05,1.2,220
10.05,1.35,232
10.05,1.5,244
10.2,-1.5,185
10.2,-1.35,189
10.2,-1.2,192
10.2,-1.05,179
10.2,-0.9,188
10.2,-0.75,199
10.2,-0.6,204
10.2,-0.45,214
10.2,-0.3,208
10.2,-0.15,208
10.2,0.0,208
10.2,0.15,208
10.2,0.3,213
10.2,0.45,213
10.2,0.6,213
10.2,0.75,201
10.2,0.9,192
10.2,1.05,200
10.2,1.2,212
10.2,1.35,223
10.2,1.5,233
10.35,-1.5,25
10.35,-1.35,77
10.35,-1.2,121
10.35,-1.05,180
10.35,-0.9,201
10.35,-0.75,197
10.35,-0.6,205
10.35,-0.45,214
10.35,-0.3,214
10.35,-0.15,208
10.35,0.0,208
10.35,0.15,209
10.35,0.3,208
10.35,0.45,201
10.35,0.6,200
10.35,0.75,184
10.35,0.9,183
10.35,1.05,199
10.35,1.2,201
10.35,1.35,205
10.35,1.5,210
10.5,-1.5,101
10.5,-1.35,135
10.5,-1.2,171
10.5,-1.05,193
10.5,-0.9,201
10.5,-0.75,202
10.5,-0.6,207
10.5,-0.45,212
10.5,-0.3,208
10.5,-0.15,255
10.5,0.0,255
10.5,0.15,240
10.5,0.3,209
10.5,0.45,215
10.5,0.6,200
10.5,0.75,191
10.5,0.9,190
10.5,1.05,197
10.5,1.2,203
10.5,1.35,210
10.5,1.5,216
10.65,-1.5,158
10.65,-1.35,178
10.65,-1.2,215
10.65,-1.05,206
10.65,-0.9,202
10.65,-0.75,207
10.65,-0.6,208
10.65,-0.45,207
10.65,-0.3,218
10.65,-0.15,208
10.65,0.0,214
10.65,0.15,208
10.65,0.3,214
10.65,0.45,227
10.65,0.6,215
10.65,0.75,204
10.65,0.9,201
10.65,1.05,202
10.65,1.2,209
10.65,1.35,217
10.65,1.5,225
10.8,-1.5,145
10.8,-1.35,163
10.8,-1.2,200
10.8,-1.05,204
10.8,-0.9,207
10.8,-0.75,206
10.8,-0.6,208
10.8,-0.45,208
10.8,-0.3,212
10.8,-0.15,211
10.8,0.0,214
10.8,0.15,207
10.8,0.3,211
10.8,0.45,220
10.8,0.6,215
10.8,0.75,206
10.8,0.9,206
10.8,1.05,209
10.8,1.2,218
10.8,1.35,227
10.8,1.5,235
10.95,-1.5,138
10.95,-1.35,153
10.95,-1.2,184
10.95,-1.05,196
10.95,-0.9,206
10.95,-0.75,206
10.95,-0.6,207
10.95,-0.45,207
10.95,-0.3,219
10.95,-0.15,208
10.95,0.0,207
10.95,0.15,209
10.95,0.3,209
10.95,0.45,207
10.95,0.6,203
10.95,0.75,198
10.95,0.9,201
10.95,1.05,208
10.95,1.2,215
10.95,1.35,224
10.95,1.5,232
11.1,-1.5,138
11.1,-1.35,145
11.1,-1.2,146
11.1,-1.05,159
11.1,-0.9,181
11.1,-0.75,207
11.1,-0.6,207
11.1,-0.45,207
11.1,-0.3,221
11.1,-0.15,212
11.1,0.0,206
11.1,0.15,211
11.1,0.3,223
11.1,0.45,216
11.1,0.6,200
11.1,0.75,190
11.1,0.9,192
11.1,1.05,204
11.1,1.2,207
11.1,1.35,209
11.1,1.5,210
11.25,-1.5,130
11.25,-1.35,137
11.25,-1.2,134
11.25,-1.05,144
11.25,-0.9,166
11.25,-0.75,202
11.25,-0.6,207
11.25,-0.45,207
11.25,-0.3,214
11.25,-0.15,211
11.25,0.0,206
11.25,0.15,215
11.25,0.3,222
11.25,0.45,214
11.25,0.6,199
11.25,0.75,189
11.25,0.9,184
11.25,1.05,187
11.25,1.2,196
11.25,1.35,200
11.25,1.5,202
11.4,-1.5,115
11.4,-1.35,127
11.4,-1.2,134
11.4,-1.05,137
11.4,-0.9,147
11.4,-0.75,178
11.4,-0.6,198
11.4,-0.45,205
11.4,-0.3,203
11.4,-0.15,203
11.4,0.0,208
11.4,0.15,217
11.4,0.3,212
11.4,0.45,207
11.4,0.6,203
11.4,0.75,195
11.4,0.9,182
11.4,1.05,168
11.4,1.2,183
11.4,1.35,189
11.4,1.5,190
11.55,-1.5,112
11.55,-1.35,124
11.55,-1.2,136
11.55,-1.05,145
11.55,-0.9,153
11.55,-0.75,170
11.55,-0.6,196
11.55,-0.45,208
11.55,-0.3,208
11.55,-0.15,207
11.55,0.0,194
11.55,0.15,198
11.55,0.3,208
11.55,0.45,212
11.55,0.6,212
11.55,0.75,203
11.55,0.9,191
11.55,1.05,181
11.55,1.2,177
11.55,1.35,172
11.55,1.5,166
11.7,-1.5,114
11.7,-1.35,128
11.7,-1.2,141
11.7,-1.05,156
11.7,-0.9,169
11.7,-0.75,180
11.7,-0.6,199
11.7,-0.45,204
11.7,-0.3,223
11.7,-0.15,221
11.7,0.0,202
11.7,0.15,197
11.7,0.3,212
11.7,0.45,212
11.7,0.6,212
11.7,0.75,207
11.7,0.9,195
11.7,1.05,185
11.7,1.2,174
11.7,1.35,164
11.7,1.5,155
11.85,-1.5,122
11.85,-1.35,136
11.85,-1.2,150
11.85,-1.05,160
11.85,-0.9,176
11.85,-0.75,196
11.85,-0.6,223
11.85,-0.45,206
11.85,-0.3,208
11.85,-0.15,212
11.85,0.0,204
11.85,0.15,198
11.85,0.3,212
11.85,0.45,212
11.85,0.6,212
11.85,0.75,212
11.85,0.9,203
11.85,1.05,187
11.85,1.2,183
11.85,1.35,177
11.85,1.5,171
12.0,-1.5,139
12.0,-1.35,150
12.0,-1.2,160
12.0,-1.05,171
12.0,-0.9,187
12.0,-0.75,211
12.0,-0.6,213
12.0,-0.45,208
12.0,-0.3,207
12.0,-0.15,207
12.0,0.0,202
12.0,0.15,202
12.0,0.3,212
12.0,0.45,212
12.0,0.6,209
12.0,0.75,208
12.0,0.9,204
12.0,1.05,195
12.0,1.2,194
12.0,1.35,191
12.0,1.5,187
12.15,-1.5,183
12.15,-1.35,183
12.15,-1.2,182
12.15,-1.05,191
12.15,-0.9,200
12.15,-0.75,213
12.15,-0.6,210
12.15,-0.45,213
12.15,-0.3,217
12.15,-0.15,212
12.15,0.0,202
12.15,0.15,204
12.15,0.3,211
12.15,0.45,210
12.15,0.6,207
12.15,0.75,207
12.15,0.9,208
12.15,1.05,208
12.15,1.2,208
12.15,1.35,208
12.15,1.5,208
12.3,-1.5,169
12.3,-1.35,180
12.3,-1.2,201
12.3,-1.05,202
12.3,-0.9,202
12.3,-0.75,213
12.3,-0.6,213
12.3,-0.45,213
12.3,-0.3,211
12.3,-0.15,228
12.3,0.0,230
12.3,0.15,222
12.3,0.3,204
12.3,0.45,205
12.3,0.6,205
12.3,0.75,205
12.3,0.9,206
12.3,1.05,208
12.3,1.2,208
12.3,1.35,208
12.3,1.5,208
12.45,-1.5,166
12.45,-1.35,183
12.45,-1.2,210
12.45,-1.05,209
12.45,-0.9,209
12.45,-0.75,208
12.45,-0.6,213
12.45,-0.45,213
12.45,-0.3,206
12.45,-0.15,212
12.45,0.0,230
12.45,0.15,230
12.45,0.3,206
12.45,0.45,206
12.45,0.6,205
12.45,0.75,205
12.45,0.9,205
12.45,1.05,205
12.45,1.2,206
12.45,1.35,207
12.45,1.5,207
12.6,-1.5,221
12.6,-1.35,218
12.6,-1.2,212
12.6,-1.05,204
12.6,-0.9,200
12.6,-0.75,189
12.6,-0.6,197
12.6,-0.45,206
12.6,-0.3,207
12.6,-0.15,206
12.6,0.0,214
12.6,0.15,215
12.6,0.3,208
12.6,0.45,207
12.6,0.6,205
12.6,0.75,205
12.6,0.9,205
12.6,1.05,205
12.6,1.2,206
12.6,1.35,207
12.6,1.5,207
12.75,-1.5,222
12.75,-1.35,215
12.75,-1.2,206
12.75,-1.05,199
12.75,-0.9,193
12.75,-0.75,181
12.75,-0.6,191
12.75,-0.45,205
12.75,-0.3,207
12.75,-0.15,206
12.75,0.0,209
12.75,0.15,209
12.75,0.3,208
12.75,0.45,207
12.75,0.6,206
12.75,0.75,205
12.75,0.9,205
12.75,1.05,205
12.75,1.2,206
12.75,1.35,206
12.75,1.5,207
12.9,-1.5,210
12.9,-1.35,205
12.9,-1.2,196
12.9,-1.05,192
12.9,-0.9,189
12.9,-0.75,190
12.9,-0.6,199
12.9,-0.45,207
12.9,-0.3,207
12.9,-0.15,206
12.9,0.0,209
12.9,0.15,209
12.9,0.3,209
12.9,0.45,208
12.9,0.6,207
12.9,0.75,205
12.9,0.9,205
12.9,1.05,206
12.9,1.2,205
12.9,1.35,206
12.9,1.5,206
13.05,-1.5,203
13.05,-1.35,200
13.05,-1.2,193
13.05,-1.05,193
13.05,-0.9,193
13.05,-0.75,193
13.05,-0.6,201
13.05,-0.45,207
13.05,-0.3,206
13.05,-0.15,207
13.05,0.0,209
13.05,0.15,209
13.05,0.3,209
13.05,0.45,208
13.05,0.6,207
13.05,0.75,205
13.05,0.9,205
13.05,1.05,206
13.05,1.2,205
13.05,1.35,205
13.05,1.5,205
