-3.0,-1.5,115
-3.0,-1.35,115
-3.0,-1.2,115
-3.0,-1.05,115
-3.0,-0.9,111
-3.0,-0.75,108
-3.0,-0.6,106
-3.0,-0.45,104
-3.0,-0.3,106
-3.0,-0.15,107
-3.0,0.0,107
-3.0,0.15,108
-3.0,0.3,108
-3.0,0.45,108
-3.0,0.6,109
-3.0,0.75,109
-3.0,0.9,109
-3.0,1.05,109
-3.0,1.2,109
-3.0,1.35,109
-3.0,1.5,110
-2.85,-1.5,115
-2.85,-1.35,115
-2.85,-1.2,115
-2.85,-1.05,116
-2.85,-0.9,114
-2.85,-0.75,110
-2.85,-0.6,107
-2.85,-0.45,105
-2.85,-0.3,106
-2.85,-0.15,107
-2.85,0.0,108
-2.85,0.15,108
-2.85,0.3,109
-2.85,0.45,109
-2.85,0.6,109
-2.85,0.75,109
-2.85,0.9,109
-2.85,1.05,109
-2.85,1.2,109
-2.85,1.35,110
-2.85,1.5,110
-2.7,-1.5,115
-2.7,-1.35,115
-2.7,-1.2,116
-2.7,-1.05,116
-2.7,-0.9,116
-2.7,-0.75,112
-2.7,-0.6,108
-2.7,-0.45,106
-2.7,-0.3,106
-2.7,-0.15,108
-2.7,0.0,109
-2.7,0.15,110
-2.7,0.3,110
-2.7,0.45,110
-2.7,0.6,110
-2.7,0.75,110
-2.7,0.9,110
-2.7,1.05,110
-2.7,1.2,110
-2.7,1.35,110
-2.7,1.5,111
-2.55,-1.5,115
-2.55,-1.35,115
-2.55,-1.2,116
-2.55,-1.05,116
-2.55,-0.9,116
-2.55,-0.75,113
-2.55,-0.6,109
-2.55,-0.45,107
-2.55,-0.3,108
-2.55,-0.15,109
-2.55,0.0,110
-2.55,0.15,111
-2.55,0.3,111
-2.55,0.45,111
-2.55,0.6,110
-2.55,0.75,110
-2.55,0.9,110
-2.55,1.05,110
-2.55,1.2,111
-2.55,1.35,111
-2.55,1.5,112
-2.4,-1.5,115
-2.4,-1.35,115
-2.4,-1.2,116
-2.4,-1.05,116
-2.4,-0.9,116
-2.4,-0.75,113
-2.4,-0.6,110
-2.4,-0.45,109
-2.4,-0.3,110
-2.4,-0.15,111
-2.4,0.0,112
-2.4,0.15,112
-2.4,0.3,112
-2.4,0.45,111
-2.4,0.6,111
-2.4,0.75,111
-2.4,0.9,111
-2.4,1.05,111
-2.4,1.2,112
-2.4,1.35,113
-2.4,1.5,113
-2.25,-1.5,115
-2.25,-1.35,116
-2.25,-1.2,116
-2.25,-1.05,116
-2.25,-0.9,116
-2.25,-0.75,114
-2.25,-0.6,111
-2.25,-0.45,111
-2.25,-0.3,112
-2.25,-0.15,113
-2.25,0.0,113
-2.25,0.15,113
-2.25,0.3,112
-2.25,0.45,112
-2.25,0.6,111
-2.25,0.75,111
-2.25,0.9,112
-2.25,1.05,112
-2.25,1.2,113
-2.25,1.35,113
-2.25,1.5,113
-2.1,-1.5,116
-2.1,-1.35,116
-2.1,-1.2,116
-2.1,-1.05,116
-2.1,-0.9,116
-2.1,-0.75,116
-2.1,-0.6,113
-2.1,-0.45,112
-2.1,-0.3,113
-2.1,-0.15,113
-2.1,0.0,113
-2.1,0.15,113
-2.1,0.3,112
-2.1,0.45,112
-2.1,0.6,112
-2.1,0.75,113
-2.1,0.9,113
-2.1,1.05,114
-2.1,1.2,113
-2.1,1.35,113
-2.1,1.5,113
-1.95,-1.5,116
-1.95,-1.35,116
-1.95,-1.2,116
-1.95,-1.05,116
-1.95,-0.9,116
-1.95,-0.75,116
-1.95,-0.6,113
-1.95,-0.45,112
-1.95,-0.3,112
-1.95,-0.15,113
-1.95,0.0,113
-1.95,0.15,113
-1.95,0.3,113
-1.95,0.45,113
-1.95,0.6,114
-1.95,0.75,114
-1.95,0.9,115
-1.95,1.05,113
-1.95,1.2,110
-1.95,1.35,110
-1.95,1.5,110
-1.8,-1.5,116
-1.8,-1.35,116
-1.8,-1.2,116
-1.8,-1.05,116
-1.8,-0.9,116
-1.8,-0.75,116
-1.8,-0.6,113
-1.8,-0.45,112
-1.8,-0.3,112
-1.8,-0.15,112
-1.8,0.0,113
-1.8,0.15,113
-1.8,0.3,115
-1.8,0.45,116
-1.8,0.6,118
-1.8,0.75,118
-1.8,0.9,116
-1.8,1.05,111
-1.8,1.2,102
-1.8,1.35,102
-1.8,1.5,102
-1.65,-1.5,116
-1.65,-1.35,116
-1.65,-1.2,116
-1.65,-1.05,116
-1.65,-0.9,116
-1.65,-0.75,116
-1.65,-0.6,115
-1.65,-0.45,112
-1.65,-0.3,112
-1.65,-0.15,113
-1.65,0.0,114
-1.65,0.15,115
-1.65,0.3,119
-1.65,0.45,120
-1.65,0.6,121
-1.65,0.75,118
-1.65,0.9,112
-1.65,1.05,106
-1.65,1.2,98
-1.65,1.35,97
-1.65,1.5,96
-1.5,-1.5,114
-1.5,-1.35,114
-1.5,-1.2,115
-1.5,-1.05,116
-1.5,-0.9,116
-1.5,-0.75,116
-1.5,-0.6,116
-1.5,-0.45,115
-1.5,-0.3,115
-1.5,-0.15,116
-1.5,0.0,119
-1.5,0.15,122
-1.5,0.3,125
-1.5,0.45,125
-1.5,0.6,122
-1.5,0.75,116
-1.5,0.9,102
-1.5,1.05,97
-1.5,1.2,90
-1.5,1.35,87
-1.5,1.5,85
-1.35,-1.5,110
-1.35,-1.35,109
-1.35,-1.2,109
-1.35,-1.05,112
-1.35,-0.9,116
-1.35,-0.75,116
-1.35,-0.6,116
-1.35,-0.45,116
-1.35,-0.3,116
-1.35,-0.15,120
-1.35,0.0,125
-1.35,0.15,129
-1.35,0.3,129
-1.35,0.45,126
-1.35,0.6,120
-1.35,0.75,112
-1.35,0.9,93
-1.35,1.05,86
-1.35,1.2,79
-1.35,1.35,75
-1.35,1.5,72
-1.2,-1.5,110
-1.2,-1.35,108
-1.2,-1.2,107
-1.2,-1.05,109
-1.2,-0.9,113
-1.2,-0.75,116
-1.2,-0.6,116
-1.2,-0.45,115
-1.2,-0.3,118
-1.2,-0.15,124
-1.2,0.0,132
-1.2,0.15,136
-1.2,0.3,129
-1.2,0.45,121
-1.2,0.6,112
-1.2,0.75,101
-1.2,0.9,79
-1.2,1.05,70
-1.2,1.2,63
-1.2,1.35,58
-1.2,1.5,56
-1.05,-1.5,112
-1.05,-1.35,110
-1.05,-1.2,109
-1.05,-1.05,111
-1.05,-0.9,114
-1.05,-0.75,116
-1.05,-0.6,115
-1.05,-0.45,114
-1.05,-0.3,117
-1.05,-0.15,125
-1.05,0.0,132
-1.05,0.15,134
-1.05,0.3,126
-1.05,0.45,118
-1.05,0.6,109
-1.05,0.75,99
-1.05,0.9,79
-1.05,1.05,69
-1.05,1.2,63
-1.05,1.35,58
-1.05,1.5,56
-0.9,-1.5,121
-0.9,-1.35,117
-0.9,-1.2,117
-0.9,-1.05,117
-0.9,-0.9,119
-0.9,-0.75,119
-0.9,-0.6,118
-0.9,-0.45,113
-0.9,-0.3,115
-0.9,-0.15,123
-0.9,0.0,126
-0.9,0.15,124
-0.9,0.3,118
-0.9,0.45,113
-0.9,0.6,104
-0.9,0.75,95
-0.9,0.9,80
-0.9,1.05,72
-0.9,1.2,65
-0.9,1.35,60
-0.9,1.5,56
-0.75,-1.5,131
-0.75,-1.35,126
-0.75,-1.2,126
-0.75,-1.05,124
-0.75,-0.9,123
-0.75,-0.75,124
-0.75,-0.6,123
-0.75,-0.45,114
-0.75,-0.3,111
-0.75,-0.15,115
-0.75,0.0,117
-0.75,0.15,115
-0.75,0.3,111
-0.75,0.45,107
-0.75,0.6,99
-0.75,0.75,91
-0.75,0.9,75
-0.75,1.05,62
-0.75,1.2,43
-0.75,1.35,34
-0.75,1.5,24
-0.6,-1.5,143
-0.6,-1.35,138
-0.6,-1.2,137
-0.6,-1.05,132
-0.6,-0.9,126
-0.6,-0.75,121
-0.6,-0.6,116
-0.6,-0.45,112
-0.6,-0.3,109
-0.6,-0.15,109
-0.6,0.0,109
-0.6,0.15,108
-0.6,0.3,104
-0.6,0.45,100
-0.6,0.6,95
-0.6,0.75,86
-0.6,0.9,68
-0.6,1.05,45
-0.6,1.2,1
-0.6,1.35,0
-0.6,1.5,0
-0.45,-1.5,145
-0.45,-1.35,145
-0.45,-1.2,146
-0.45,-1.05,141
-0.45,-0.9,132
-0.45,-0.75,121
-0.45,-0.6,112
-0.45,-0.45,114
-0.45,-0.3,115
-0.45,-0.15,114
-0.45,0.0,112
-0.45,0.15,108
-0.45,0.3,103
-0.45,0.45,98
-0.45,0.6,92
-0.45,0.75,82
-0.45,0.9,64
-0.45,1.05,45
-0.45,1.2,14
-0.45,1.35,0
-0.45,1.5,0
-0.3,-1.5,145
-0.3,-1.35,145
-0.3,-1.2,155
-0.3,-1.05,153
-0.3,-0.9,143
-0.3,-0.75,131
-0.3,-0.6,122
-0.3,-0.45,125
-0.3,-0.3,127
-0.3,-0.15,125
-0.3,0.0,122
-0.3,0.15,114
-0.3,0.3,107
-0.3,0.45,100
-0.3,0.6,91
-0.3,0.75,79
-0.3,0.9,52
-0.3,1.05,43
-0.3,1.2,52
-0.3,1.35,44
-0.3,1.5,36
-0.15,-1.5,145
-0.15,-1.35,145
-0.15,-1.2,160
-0.15,-1.05,163
-0.15,-0.9,156
-0.15,-0.75,146
-0.15,-0.6,139
-0.15,-0.45,137
-0.15,-0.3,133
-0.15,-0.15,129
-0.15,0.0,125
-0.15,0.15,119
-0.15,0.3,112
-0.15,0.45,105
-0.15,0.6,95
-0.15,0.75,83
-0.15,0.9,61
-0.15,1.05,54
-0.15,1.2,65
-0.15,1.35,59
-0.15,1.5,53
0.0,-1.5,150
0.0,-1.35,149
0.0,-1.2,153
0.0,-1.05,154
0.0,-0.9,155
0.0,-0.75,145
0.0,-0.6,143
0.0,-0.45,138
0.0,-0.3,129
0.0,-0.15,126
0.0,0.0,124
0.0,0.15,121
0.0,0.3,114
0.0,0.45,110
0.0,0.6,99
0.0,0.75,84
0.0,0.9,82
0.0,1.05,76
0.0,1.2,75
0.0,1.35,69
0.0,1.5,65
0.15,-1.5,161
0.15,-1.35,158
0.15,-1.2,153
0.15,-1.05,150
0.15,-0.9,146
0.15,-0.75,136
0.15,-0.6,145
0.15,-0.45,145
0.15,-0.3,127
0.15,-0.15,123
0.15,0.0,123
0.15,0.15,123
0.15,0.3,123
0.15,0.45,115
0.15,0.6,101
0.15,0.75,87
0.15,0.9,89
0.15,1.05,84
0.15,1.2,78
0.15,1.35,73
0.15,1.5,68
0.3,-1.5,194
0.3,-1.35,184
0.3,-1.2,159
0.3,-1.05,147
0.3,-0.9,122
0.3,-0.75,112
0.3,-0.6,145
0.3,-0.45,139
0.3,-0.3,119
0.3,-0.15,132
0.3,0.0,143
0.3,0.15,141
0.3,0.3,124
0.3,0.45,112
0.3,0.6,105
0.3,0.75,99
0.3,0.9,92
0.3,1.05,86
0.3,1.2,80
0.3,1.35,74
0.3,1.5,68
0.45,-1.5,165
0.45,-1.35,158
0.45,-1.2,151
0.45,-1.05,145
0.45,-0.9,121
0.45,-0.75,112
0.45,-0.6,122
0.45,-0.45,103
0.45,-0.3,96
0.45,-0.15,114
0.45,0.0,144
0.45,0.15,145
0.45,0.3,118
0.45,0.45,103
0.45,0.6,105
0.45,0.75,102
0.45,0.9,94
0.45,1.05,90
0.45,1.2,86
0.45,1.35,81
0.45,1.5,75
0.6,-1.5,59
0.6,-1.35,69
0.6,-1.2,140
0.6,-1.05,162
0.6,-0.9,131
0.6,-0.75,122
0.6,-0.6,112
0.6,-0.45,101
0.6,-0.3,112
0.6,-0.15,120
0.6,0.0,127
0.6,0.15,129
0.6,0.3,108
0.6,0.45,101
0.6,0.6,101
0.6,0.75,100
0.6,0.9,98
0.6,1.05,99
0.6,1.2,101
0.6,1.35,101
0.6,1.5,99
0.75,-1.5,39
0.75,-1.35,53
0.75,-1.2,119
0.75,-1.05,138
0.75,-0.9,118
0.75,-0.75,114
0.75,-0.6,119
0.75,-0.45,118
0.75,-0.3,111
0.75,-0.15,80
0.75,0.0,104
0.75,0.15,126
0.75,0.3,110
0.75,0.45,103
0.75,0.6,105
0.75,0.75,103
0.75,0.9,100
0.75,1.05,101
0.75,1.2,101
0.75,1.35,101
0.75,1.5,100
0.9,-1.5,35
0.9,-1.35,49
0.9,-1.2,72
0.9,-1.05,89
0.9,-0.9,111
0.9,-0.75,111
0.9,-0.6,121
0.9,-0.45,122
0.9,-0.3,125
0.9,-0.15,108
0.9,0.0,109
0.9,0.15,126
0.9,0.3,122
0.9,0.45,116
0.9,0.6,113
0.9,0.75,108
0.9,0.9,104
0.9,1.05,99
0.9,1.2,93
0.9,1.35,87
0.9,1.5,81
1.05,-1.5,33
1.05,-1.35,47
1.05,-1.2,62
1.05,-1.05,80
1.05,-0.9,104
1.05,-0.75,106
1.05,-0.6,126
1.05,-0.45,134
1.05,-0.3,108
1.05,-0.15,114
1.05,0.0,111
1.05,0.15,123
1.05,0.3,126
1.05,0.45,126
1.05,0.6,119
1.05,0.75,110
1.05,0.9,105
1.05,1.05,99
1.05,1.2,95
1.05,1.35,91
1.05,1.5,88
1.2,-1.5,24
1.2,-1.35,41
1.2,-1.2,51
1.2,-1.05,70
1.2,-0.9,94
1.2,-0.75,105
1.2,-0.6,120
1.2,-0.45,133
1.2,-0.3,118
1.2,-0.15,114
1.2,0.0,112
1.2,0.15,118
1.2,0.3,119
1.2,0.45,114
1.2,0.6,116
1.2,0.75,110
1.2,0.9,103
1.2,1.05,107
1.2,1.2,130
1.2,1.35,140
1.2,1.5,150
1.35,-1.5,18
1.35,-1.35,37
1.35,-1.2,52
1.35,-1.05,74
1.35,-0.9,96
1.35,-0.75,110
1.35,-0.6,110
1.35,-0.45,121
1.35,-0.3,121
1.35,-0.15,115
1.35,0.0,118
1.35,0.15,121
1.35,0.3,105
1.35,0.45,93
1.35,0.6,106
1.35,0.75,105
1.35,0.9,103
1.35,1.05,113
1.35,1.2,142
1.35,1.35,155
1.35,1.5,168
1.5,-1.5,9
1.5,-1.35,37
1.5,-1.2,61
1.5,-1.05,85
1.5,-0.9,101
1.5,-0.75,113
1.5,-0.6,110
1.5,-0.45,112
1.5,-0.3,118
1.5,-0.15,115
1.5,0.0,115
1.5,0.15,121
1.5,0.3,104
1.5,0.45,77
1.5,0.6,95
1.5,0.75,102
1.5,0.9,123
1.5,1.05,129
1.5,1.2,121
1.5,1.35,122
1.5,1.5,123
1.65,-1.5,9
1.65,-1.35,40
1.65,-1.2,67
1.65,-1.05,96
1.65,-0.9,115
1.65,-0.75,114
1.65,-0.6,116
1.65,-0.45,114
1.65,-0.3,116
1.65,-0.15,119
1.65,0.0,122
1.65,0.15,132
1.65,0.3,111
1.65,0.45,77
1.65,0.6,95
1.65,0.75,105
1.65,0.9,135
1.65,1.05,136
1.65,1.2,107
1.65,1.35,104
1.65,1.5,100
1.8,-1.5,9
1.8,-1.35,38
1.8,-1.2,75
1.8,-1.05,99
1.8,-0.9,116
1.8,-0.75,110
1.8,-0.6,116
1.8,-0.45,116
1.8,-0.3,109
1.8,-0.15,99
1.8,0.0,103
1.8,0.15,133
1.8,0.3,106
1.8,0.45,87
1.8,0.6,113
1.8,0.75,129
1.8,0.9,139
1.8,1.05,129
1.8,1.2,83
1.8,1.35,69
1.8,1.5,54
1.95,-1.5,14
1.95,-1.35,38
1.95,-1.2,78
1.95,-1.05,96
1.95,-0.9,104
1.95,-0.75,116
1.95,-0.6,115
1.95,-0.45,110
1.95,-0.3,102
1.95,-0.15,99
1.95,0.0,114
1.95,0.15,121
1.95,0.3,102
1.95,0.45,97
1.95,0.6,124
1.95,0.75,141
1.95,0.9,138
1.95,1.05,122
1.95,1.2,68
1.95,1.35,49
1.95,1.5,28
2.1,-1.5,61
2.1,-1.35,65
2.1,-1.2,83
2.1,-1.05,102
2.1,-0.9,113
2.1,-0.75,111
2.1,-0.6,115
2.1,-0.45,115
2.1,-0.3,91
2.1,-0.15,102
2.1,0.0,129
2.1,0.15,113
2.1,0.3,104
2.1,0.45,114
2.1,0.6,129
2.1,0.75,130
2.1,0.9,89
2.1,1.05,66
2.1,1.2,36
2.1,1.35,9
2.1,1.5,0
2.25,-1.5,84
2.25,-1.35,82
2.25,-1.2,94
2.25,-1.05,118
2.25,-0.9,135
2.25,-0.75,125
2.25,-0.6,112
2.25,-0.45,112
2.25,-0.3,111
2.25,-0.15,127
2.25,0.0,123
2.25,0.15,104
2.25,0.3,110
2.25,0.45,132
2.25,0.6,138
2.25,0.75,132
2.25,0.9,76
2.25,1.05,53
2.25,1.2,39
2.25,1.35,12
2.25,1.5,0
2.4,-1.5,89
2.4,-1.35,94
2.4,-1.2,109
2.4,-1.05,127
2.4,-0.9,136
2.4,-0.75,129
2.4,-0.6,124
2.4,-0.45,124
2.4,-0.3,118
2.4,-0.15,113
2.4,0.0,104
2.4,0.15,119
2.4,0.3,137
2.4,0.45,147
2.4,0.6,132
2.4,0.75,116
2.4,0.9,83
2.4,1.05,96
2.4,1.2,164
2.4,1.35,168
2.4,1.5,171
2.55,-1.5,97
2.55,-1.35,103
2.55,-1.2,111
2.55,-1.05,122
2.55,-0.9,129
2.55,-0.75,126
2.55,-0.6,115
2.55,-0.45,116
2.55,-0.3,109
2.55,-0.15,113
2.55,0.0,119
2.55,0.15,142
2.55,0.3,149
2.55,0.45,154
2.55,0.6,131
2.55,0.75,108
2.55,0.9,86
2.55,1.05,115
2.55,1.2,216
2.55,1.35,230
2.55,1.5,242
2.7,-1.5,100
2.7,-1.35,106
2.7,-1.2,111
2.7,-1.05,116
2.7,-0.9,121
2.7,-0.75,114
2.7,-0.6,111
2.7,-0.45,110
2.7,-0.3,108
2.7,-0.15,119
2.7,0.0,113
2.7,0.15,113
2.7,0.3,139
2.7,0.45,153
2.7,0.6,132
2.7,0.75,123
2.7,0.9,160
2.7,1.05,158
2.7,1.2,141
2.7,1.35,131
2.7,1.5,119
2.85,-1.5,102
2.85,-1.35,108
2.85,-1.2,112
2.85,-1.05,113
2.85,-0.9,113
2.85,-0.75,111
2.85,-0.6,112
2.85,-0.45,107
2.85,-0.3,113
2.85,-0.15,113
2.85,0.0,113
2.85,0.15,117
2.85,0.3,133
2.85,0.45,126
2.85,0.6,110
2.85,0.75,117
2.85,0.9,196
2.85,1.05,181
2.85,1.2,108
2.85,1.35,88
2.85,1.5,67
3.0,-1.5,108
3.0,-1.35,112
3.0,-1.2,113
3.0,-1.05,112
3.0,-0.9,111
3.0,-0.75,111
3.0,-0.6,113
3.0,-0.45,97
3.0,-0.3,117
3.0,-0.15,113
3.0,0.0,112
3.0,0.15,111
3.0,0.3,104
3.0,0.45,105
3.0,0.6,130
3.0,0.75,151
3.0,0.9,157
3.0,1.05,151
3.0,1.2,131
3.0,1.35,116
3.0,1.5,98
3.15,-1.5,108
3.15,-1.35,112
3.15,-1.2,113
3.15,-1.05,111
3.15,-0.9,117
3.15,-0.75,113
3.15,-0.6,111
3.15,-0.45,99
3.15,-0.3,118
3.15,-0.15,111
3.15,0.0,124
3.15,0.15,93
3.15,0.3,64
3.15,0.45,88
3.15,0.6,145
3.15,0.75,171
3.15,0.9,135
3.15,1.05,134
3.15,1.2,141
3.15,1.35,128
3.15,1.5,112
3.3,-1.5,107
3.3,-1.35,109
3.3,-1.2,112
3.3,-1.05,115
3.3,-0.9,123
3.3,-0.75,114
3.3,-0.6,114
3.3,-0.45,118
3.3,-0.3,111
3.3,-0.15,112
3.3,0.0,114
3.3,0.15,81
3.3,0.3,63
3.3,0.45,92
3.3,0.6,121
3.3,0.75,131
3.3,0.9,148
3.3,1.05,148
3.3,1.2,148
3.3,1.35,144
3.3,1.5,137
3.45,-1.5,107
3.45,-1.35,107
3.45,-1.2,110
3.45,-1.05,118
3.45,-0.9,109
3.45,-0.75,93
3.45,-0.6,118
3.45,-0.45,114
3.45,-0.3,114
3.45,-0.15,111
3.45,0.0,115
3.45,0.15,114
3.45,0.3,101
3.45,0.45,124
3.45,0.6,125
3.45,0.75,121
3.45,0.9,148
3.45,1.05,148
3.45,1.2,147
3.45,1.35,147
3.45,1.5,146
3.6,-1.5,107
3.6,-1.35,107
3.6,-1.2,107
3.6,-1.05,111
3.6,-0.9,111
3.6,-0.75,118
3.6,-0.6,118
3.6,-0.45,100
3.6,-0.3,123
3.6,-0.15,112
3.6,0.0,111
3.6,0.15,122
3.6,0.3,109
3.6,0.45,130
3.6,0.6,131
3.6,0.75,131
3.6,0.9,121
3.6,1.05,120
3.6,1.2,144
3.6,1.35,149
3.6,1.5,154
3.75,-1.5,107
3.75,-1.35,107
3.75,-1.2,104
3.75,-1.05,100
3.75,-0.9,113
3.75,-0.75,120
3.75,-0.6,91
3.75,-0.45,111
3.75,-0.3,114
3.75,-0.15,114
3.75,0.0,113
3.75,0.15,114
3.75,0.3,122
3.75,0.45,124
3.75,0.6,126
3.75,0.75,122
3.75,0.9,104
3.75,1.05,108
3.75,1.2,144
3.75,1.35,154
3.75,1.5,162
3.9,-1.5,95
3.9,-1.35,107
3.9,-1.2,103
3.9,-1.05,95
3.9,-0.9,124
3.9,-0.75,101
3.9,-0.6,76
3.9,-0.45,125
3.9,-0.3,111
3.9,-0.15,111
3.9,0.0,116
3.9,0.15,115
3.9,0.3,132
3.9,0.45,128
3.9,0.6,109
3.9,0.75,105
3.9,0.9,114
3.9,1.05,116
3.9,1.2,119
3.9,1.35,121
3.9,1.5,124
4.05,-1.5,73
4.05,-1.35,101
4.05,-1.2,113
4.05,-1.05,105
4.05,-0.9,131
4.05,-0.75,127
4.05,-0.6,125
4.05,-0.45,122
4.05,-0.3,125
4.05,-0.15,116
4.05,0.0,113
4.05,0.15,115
4.05,0.3,132
4.05,0.45,132
4.05,0.6,108
4.05,0.75,107
4.05,0.9,134
4.05,1.05,129
4.05,1.2,101
4.05,1.35,96
4.05,1.5,93
4.2,-1.5,80
4.2,-1.35,105
4.2,-1.2,117
4.2,-1.05,121
4.2,-0.9,121
4.2,-0.75,129
4.2,-0.6,109
4.2,-0.45,109
4.2,-0.3,115
4.2,-0.15,111
4.2,0.0,111
4.2,0.15,121
4.2,0.3,131
4.2,0.45,129
4.2,0.6,168
4.2,0.75,174
4.2,0.9,133
4.2,1.05,117
4.2,1.2,100
4.2,1.35,94
4.2,1.5,90
4.35,-1.5,84
4.35,-1.35,105
4.35,-1.2,99
4.35,-1.05,123
4.35,-0.9,104
4.35,-0.75,75
4.35,-0.6,111
4.35,-0.45,121
4.35,-0.3,111
4.35,-0.15,114
4.35,0.0,126
4.35,0.15,111
4.35,0.3,123
4.35,0.45,119
4.35,0.6,211
4.35,0.75,220
4.35,0.9,130
4.35,1.05,107
4.35,1.2,99
4.35,1.35,92
4.35,1.5,86
4.5,-1.5,23
4.5,-1.35,59
4.5,-1.2,109
4.5,-1.05,151
4.5,-0.9,149
4.5,-0.75,123
4.5,-0.6,121
4.5,-0.45,116
4.5,-0.3,138
4.5,-0.15,111
4.5,0.0,127
4.5,0.15,139
4.5,0.3,139
4.5,0.45,109
4.5,0.6,189
4.5,0.75,212
4.5,0.9,186
4.5,1.05,153
4.5,1.2,94
4.5,1.35,80
4.5,1.5,66
4.65,-1.5,0
4.65,-1.35,29
4.65,-1.2,102
4.65,-1.05,124
4.65,-0.9,137
4.65,-0.75,129
4.65,-0.6,113
4.65,-0.45,127
4.65,-0.3,121
4.65,-0.15,115
4.65,0.0,120
4.65,0.15,159
4.65,0.3,98
4.65,0.45,84
4.65,0.6,156
4.65,0.75,187
4.65,0.9,209
4.65,1.05,179
4.65,1.2,91
4.65,1.35,72
4.65,1.5,52
4.8,-1.5,36
4.8,-1.35,58
4.8,-1.2,91
4.8,-1.05,108
4.8,-0.9,158
4.8,-0.75,148
4.8,-0.6,116
4.8,-0.45,113
4.8,-0.3,127
4.8,-0.15,110
4.8,0.0,109
4.8,0.15,117
4.8,0.3,104
4.8,0.45,89
4.8,0.6,114
4.8,0.75,139
4.8,0.9,183
4.8,1.05,181
4.8,1.2,150
4.8,1.35,147
4.8,1.5,142
4.95,-1.5,75
4.95,-1.35,80
4.95,-1.2,94
4.95,-1.05,114
4.95,-0.9,159
4.95,-0.75,133
4.95,-0.6,123
4.95,-0.45,110
4.95,-0.3,108
4.95,-0.15,108
4.95,0.0,110
4.95,0.15,110
4.95,0.3,108
4.95,0.45,94
4.95,0.6,93
4.95,0.75,107
4.95,0.9,159
4.95,1.05,177
4.95,1.2,189
4.95,1.35,201
4.95,1.5,211
5.1,-1.5,109
5.1,-1.35,106
5.1,-1.2,113
5.1,-1.05,113
5.1,-0.9,89
5.1,-0.75,59
5.1,-0.6,131
5.1,-0.45,113
5.1,-0.3,110
5.1,-0.15,112
5.1,0.0,108
5.1,0.15,108
5.1,0.3,110
5.1,0.45,93
5.1,0.6,94
5.1,0.75,94
5.1,0.9,109
5.1,1.05,132
5.1,1.2,175
5.1,1.35,189
5.1,1.5,201
5.25,-1.5,153
5.25,-1.35,139
5.25,-1.2,117
5.25,-1.05,103
5.25,-0.9,88
5.25,-0.75,66
5.25,-0.6,100
5.25,-0.45,109
5.25,-0.3,114
5.25,-0.15,119
5.25,0.0,128
5.25,0.15,112
5.25,0.3,112
5.25,0.45,105
5.25,0.6,95
5.25,0.75,84
5.25,0.9,76
5.25,1.05,96
5.25,1.2,164
5.25,1.35,179
5.25,1.5,192
5.4,-1.5,164
5.4,-1.35,153
5.4,-1.2,135
5.4,-1.05,119
5.4,-0.9,113
5.4,-0.75,110
5.4,-0.6,101
5.4,-0.45,124
5.4,-0.3,113
5.4,-0.15,115
5.4,0.0,121
5.4,0.15,112
5.4,0.3,111
5.4,0.45,102
5.4,0.6,94
5.4,0.75,86
5.4,0.9,76
5.4,1.05,82
5.4,1.2,105
5.4,1.35,111
5.4,1.5,116
5.55,-1.5,180
5.55,-1.35,171
5.55,-1.2,160
5.55,-1.05,143
5.55,-0.9,118
5.55,-0.75,113
5.55,-0.6,127
5.55,-0.45,106
5.55,-0.3,114
5.55,-0.15,110
5.55,0.0,116
5.55,0.15,114
5.55,0.3,102
5.55,0.45,88
5.55,0.6,92
5.55,0.75,91
5.55,0.9,85
5.55,1.05,72
5.55,1.2,53
5.55,1.35,49
5.55,1.5,46
5.7,-1.5,190
5.7,-1.35,183
5.7,-1.2,172
5.7,-1.05,155
5.7,-0.9,129
5.7,-0.75,113
5.7,-0.6,127
5.7,-0.45,112
5.7,-0.3,110
5.7,-0.15,107
5.7,0.0,112
5.7,0.15,101
5.7,0.3,97
5.7,0.45,81
5.7,0.6,90
5.7,0.75,90
5.7,0.9,82
5.7,1.05,75
5.7,1.2,65
5.7,1.35,63
5.7,1.5,61
5.85,-1.5,190
5.85,-1.35,182
5.85,-1.2,169
5.85,-1.05,146
5.85,-0.9,113
5.85,-0.75,128
5.85,-0.6,191
5.85,-0.45,116
5.85,-0.3,117
5.85,-0.15,97
5.85,0.0,115
5.85,0.15,93
5.85,0.3,84
5.85,0.45,76
5.85,0.6,90
5.85,0.75,90
5.85,0.9,81
5.85,1.05,80
5.85,1.2,74
5.85,1.35,70
5.85,1.5,66
6.0,-1.5,167
6.0,-1.35,166
6.0,-1.2,152
6.0,-1.05,132
6.0,-0.9,106
6.0,-0.75,106
6.0,-0.6,136
6.0,-0.45,97
6.0,-0.3,97
6.0,-0.15,125
6.0,0.0,102
6.0,0.15,115
6.0,0.3,98
6.0,0.45,74
6.0,0.6,73
6.0,0.75,72
6.0,0.9,88
6.0,1.05,88
6.0,1.2,82
6.0,1.35,79
6.0,1.5,75
6.15,-1.5,120
6.15,-1.35,133
6.15,-1.2,111
6.15,-1.05,118
6.15,-0.9,118
6.15,-0.75,109
6.15,-0.6,92
6.15,-0.45,124
6.15,-0.3,116
6.15,-0.15,110
6.15,0.0,110
6.15,0.15,115
6.15,0.3,115
6.15,0.45,82
6.15,0.6,63
6.15,0.75,62
6.15,0.9,88
6.15,1.05,88
6.15,1.2,88
6.15,1.35,88
6.15,1.5,87
6.3,-1.5,119
6.3,-1.35,119
6.3,-1.2,83
6.3,-1.05,71
6.3,-0.9,106
6.3,-0.75,109
6.3,-0.6,104
6.3,-0.45,111
6.3,-0.3,113
6.3,-0.15,110
6.3,0.0,109
6.3,0.15,114
6.3,0.3,107
6.3,0.45,91
6.3,0.6,87
6.3,0.75,86
6.3,0.9,88
6.3,1.05,78
6.3,1.2,69
6.3,1.35,61
6.3,1.5,53
6.45,-1.5,168
6.45,-1.35,148
6.45,-1.2,108
6.45,-1.05,53
6.45,-0.9,46
6.45,-0.75,89
6.45,-0.6,89
6.45,-0.45,110
6.45,-0.3,113
6.45,-0.15,111
6.45,0.0,116
6.45,0.15,109
6.45,0.3,94
6.45,0.45,119
6.45,0.6,113
6.45,0.75,100
6.45,0.9,82
6.45,1.05,60
6.45,1.2,39
6.45,1.35,24
6.45,1.5,11
6.6,-1.5,155
6.6,-1.35,139
6.6,-1.2,93
6.6,-1.05,43
6.6,-0.9,22
6.6,-0.75,110
6.6,-0.6,94
6.6,-0.45,140
6.6,-0.3,114
6.6,-0.15,109
6.6,0.0,109
6.6,0.15,121
6.6,0.3,116
6.6,0.45,130
6.6,0.6,126
6.6,0.75,106
6.6,0.9,72
6.6,1.05,46
6.6,1.2,23
6.6,1.35,5
6.6,1.5,0
6.75,-1.5,128
6.75,-1.35,122
6.75,-1.2,78
6.75,-1.05,73
6.75,-0.9,68
6.75,-0.75,82
6.75,-0.6,122
6.75,-0.45,103
6.75,-0.3,116
6.75,-0.15,113
6.75,0.0,114
6.75,0.15,109
6.75,0.3,121
6.75,0.45,126
6.75,0.6,119
6.75,0.75,98
6.75,0.9,53
6.75,1.05,28
6.75,1.2,6
6.75,1.35,0
6.75,1.5,0
6.9,-1.5,79
6.9,-1.35,90
6.9,-1.2,91
6.9,-1.05,104
6.9,-0.9,110
6.9,-0.75,95
6.9,-0.6,102
6.9,-0.45,117
6.9,-0.3,112
6.9,-0.15,114
6.9,0.0,109
6.9,0.15,109
6.9,0.3,115
6.9,0.45,108
6.9,0.6,91
6.9,0.75,77
6.9,0.9,53
6.9,1.05,36
6.9,1.2,20
6.9,1.35,3
6.9,1.5,0
7.05,-1.5,27
7.05,-1.35,54
7.05,-1.2,84
7.05,-1.05,102
7.05,-0.9,108
7.05,-0.75,110
7.05,-0.6,118
7.05,-0.45,120
7.05,-0.3,114
7.05,-0.15,114
7.05,0.0,113
7.05,0.15,115
7.05,0.3,115
7.05,0.45,107
7.05,0.6,94
7.05,0.75,77
7.05,0.9,59
7.05,1.05,55
7.05,1.2,50
7.05,1.35,39
7.05,1.5,28
7.2,-1.5,35
7.2,-1.35,53
7.2,-1.2,76
7.2,-1.05,93
7.2,-0.9,105
7.2,-0.75,107
7.2,-0.6,127
7.2,-0.45,110
7.2,-0.3,110
7.2,-0.15,110
7.2,0.0,111
7.2,0.15,112
7.2,0.3,109
7.2,0.45,104
7.2,0.6,96
7.2,0.75,83
7.2,0.9,65
7.2,1.05,60
7.2,1.2,55
7.2,1.35,44
7.2,1.5,33
7.35,-1.5,37
7.35,-1.35,50
7.35,-1.2,80
7.35,-1.05,94
7.35,-0.9,113
7.35,-0.75,113
7.35,-0.6,134
7.35,-0.45,118
7.35,-0.3,110
7.35,-0.15,112
7.35,0.0,110
7.35,0.15,111
7.35,0.3,110
7.35,0.45,110
7.35,0.6,106
7.35,0.75,100
7.35,0.9,84
7.35,1.05,72
7.35,1.2,59
7.35,1.35,47
7.35,1.5,36
7.5,-1.5,63
7.5,-1.35,70
7.5,-1.2,94
7.5,-1.05,108
7.5,-0.9,112
7.5,-0.75,76
7.5,-0.6,116
7.5,-0.45,110
7.5,-0.3,112
7.5,-0.15,112
7.5,0.0,112
7.5,0.15,107
7.5,0.3,107
7.5,0.45,114
7.5,0.6,115
7.5,0.75,112
7.5,0.9,96
7.5,1.05,81
7.5,1.2,62
7.5,1.35,51
7.5,1.5,40
7.65,-1.5,131
7.65,-1.35,116
7.65,-1.2,104
7.65,-1.05,119
7.65,-0.9,119
7.65,-0.75,96
7.65,-0.6,79
7.65,-0.45,116
7.65,-0.3,110
7.65,-0.15,109
7.65,0.0,112
7.65,0.15,121
7.65,0.3,107
7.65,0.45,117
7.65,0.6,124
7.65,0.75,120
7.65,0.9,106
7.65,1.05,87
7.65,1.2,61
7.65,1.35,50
7.65,1.5,40
7.8,-1.5,184
7.8,-1.35,162
7.8,-1.2,130
7.8,-1.05,117
7.8,-0.9,115
7.8,-0.75,108
7.8,-0.6,103
7.8,-0.45,116
7.8,-0.3,116
7.8,-0.15,97
7.8,0.0,105
7.8,0.15,107
7.8,0.3,109
7.8,0.45,124
7.8,0.6,123
7.8,0.75,116
7.8,0.9,102
7.8,1.05,92
7.8,1.2,86
7.8,1.35,82
7.8,1.5,77
7.95,-1.5,240
7.95,-1.35,213
7.95,-1.2,183
7.95,-1.05,143
7.95,-0.9,110
7.95,-0.75,115
7.95,-0.6,109
7.95,-0.45,111
7.95,-0.3,107
7.95,-0.15,105
7.95,0.0,116
7.95,0.15,112
7.95,0.3,112
7.95,0.45,113
7.95,0.6,110
7.95,0.75,104
7.95,0.9,93
7.95,1.05,109
7.95,1.2,156
7.95,1.35,167
7.95,1.5,176
8.1,-1.5,240
8.1,-1.35,221
8.1,-1.2,199
8.1,-1.05,143
8.1,-0.9,90
8.1,-0.75,115
8.1,-0.6,115
8.1,-0.45,115
8.1,-0.3,105
8.1,-0.15,111
8.1,0.0,113
8.1,0.15,122
8.1,0.3,111
8.1,0.45,93
8.1,0.6,94
8.1,0.75,95
8.1,0.9,102
8.1,1.05,127
8.1,1.2,179
8.1,1.35,193
8.1,1.5,206
8.25,-1.5,162
8.25,-1.35,169
8.25,-1.2,168
8.25,-1.05,136
8.25,-0.9,105
8.25,-0.75,115
8.25,-0.6,112
8.25,-0.45,114
8.25,-0.3,114
8.25,-0.15,112
8.25,0.0,111
8.25,0.15,113
8.25,0.3,102
8.25,0.45,82
8.25,0.6,83
8.25,0.75,101
8.25,0.9,161
8.25,1.05,187
8.25,1.2,219
8.25,1.35,242
8.25,1.5,255
8.4,-1.5,112
8.4,-1.35,119
8.4,-1.2,128
8.4,-1.05,126
8.4,-0.9,126
8.4,-0.75,112
8.4,-0.6,112
8.4,-0.45,114
8.4,-0.3,114
8.4,-0.15,118
8.4,0.0,135
8.4,0.15,126
8.4,0.3,102
8.4,0.45,81
8.4,0.6,77
8.4,0.75,108
8.4,0.9,183
8.4,1.05,207
8.4,1.2,236
8.4,1.35,255
8.4,1.5,255
8.55,-1.5,81
8.55,-1.35,86
8.55,-1.2,97
8.55,-1.05,101
8.55,-0.9,108
8.55,-0.75,116
8.55,-0.6,116
8.55,-0.45,114
8.55,-0.3,117
8.55,-0.15,139
8.55,0.0,240
8.55,0.15,165
8.55,0.3,103
8.55,0.45,93
8.55,0.6,101
8.55,0.75,143
8.55,0.9,212
8.55,1.05,231
8.55,1.2,243
8.55,1.35,255
8.55,1.5,255
8.7,-1.5,80
8.7,-1.35,85
8.7,-1.2,93
8.7,-1.05,95
8.7,-0.9,95
8.7,-0.75,103
8.7,-0.6,116
8.7,-0.45,114
8.7,-0.3,115
8.7,-0.15,110
8.7,0.0,117
8.7,0.15,113
8.7,0.3,159
8.7,0.45,181
8.7,0.6,172
8.7,0.75,203
8.7,0.9,232
8.7,1.05,242
8.7,1.2,238
8.7,1.35,255
8.7,1.5,255
8.85,-1.5,90
8.85,-1.35,95
8.85,-1.2,98
8.85,-1.05,102
8.85,-0.9,111
8.85,-0.75,112
8.85,-0.6,108
8.85,-0.45,128
8.85,-0.3,109
8.85,-0.15,128
8.85,0.0,110
8.85,0.15,122
8.85,0.3,165
8.85,0.45,239
8.85,0.6,255
8.85,0.75,255
8.85,0.9,235
8.85,1.05,219
8.85,1.2,196
8.85,1.35,200
8.85,1.5,214
9.0,-1.5,92
9.0,-1.35,97
9.0,-1.2,104
9.0,-1.05,110
9.0,-0.9,113
9.0,-0.75,113
9.0,-0.6,114
9.0,-0.45,97
9.0,-0.3,101
9.0,-0.15,106
9.0,0.0,79
9.0,0.15,91
9.0,0.3,132
9.0,0.45,201
9.0,0.6,253
9.0,0.75,255
9.0,0.9,229
9.0,1.05,213
9.0,1.2,196
9.0,1.35,203
9.0,1.5,221
9.15,-1.5,94
9.15,-1.35,99
9.15,-1.2,105
9.15,-1.05,109
9.15,-0.9,108
9.15,-0.75,110
9.15,-0.6,115
9.15,-0.45,113
9.15,-0.3,112
9.15,-0.15,107
9.15,0.0,102
9.15,0.15,111
9.15,0.3,130
9.15,0.45,155
9.15,0.6,180
9.15,0.75,191
9.15,0.9,179
9.15,1.05,196
9.15,1.2,232
9.15,1.35,255
9.15,1.5,255
9.3,-1.5,98
9.3,-1.35,102
9.3,-1.2,99
9.3,-1.05,105
9.3,-0.9,115
9.3,-0.75,115
9.3,-0.6,115
9.3,-0.45,112
9.3,-0.3,112
9.3,-0.15,114
9.3,0.0,108
9.3,0.15,112
9.3,0.3,123
9.3,0.45,134
9.3,0.6,147
9.3,0.75,149
9.3,0.9,145
9.3,1.05,168
9.3,1.2,209
9.3,1.35,242
9.3,1.5,255
9.45,-1.5,116
9.45,-1.35,114
9.45,-1.2,99
9.45,-1.05,102
9.45,-0.9,110
9.45,-0.75,109
9.45,-0.6,112
9.45,-0.45,122
9.45,-0.3,114
9.45,-0.15,107
9.45,0.0,98
9.45,0.15,115
9.45,0.3,119
9.45,0.45,110
9.45,0.6,106
9.45,0.75,107
9.45,0.9,113
9.45,1.05,138
9.45,1.2,172
9.45,1.35,196
9.45,1.5,221
9.6,-1.5,119
9.6,-1.35,115
9.6,-1.2,99
9.6,-1.05,99
9.6,-0.9,104
9.6,-0.75,118
9.6,-0.6,110
9.6,-0.45,113
9.6,-0.3,111
9.6,-0.15,100
9.6,0.0,103
9.6,0.15,116
9.6,0.3,118
9.6,0.45,96
9.6,0.6,80
9.6,0.75,82
9.6,0.9,95
9.6,1.05,123
9.6,1.2,159
9.6,1.35,183
9.6,1.5,207
9.75,-1.5,102
9.75,-1.35,102
9.75,-1.2,102
9.75,-1.05,102
9.75,-0.9,106
9.75,-0.75,116
9.75,-0.6,119
9.75,-0.45,133
9.75,-0.3,122
9.75,-0.15,104
9.75,0.0,109
9.75,0.15,110
9.75,0.3,108
9.75,0.45,81
9.75,0.6,66
9.75,0.75,72
9.75,0.9,95
9.75,1.05,121
9.75,1.2,151
9.75,1.35,174
9.75,1.5,197
9.9,-1.5,102
9.9,-1.35,103
9.9,-1.2,108
9.9,-1.05,108
9.9,-0.9,109
9.9,-0.75,110
9.9,-0.6,106
9.9,-0.45,119
9.9,-0.3,113
9.9,-0.15,121
9.9,0.0,104
9.9,0.15,104
9.9,0.3,126
9.9,0.45,94
9.9,0.6,79
9.9,0.75,82
9.9,0.9,100
9.9,1.05,122
9.9,1.2,143
9.9,1.35,163
9.9,1.5,182
10.05,-1.5,117
10.05,-1.35,116
10.05,-1.2,115
10.05,-1.05,113
10.05,-0.9,115
10.05,-0.75,115
10.05,-0.6,101
10.05,-0.45,110
10.05,-0.3,112
10.05,-0.15,119
10.05,0.0,110
10.05,0.15,104
10.05,0.3,114
10.05,0.45,109
10.05,0.6,110
10.05,0.75,106
10.05,0.9,109
10.05,1.05,124
10.05,1.2,131
10.05,1.35,140
10.05,1.5,147
10.2,-1.5,123
10.2,-1.35,121
10.2,-1.2,119
10.2,-1.05,116
10.2,-0.9,117
10.2,-0.75,114
10.2,-0.6,113
10.2,-0.45,110
10.2,-0.3,116
10.2,-0.15,119
10.2,0.0,115
10.2,0.15,110
10.2,0.3,107
10.2,0.45,107
10.2,0.6,119
10.2,0.75,119
10.2,0.9,117
10.2,1.05,127
10.2,1.2,130
10.2,1.35,135
10.2,1.5,139
10.35,-1.5,123
10.35,-1.35,122
10.35,-1.2,121
10.35,-1.05,120
10.35,-0.9,119
10.35,-0.75,113
10.35,-0.6,113
10.35,-0.45,116
10.35,-0.3,107
10.35,-0.15,107
10.35,0.0,109
10.35,0.15,110
10.35,0.3,106
10.35,0.45,101
10.35,0.6,102
10.35,0.75,106
10.35,0.9,133
10.35,1.05,136
10.35,1.2,132
10.35,1.35,138
10.35,1.5,142
10.5,-1.5,124
10.5,-1.35,123
10.5,-1.2,121
10.5,-1.05,122
10.5,-0.9,120
10.5,-0.75,118
10.5,-0.6,127
10.5,-0.45,134
10.5,-0.3,109
10.5,-0.15,102
10.5,0.0,111
10.5,0.15,113
10.5,0.3,108
10.5,0.45,100
10.5,0.6,94
10.5,0.75,94
10.5,0.9,134
10.5,1.05,139
10.5,1.2,135
10.5,1.35,141
10.5,1.5,146
10.65,-1.5,136
10.65,-1.35,128
10.65,-1.2,122
10.65,-1.05,119
10.65,-0.9,116
10.65,-0.75,111
10.65,-0.6,115
10.65,-0.45,121
10.65,-0.3,111
10.65,-0.15,108
10.65,0.0,114
10.65,0.15,115
10.65,0.3,111
10.65,0.45,103
10.65,0.6,94
10.65,0.75,94
10.65,0.9,103
10.65,1.05,121
10.65,1.2,156
10.65,1.35,165
10.65,1.5,172
10.8,-1.5,145
10.8,-1.35,132
10.8,-1.2,120
10.8,-1.05,116
10.8,-0.9,112
10.8,-0.75,109
10.8,-0.6,109
10.8,-0.45,114
10.8,-0.3,112
10.8,-0.15,113
10.8,0.0,116
10.8,0.15,116
10.8,0.3,113
10.8,0.45,107
10.8,0.6,100
10.8,0.75,94
10.8,0.9,94
10.8,1.05,114
10.8,1.2,162
10.8,1.35,173
10.8,1.5,182
10.95,-1.5,155
10.95,-1.35,135
10.95,-1.2,120
10.95,-1.05,112
10.95,-0.9,111
10.95,-0.75,109
10.95,-0.6,116
10.95,-0.45,116
10.95,-0.3,116
10.95,-0.15,116
10.95,0.0,116
10.95,0.15,116
10.95,0.3,115
10.95,0.45,112
10.95,0.6,107
10.95,0.75,101
10.95,0.9,94
10.95,1.05,98
10.95,1.2,115
10.95,1.35,117
10.95,1.5,118
11.1,-1.5,165
11.1,-1.35,139
11.1,-1.2,119
11.1,-1.05,105
11.1,-0.9,112
11.1,-0.75,109
11.1,-0.6,116
11.1,-0.45,116
11.1,-0.3,115
11.1,-0.15,114
11.1,0.0,116
11.1,0.15,116
11.1,0.3,116
11.1,0.45,116
11.1,0.6,114
11.1,0.75,108
11.1,0.9,97
11.1,1.05,94
11.1,1.2,94
11.1,1.35,91
11.1,1.5,89
11.25,-1.5,184
11.25,-1.35,157
11.25,-1.2,130
11.25,-1.05,105
11.25,-0.9,103
11.25,-0.75,106
11.25,-0.6,107
11.25,-0.45,110
11.25,-0.3,114
11.25,-0.15,114
11.25,0.0,116
11.25,0.15,116
11.25,0.3,116
11.25,0.45,116
11.25,0.6,116
11.25,0.75,115
11.25,0.9,109
11.25,1.05,100
11.25,1.2,88
11.25,1.35,82
11.25,1.5,76
11.4,-1.5,199
11.4,-1.35,176
11.4,-1.2,148
11.4,-1.05,113
11.4,-0.9,92
11.4,-0.75,103
11.4,-0.6,116
11.4,-0.45,110
11.4,-0.3,120
11.4,-0.15,116
11.4,0.0,116
11.4,0.15,116
11.4,0.3,116
11.4,0.45,116
11.4,0.6,116
11.4,0.75,116
11.4,0.9,116
11.4,1.05,104
11.4,1.2,84
11.4,1.35,77
11.4,1.5,70
11.55,-1.5,200
11.55,-1.35,187
11.55,-1.2,167
11.55,-1.05,133
11.55,-0.9,95
11.55,-0.75,89
11.55,-0.6,124
11.55,-0.45,131
11.55,-0.3,111
11.55,-0.15,109
11.55,0.0,114
11.55,0.15,116
11.55,0.3,115
11.55,0.45,113
11.55,0.6,116
11.55,0.75,116
11.55,0.9,115
11.55,1.05,104
11.55,1.2,86
11.55,1.35,79
11.55,1.5,71
11.7,-1.5,197
11.7,-1.35,192
11.7,-1.2,181
11.7,-1.05,157
11.7,-0.9,114
11.7,-0.75,96
11.7,-0.6,121
11.7,-0.45,143
11.7,-0.3,126
11.7,-0.15,104
11.7,0.0,106
11.7,0.15,111
11.7,0.3,103
11.7,0.45,103
11.7,0.6,116
11.7,0.75,116
11.7,0.9,113
11.7,1.05,104
11.7,1.2,88
11.7,1.35,80
11.7,1.5,73
11.85,-1.5,180
11.85,-1.35,178
11.85,-1.2,171
11.85,-1.05,150
11.85,-0.9,125
11.85,-0.75,115
11.85,-0.6,121
11.85,-0.45,132
11.85,-0.3,124
11.85,-0.15,104
11.85,0.0,97
11.85,0.15,99
11.85,0.3,104
11.85,0.45,105
11.85,0.6,115
11.85,0.75,116
11.85,0.9,116
11.85,1.05,112
11.85,1.2,103
11.85,1.35,98
11.85,1.5,94
12.0,-1.5,151
12.0,-1.35,146
12.0,-1.2,138
12.0,-1.05,120
12.0,-0.9,107
12.0,-0.75,106
12.0,-0.6,115
12.0,-0.45,118
12.0,-0.3,114
12.0,-0.15,109
12.0,0.0,99
12.0,0.15,100
12.0,0.3,114
12.0,0.45,115
12.0,0.6,113
12.0,0.75,116
12.0,0.9,116
12.0,1.05,116
12.0,1.2,112
12.0,1.35,110
12.0,1.5,108
12.15,-1.5,148
12.15,-1.35,129
12.15,-1.2,107
12.15,-1.05,90
12.15,-0.9,95
12.15,-0.75,104
12.15,-0.6,111
12.15,-0.45,114
12.15,-0.3,116
12.15,-0.15,116
12.15,0.0,111
12.15,0.15,110
12.15,0.3,115
12.15,0.45,115
12.15,0.6,111
12.15,0.75,111
12.15,0.9,113
12.15,1.05,114
12.15,1.2,114
12.15,1.35,113
12.15,1.5,112
12.3,-1.5,145
12.3,-1.35,119
12.3,-1.2,93
12.3,-1.05,79
12.3,-0.9,97
12.3,-0.75,111
12.3,-0.6,116
12.3,-0.45,120
12.3,-0.3,124
12.3,-0.15,123
12.3,0.0,118
12.3,0.15,114
12.3,0.3,114
12.3,0.45,114
12.3,0.6,111
12.3,0.75,111
12.3,0.9,111
12.3,1.05,112
12.3,1.2,114
12.3,1.35,114
12.3,1.5,114
12.45,-1.5,122
12.45,-1.35,102
12.45,-1.2,91
12.45,-1.05,91
12.45,-0.9,99
12.45,-0.75,108
12.45,-0.6,116
12.45,-0.45,124
12.45,-0.3,129
12.45,-0.15,124
12.45,0.0,116
12.45,0.15,111
12.45,0.3,110
12.45,0.45,111
12.45,0.6,111
12.45,0.75,111
12.45,0.9,111
12.45,1.05,111
12.45,1.2,112
12.45,1.35,112
12.45,1.5,112
12.6,-1.5,109
12.6,-1.35,94
12.6,-1.2,95
12.6,-1.05,101
12.6,-0.9,98
12.6,-0.75,102
12.6,-0.6,110
12.6,-0.45,118
12.6,-0.3,121
12.6,-0.15,114
12.6,0.0,109
12.6,0.15,108
12.6,0.3,109
12.6,0.45,111
12.6,0.6,112
12.6,0.75,112
12.6,0.9,113
12.6,1.05,112
12.6,1.2,112
12.6,1.35,112
12.6,1.5,112
12.75,-1.5,108
12.75,-1.35,100
12.75,-1.2,100
12.75,-1.05,101
12.75,-0.9,96
12.75,-0.75,96
12.75,-0.6,99
12.75,-0.45,103
12.75,-0.3,103
12.75,-0.15,100
12.75,0.0,101
12.75,0.15,105
12.75,0.3,110
12.75,0.45,114
12.75,0.6,114
12.75,0.75,114
12.75,0.9,114
12.75,1.05,113
12.75,1.2,112
12.75,1.35,112
12.75,1.5,112
12.9,-1.5,108
12.9,-1.35,106
12.9,-1.2,102
12.9,-1.05,96
12.9,-0.9,94
12.9,-0.75,92
12.9,-0.6,88
12.9,-0.45,90
12.9,-0.3,91
12.9,-0.15,92
12.9,0.0,98
12.9,0.15,106
12.9,0.3,113
12.9,0.45,117
12.9,0.6,116
12.9,0.75,116
12.9,0.9,115
12.9,1.05,114
12.9,1.2,113
12.9,1.35,112
12.9,1.5,112
13.05,-1.5,108
13.05,-1.35,107
13.05,-1.2,99
13.05,-1.05,90
13.05,-0.9,88
13.05,-0.75,86
13.05,-0.6,80
13.05,-0.45,81
13.05,-0.3,84
13.05,-0.15,88
13.05,0.0,97
13.05,0.15,106
13.05,0.3,115
13.05,0.45,120
13.05,0.6,119
13.05,0.75,118
13.05,0.9,116
13.05,1.05,115
13.05,1.2,114
13.05,1.35,112
13.05,1.5,112
