-3.0,-1.5,168
-3.0,-1.35,169
-3.0,-1.2,170
-3.0,-1.05,172
-3.0,-0.9,174
-3.0,-0.75,176
-3.0,-0.6,178
-3.0,-0.45,179
-3.0,-0.3,179
-3.0,-0.15,177
-3.0,0.0,174
-3.0,0.15,172
-3.0,0.3,171
-3.0,0.45,170
-3.0,0.6,170
-3.0,0.75,170
-3.0,0.9,170
-3.0,1.05,170
-3.0,1.2,170
-3.0,1.35,170
-3.0,1.5,170
-2.85,-1.5,167
-2.85,-1.35,167
-2.85,-1.2,168
-2.85,-1.05,169
-2.85,-0.9,171
-2.85,-0.75,173
-2.85,-0.6,175
-2.85,-0.45,177
-2.85,-0.3,178
-2.85,-0.15,176
-2.85,0.0,172
-2.85,0.15,170
-2.85,0.3,170
-2.85,0.45,170
-2.85,0.6,170
-2.85,0.75,170
-2.85,0.9,170
-2.85,1.05,170
-2.85,1.2,170
-2.85,1.35,170
-2.85,1.5,170
-2.7,-1.5,166
-2.7,-1.35,166
-2.7,-1.2,165
-2.7,-1.05,166
-2.7,-0.9,167
-2.7,-0.75,169
-2.7,-0.6,172
-2.7,-0.45,175
-2.7,-0.3,176
-2.7,-0.15,174
-2.7,0.0,170
-2.7,0.15,170
-2.7,0.3,170
-2.7,0.45,170
-2.7,0.6,170
-2.7,0.75,170
-2.7,0.9,170
-2.7,1.05,170
-2.7,1.2,170
-2.7,1.35,170
-2.7,1.5,170
-2.55,-1.5,165
-2.55,-1.35,164
-2.55,-1.2,164
-2.55,-1.05,164
-2.55,-0.9,165
-2.55,-0.75,166
-2.55,-0.6,168
-2.55,-0.45,171
-2.55,-0.3,173
-2.55,-0.15,172
-2.55,0.0,170
-2.55,0.15,170
-2.55,0.3,170
-2.55,0.45,170
-2.55,0.6,170
-2.55,0.75,170
-2.55,0.9,170
-2.55,1.05,170
-2.55,1.2,170
-2.55,1.35,170
-2.55,1.5,170
-2.4,-1.5,164
-2.4,-1.35,164
-2.4,-1.2,164
-2.4,-1.05,164
-2.4,-0.9,164
-2.4,-0.75,164
-2.4,-0.6,165
-2.4,-0.45,167
-2.4,-0.3,170
-2.4,-0.15,171
-2.4,0.0,170
-2.4,0.15,170
-2.4,0.3,170
-2.4,0.45,170
-2.4,0.6,170
-2.4,0.75,170
-2.4,0.9,170
-2.4,1.05,170
-2.4,1.2,170
-2.4,1.35,170
-2.4,1.5,170
-2.25,-1.5,164
-2.25,-1.35,164
-2.25,-1.2,164
-2.25,-1.05,164
-2.25,-0.9,164
-2.25,-0.75,164
-2.25,-0.6,164
-2.25,-0.45,166
-2.25,-0.3,169
-2.25,-0.15,171
-2.25,0.0,171
-2.25,0.15,170
-2.25,0.3,170
-2.25,0.45,170
-2.25,0.6,170
-2.25,0.75,170
-2.25,0.9,170
-2.25,1.05,170
-2.25,1.2,170
-2.25,1.35,170
-2.25,1.5,170
-2.1,-1.5,164
-2.1,-1.35,164
-2.1,-1.2,164
-2.1,-1.05,164
-2.1,-0.9,164
-2.1,-0.75,164
-2.1,-0.6,165
-2.1,-0.45,168
-2.1,-0.3,170
-2.1,-0.15,171
-2.1,0.0,171
-2.1,0.15,170
-2.1,0.3,170
-2.1,0.45,170
-2.1,0.6,170
-2.1,0.75,170
-2.1,0.9,170
-2.1,1.05,170
-2.1,1.2,170
-2.1,1.35,170
-2.1,1.5,170
-1.95,-1.5,164
-1.95,-1.35,164
-1.95,-1.2,165
-1.95,-1.05,165
-1.95,-0.9,165
-1.95,-0.75,165
-1.95,-0.6,167
-1.95,-0.45,170
-1.95,-0.3,170
-1.95,-0.15,171
-1.95,0.0,171
-1.95,0.15,171
-1.95,0.3,170
-1.95,0.45,170
-1.95,0.6,170
-1.95,0.75,170
-1.95,0.9,170
-1.95,1.05,170
-1.95,1.2,170
-1.95,1.35,170
-1.95,1.5,170
-1.8,-1.5,162
-1.8,-1.35,163
-1.8,-1.2,164
-1.8,-1.05,167
-1.8,-0.9,169
-1.8,-0.75,169
-1.8,-0.6,169
-1.8,-0.45,170
-1.8,-0.3,170
-1.8,-0.15,171
-1.8,0.0,171
-1.8,0.15,171
-1.8,0.3,170
-1.8,0.45,170
-1.8,0.6,170
-1.8,0.75,170
-1.8,0.9,170
-1.8,1.05,170
-1.8,1.2,170
-1.8,1.35,170
-1.8,1.5,170
-1.65,-1.5,162
-1.65,-1.35,163
-1.65,-1.2,165
-1.65,-1.05,168
-1.65,-0.9,170
-1.65,-0.75,170
-1.65,-0.6,170
-1.65,-0.45,169
-1.65,-0.3,169
-1.65,-0.15,170
-1.65,0.0,171
-1.65,0.15,171
-1.65,0.3,170
-1.65,0.45,170
-1.65,0.6,170
-1.65,0.75,170
-1.65,0.9,170
-1.65,1.05,170
-1.65,1.2,170
-1.65,1.35,170
-1.65,1.5,170
-1.5,-1.5,162
-1.5,-1.35,165
-1.5,-1.2,169
-1.5,-1.05,170
-1.5,-0.9,170
-1.5,-0.75,169
-1.5,-0.6,169
-1.5,-0.45,169
-1.5,-0.3,169
-1.5,-0.15,169
-1.5,0.0,171
-1.5,0.15,171
-1.5,0.3,170
-1.5,0.45,170
-1.5,0.6,170
-1.5,0.75,171
-1.5,0.9,170
-1.5,1.05,170
-1.5,1.2,170
-1.5,1.35,170
-1.5,1.5,170
-1.35,-1.5,165
-1.35,-1.35,167
-1.35,-1.2,170
-1.35,-1.05,170
-1.35,-0.9,170
-1.35,-0.75,169
-1.35,-0.6,169
-1.35,-0.45,169
-1.35,-0.3,169
-1.35,-0.15,169
-1.35,0.0,171
-1.35,0.15,171
-1.35,0.3,170
-1.35,0.45,170
-1.35,0.6,171
-1.35,0.75,173
-1.35,0.9,172
-1.35,1.05,170
-1.35,1.2,170
-1.35,1.35,170
-1.35,1.5,170
-1.2,-1.5,170
-1.2,-1.35,170
-1.2,-1.2,170
-1.2,-1.05,170
-1.2,-0.9,170
-1.2,-0.75,170
-1.2,-0.6,169
-1.2,-0.45,169
-1.2,-0.3,169
-1.2,-0.15,169
-1.2,0.0,172
-1.2,0.15,175
-1.2,0.3,170
-1.2,0.45,170
-1.2,0.6,171
-1.2,0.75,173
-1.2,0.9,173
-1.2,1.05,171
-1.2,1.2,170
-1.2,1.35,170
-1.2,1.5,170
-1.05,-1.5,169
-1.05,-1.35,169
-1.05,-1.2,170
-1.05,-1.05,170
-1.05,-0.9,170
-1.05,-0.75,169
-1.05,-0.6,169
-1.05,-0.45,169
-1.05,-0.3,169
-1.05,-0.15,169
-1.05,0.0,176
-1.05,0.15,183
-1.05,0.3,177
-1.05,0.45,174
-1.05,0.6,172
-1.05,0.75,172
-1.05,0.9,173
-1.05,1.05,170
-1.05,1.2,170
-1.05,1.35,170
-1.05,1.5,170
-0.9,-1.5,169
-0.9,-1.35,169
-0.9,-1.2,169
-0.9,-1.05,169
-0.9,-0.9,169
-0.9,-0.75,169
-0.9,-0.6,169
-0.9,-0.45,169
-0.9,-0.3,169
-0.9,-0.15,169
-0.9,0.0,175
-0.9,0.15,185
-0.9,0.3,188
-0.9,0.45,185
-0.9,0.6,177
-0.9,0.75,172
-0.9,0.9,173
-0.9,1.05,170
-0.9,1.2,170
-0.9,1.35,170
-0.9,1.5,170
-0.75,-1.5,169
-0.75,-1.35,169
-0.75,-1.2,169
-0.75,-1.05,169
-0.75,-0.9,169
-0.75,-0.75,169
-0.75,-0.6,169
-0.75,-0.45,169
-0.75,-0.3,169
-0.75,-0.15,169
-0.75,0.0,169
-0.75,0.15,177
-0.75,0.3,189
-0.75,0.45,186
-0.75,0.6,179
-0.75,0.75,174
-0.75,0.9,171
-0.75,1.05,170
-0.75,1.2,170
-0.75,1.35,170
-0.75,1.5,170
-0.6,-1.5,169
-0.6,-1.35,169
-0.6,-1.2,169
-0.6,-1.05,169
-0.6,-0.9,169
-0.6,-0.75,169
-0.6,-0.6,169
-0.6,-0.45,169
-0.6,-0.3,169
-0.6,-0.15,169
-0.6,0.0,169
-0.6,0.15,169
-0.6,0.3,172
-0.6,0.45,172
-0.6,0.6,172
-0.6,0.75,172
-0.6,0.9,170
-0.6,1.05,171
-0.6,1.2,171
-0.6,1.35,170
-0.6,1.5,170
-0.45,-1.5,169
-0.45,-1.35,169
-0.45,-1.2,169
-0.45,-1.05,169
-0.45,-0.9,169
-0.45,-0.75,169
-0.45,-0.6,169
-0.45,-0.45,169
-0.45,-0.3,169
-0.45,-0.15,169
-0.45,0.0,172
-0.45,0.15,172
-0.45,0.3,172
-0.45,0.45,172
-0.45,0.6,169
-0.45,0.75,169
-0.45,0.9,171
-0.45,1.05,171
-0.45,1.2,171
-0.45,1.35,170
-0.45,1.5,170
-0.3,-1.5,169
-0.3,-1.35,169
-0.3,-1.2,169
-0.3,-1.05,169
-0.3,-0.9,169
-0.3,-0.75,170
-0.3,-0.6,171
-0.3,-0.45,171
-0.3,-0.3,170
-0.3,-0.15,170
-0.3,0.0,172
-0.3,0.15,172
-0.3,0.3,172
-0.3,0.45,170
-0.3,0.6,169
-0.3,0.75,169
-0.3,0.9,171
-0.3,1.05,170
-0.3,1.2,170
-0.3,1.35,170
-0.3,1.5,170
-0.15,-1.5,169
-0.15,-1.35,169
-0.15,-1.2,169
-0.15,-1.05,169
-0.15,-0.9,170
-0.15,-0.75,170
-0.15,-0.6,171
-0.15,-0.45,171
-0.15,-0.3,170
-0.15,-0.15,169
-0.15,0.0,169
-0.15,0.15,169
-0.15,0.3,170
-0.15,0.45,169
-0.15,0.6,170
-0.15,0.75,174
-0.15,0.9,175
-0.15,1.05,171
-0.15,1.2,170
-0.15,1.35,170
-0.15,1.5,170
0.0,-1.5,170
0.0,-1.35,170
0.0,-1.2,169
0.0,-1.05,170
0.0,-0.9,171
0.0,-0.75,171
0.0,-0.6,171
0.0,-0.45,171
0.0,-0.3,171
0.0,-0.15,169
0.0,0.0,169
0.0,0.15,169
0.0,0.3,169
0.0,0.45,169
0.0,0.6,171
0.0,0.75,177
0.0,0.9,179
0.0,1.05,173
0.0,1.2,171
0.0,1.35,170
0.0,1.5,170
0.15,-1.5,172
0.15,-1.35,171
0.15,-1.2,170
0.15,-1.05,170
0.15,-0.9,171
0.15,-0.75,171
0.15,-0.6,171
0.15,-0.45,171
0.15,-0.3,171
0.15,-0.15,171
0.15,0.0,171
0.15,0.15,169
0.15,0.3,169
0.15,0.45,170
0.15,0.6,173
0.15,0.75,178
0.15,0.9,180
0.15,1.05,175
0.15,1.2,173
0.15,1.35,172
0.15,1.5,172
0.3,-1.5,173
0.3,-1.35,173
0.3,-1.2,173
0.3,-1.05,171
0.3,-0.9,170
0.3,-0.75,170
0.3,-0.6,170
0.3,-0.45,170
0.3,-0.3,171
0.3,-0.15,171
0.3,0.0,171
0.3,0.15,170
0.3,0.3,169
0.3,0.45,169
0.3,0.6,172
0.3,0.75,178
0.3,0.9,180
0.3,1.05,177
0.3,1.2,176
0.3,1.35,175
0.3,1.5,173
0.45,-1.5,176
0.45,-1.35,175
0.45,-1.2,174
0.45,-1.05,172
0.45,-0.9,170
0.45,-0.75,169
0.45,-0.6,169
0.45,-0.45,169
0.45,-0.3,169
0.45,-0.15,169
0.45,0.0,170
0.45,0.15,170
0.45,0.3,169
0.45,0.45,169
0.45,0.6,172
0.45,0.75,178
0.45,0.9,182
0.45,1.05,182
0.45,1.2,179
0.45,1.35,176
0.45,1.5,174
0.6,-1.5,176
0.6,-1.35,176
0.6,-1.2,174
0.6,-1.05,173
0.6,-0.9,172
0.6,-0.75,169
0.6,-0.6,169
0.6,-0.45,169
0.6,-0.3,169
0.6,-0.15,169
0.6,0.0,170
0.6,0.15,170
0.6,0.3,170
0.6,0.45,169
0.6,0.6,170
0.6,0.75,175
0.6,0.9,181
0.6,1.05,186
0.6,1.2,180
0.6,1.35,175
0.6,1.5,172
0.75,-1.5,176
0.75,-1.35,176
0.75,-1.2,176
0.75,-1.05,174
0.75,-0.9,173
0.75,-0.75,171
0.75,-0.6,170
0.75,-0.45,169
0.75,-0.3,170
0.75,-0.15,170
0.75,0.0,169
0.75,0.15,170
0.75,0.3,170
0.75,0.45,170
0.75,0.6,169
0.75,0.75,171
0.75,0.9,178
0.75,1.05,182
0.75,1.2,174
0.75,1.35,169
0.75,1.5,165
0.9,-1.5,176
0.9,-1.35,176
0.9,-1.2,176
0.9,-1.05,175
0.9,-0.9,173
0.9,-0.75,173
0.9,-0.6,173
0.9,-0.45,173
0.9,-0.3,173
0.9,-0.15,170
0.9,0.0,169
0.9,0.15,169
0.9,0.3,169
0.9,0.45,170
0.9,0.6,169
0.9,0.75,171
0.9,0.9,176
0.9,1.05,178
0.9,1.2,170
0.9,1.35,164
0.9,1.5,159
1.05,-1.5,176
1.05,-1.35,176
1.05,-1.2,176
1.05,-1.05,176
1.05,-0.9,175
1.05,-0.75,173
1.05,-0.6,174
1.05,-0.45,174
1.05,-0.3,174
1.05,-0.15,173
1.05,0.0,171
1.05,0.15,171
1.05,0.3,169
1.05,0.45,169
1.05,0.6,169
1.05,0.75,172
1.05,0.9,173
1.05,1.05,171
1.05,1.2,166
1.05,1.35,161
1.05,1.5,156
1.2,-1.5,176
1.2,-1.35,176
1.2,-1.2,176
1.2,-1.05,176
1.2,-0.9,176
1.2,-0.75,174
1.2,-0.6,174
1.2,-0.45,174
1.2,-0.3,174
1.2,-0.15,174
1.2,0.0,171
1.2,0.15,169
1.2,0.3,171
1.2,0.45,169
1.2,0.6,169
1.2,0.75,172
1.2,0.9,172
1.2,1.05,168
1.2,1.2,164
1.2,1.35,159
1.2,1.5,155
1.35,-1.5,176
1.35,-1.35,176
1.35,-1.2,176
1.35,-1.05,176
1.35,-0.9,176
1.35,-0.75,176
1.35,-0.6,174
1.35,-0.45,171
1.35,-0.3,171
1.35,-0.15,171
1.35,0.0,169
1.35,0.15,169
1.35,0.3,169
1.35,0.45,172
1.35,0.6,172
1.35,0.75,172
1.35,0.9,171
1.35,1.05,166
1.35,1.2,162
1.35,1.35,158
1.35,1.5,154
1.5,-1.5,176
1.5,-1.35,176
1.5,-1.2,176
1.5,-1.05,176
1.5,-0.9,176
1.5,-0.75,174
1.5,-0.6,171
1.5,-0.45,169
1.5,-0.3,169
1.5,-0.15,169
1.5,0.0,171
1.5,0.15,171
1.5,0.3,170
1.5,0.45,169
1.5,0.6,169
1.5,0.75,169
1.5,0.9,171
1.5,1.05,169
1.5,1.2,166
1.5,1.35,164
1.5,1.5,162
1.65,-1.5,176
1.65,-1.35,175
1.65,-1.2,175
1.65,-1.05,176
1.65,-0.9,176
1.65,-0.75,173
1.65,-0.6,170
1.65,-0.45,169
1.65,-0.3,170
1.65,-0.15,169
1.65,0.0,169
1.65,0.15,170
1.65,0.3,171
1.65,0.45,170
1.65,0.6,169
1.65,0.75,170
1.65,0.9,171
1.65,1.05,171
1.65,1.2,170
1.65,1.35,169
1.65,1.5,168
1.8,-1.5,176
1.8,-1.35,176
1.8,-1.2,175
1.8,-1.05,175
1.8,-0.9,174
1.8,-0.75,172
1.8,-0.6,171
1.8,-0.45,171
1.8,-0.3,171
1.8,-0.15,171
1.8,0.0,169
1.8,0.15,171
1.8,0.3,170
1.8,0.45,169
1.8,0.6,169
1.8,0.75,169
1.8,0.9,171
1.8,1.05,171
1.8,1.2,171
1.8,1.35,171
1.8,1.5,171
1.95,-1.5,176
1.95,-1.35,175
1.95,-1.2,174
1.95,-1.05,173
1.95,-0.9,172
1.95,-0.75,172
1.95,-0.6,171
1.95,-0.45,171
1.95,-0.3,170
1.95,-0.15,169
1.95,0.0,169
1.95,0.15,171
1.95,0.3,171
1.95,0.45,169
1.95,0.6,170
1.95,0.75,169
1.95,0.9,169
1.95,1.05,171
1.95,1.2,171
1.95,1.35,171
1.95,1.5,171
2.1,-1.5,176
2.1,-1.35,175
2.1,-1.2,173
2.1,-1.05,170
2.1,-0.9,169
2.1,-0.75,170
2.1,-0.6,170
2.1,-0.45,170
2.1,-0.3,169
2.1,-0.15,168
2.1,0.0,171
2.1,0.15,169
2.1,0.3,170
2.1,0.45,171
2.1,0.6,165
2.1,0.75,170
2.1,0.9,169
2.1,1.05,169
2.1,1.2,170
2.1,1.35,171
2.1,1.5,171
2.25,-1.5,197
2.25,-1.35,185
2.25,-1.2,152
2.25,-1.05,161
2.25,-0.9,167
2.25,-0.75,168
2.25,-0.6,168
2.25,-0.45,168
2.25,-0.3,168
2.25,-0.15,168
2.25,0.0,168
2.25,0.15,169
2.25,0.3,171
2.25,0.45,159
2.25,0.6,164
2.25,0.75,173
2.25,0.9,171
2.25,1.05,170
2.25,1.2,169
2.25,1.35,170
2.25,1.5,171
2.4,-1.5,238
2.4,-1.35,206
2.4,-1.2,116
2.4,-1.05,146
2.4,-0.9,167
2.4,-0.75,167
2.4,-0.6,167
2.4,-0.45,168
2.4,-0.3,169
2.4,-0.15,169
2.4,0.0,169
2.4,0.15,168
2.4,0.3,169
2.4,0.45,167
2.4,0.6,178
2.4,0.75,180
2.4,0.9,174
2.4,1.05,172
2.4,1.2,164
2.4,1.35,162
2.4,1.5,164
2.55,-1.5,222
2.55,-1.35,205
2.55,-1.2,164
2.55,-1.05,153
2.55,-0.9,150
2.55,-0.75,163
2.55,-0.6,166
2.55,-0.45,168
2.55,-0.3,169
2.55,-0.15,169
2.55,0.0,168
2.55,0.15,170
2.55,0.3,169
2.55,0.45,171
2.55,0.6,185
2.55,0.75,178
2.55,0.9,169
2.55,1.05,161
2.55,1.2,152
2.55,1.35,148
2.55,1.5,148
2.7,-1.5,211
2.7,-1.35,205
2.7,-1.2,198
2.7,-1.05,160
2.7,-0.9,140
2.7,-0.75,161
2.7,-0.6,166
2.7,-0.45,168
2.7,-0.3,169
2.7,-0.15,169
2.7,0.0,169
2.7,0.15,170
2.7,0.3,170
2.7,0.45,169
2.7,0.6,164
2.7,0.75,167
2.7,0.9,167
2.7,1.05,158
2.7,1.2,152
2.7,1.35,148
2.7,1.5,148
2.85,-1.5,228
2.85,-1.35,219
2.85,-1.2,203
2.85,-1.05,197
2.85,-0.9,188
2.85,-0.75,154
2.85,-0.6,162
2.85,-0.45,169
2.85,-0.3,171
2.85,-0.15,169
2.85,0.0,169
2.85,0.15,170
2.85,0.3,164
2.85,0.45,164
2.85,0.6,164
2.85,0.75,165
2.85,0.9,164
2.85,1.05,167
2.85,1.2,161
2.85,1.35,154
2.85,1.5,148
3.0,-1.5,255
3.0,-1.35,255
3.0,-1.2,202
3.0,-1.05,203
3.0,-0.9,203
3.0,-0.75,159
3.0,-0.6,165
3.0,-0.45,171
3.0,-0.3,170
3.0,-0.15,169
3.0,0.0,170
3.0,0.15,169
3.0,0.3,170
3.0,0.45,170
3.0,0.6,170
3.0,0.75,164
3.0,0.9,164
3.0,1.05,174
3.0,1.2,164
3.0,1.35,155
3.0,1.5,148
3.15,-1.5,255
3.15,-1.35,255
3.15,-1.2,192
3.15,-1.05,195
3.15,-0.9,201
3.15,-0.75,191
3.15,-0.6,183
3.15,-0.45,176
3.15,-0.3,169
3.15,-0.15,172
3.15,0.0,171
3.15,0.15,168
3.15,0.3,168
3.15,0.45,170
3.15,0.6,170
3.15,0.75,166
3.15,0.9,168
3.15,1.05,183
3.15,1.2,160
3.15,1.35,147
3.15,1.5,140
3.3,-1.5,239
3.3,-1.35,229
3.3,-1.2,229
3.3,-1.05,211
3.3,-0.9,201
3.3,-0.75,200
3.3,-0.6,180
3.3,-0.45,162
3.3,-0.3,172
3.3,-0.15,169
3.3,0.0,168
3.3,0.15,172
3.3,0.3,169
3.3,0.45,168
3.3,0.6,166
3.3,0.75,169
3.3,0.9,171
3.3,1.05,176
3.3,1.2,168
3.3,1.35,164
3.3,1.5,163
3.45,-1.5,0
3.45,-1.35,0
3.45,-1.2,250
3.45,-1.05,219
3.45,-0.9,197
3.45,-0.75,208
3.45,-0.6,182
3.45,-0.45,155
3.45,-0.3,166
3.45,-0.15,180
3.45,0.0,172
3.45,0.15,168
3.45,0.3,168
3.45,0.45,170
3.45,0.6,171
3.45,0.75,166
3.45,0.9,167
3.45,1.05,168
3.45,1.2,174
3.45,1.35,180
3.45,1.5,185
3.6,-1.5,30
3.6,-1.35,45
3.6,-1.2,56
3.6,-1.05,164
3.6,-0.9,226
3.6,-0.75,233
3.6,-0.6,194
3.6,-0.45,176
3.6,-0.3,168
3.6,-0.15,169
3.6,0.0,169
3.6,0.15,172
3.6,0.3,168
3.6,0.45,168
3.6,0.6,171
3.6,0.75,171
3.6,0.9,168
3.6,1.05,155
3.6,1.2,172
3.6,1.35,184
3.6,1.5,192
3.75,-1.5,78
3.75,-1.35,60
3.75,-1.2,2
3.75,-1.05,105
3.75,-0.9,186
3.75,-0.75,226
3.75,-0.6,193
3.75,-0.45,180
3.75,-0.3,171
3.75,-0.15,168
3.75,0.0,168
3.75,0.15,168
3.75,0.3,171
3.75,0.45,171
3.75,0.6,171
3.75,0.75,166
3.75,0.9,167
3.75,1.05,162
3.75,1.2,170
3.75,1.35,177
3.75,1.5,182
3.9,-1.5,74
3.9,-1.35,69
3.9,-1.2,62
3.9,-1.05,2
3.9,-0.9,0
3.9,-0.75,141
3.9,-0.6,156
3.9,-0.45,172
3.9,-0.3,168
3.9,-0.15,168
3.9,0.0,170
3.9,0.15,171
3.9,0.3,170
3.9,0.45,169
3.9,0.6,157
3.9,0.75,164
3.9,0.9,171
3.9,1.05,171
3.9,1.2,165
3.9,1.35,157
3.9,1.5,151
4.05,-1.5,42
4.05,-1.35,36
4.05,-1.2,14
4.05,-1.05,0
4.05,-0.9,0
4.05,-0.75,67
4.05,-0.6,120
4.05,-0.45,165
4.05,-0.3,171
4.05,-0.15,171
4.05,0.0,169
4.05,0.15,170
4.05,0.3,171
4.05,0.45,169
4.05,0.6,169
4.05,0.75,169
4.05,0.9,171
4.05,1.05,171
4.05,1.2,171
4.05,1.35,167
4.05,1.5,163
4.2,-1.5,3
4.2,-1.35,0
4.2,-1.2,0
4.2,-1.05,0
4.2,-0.9,2
4.2,-0.75,0
4.2,-0.6,88
4.2,-0.45,155
4.2,-0.3,171
4.2,-0.15,169
4.2,0.0,170
4.2,0.15,170
4.2,0.3,172
4.2,0.45,169
4.2,0.6,169
4.2,0.75,169
4.2,0.9,169
4.2,1.05,170
4.2,1.2,171
4.2,1.35,171
4.2,1.5,171
4.35,-1.5,163
4.35,-1.35,157
4.35,-1.2,129
4.35,-1.05,54
4.35,-0.9,0
4.35,-0.75,22
4.35,-0.6,184
4.35,-0.45,255
4.35,-0.3,198
4.35,-0.15,173
4.35,0.0,172
4.35,0.15,169
4.35,0.3,169
4.35,0.45,172
4.35,0.6,172
4.35,0.75,171
4.35,0.9,171
4.35,1.05,171
4.35,1.2,170
4.35,1.35,169
4.35,1.5,169
4.5,-1.5,253
4.5,-1.35,251
4.5,-1.2,241
4.5,-1.05,112
4.5,-0.9,25
4.5,-0.75,66
4.5,-0.6,158
4.5,-0.45,171
4.5,-0.3,118
4.5,-0.15,168
4.5,0.0,169
4.5,0.15,172
4.5,0.3,172
4.5,0.45,169
4.5,0.6,169
4.5,0.75,169
4.5,0.9,169
4.5,1.05,171
4.5,1.2,169
4.5,1.35,169
4.5,1.5,169
4.65,-1.5,253
4.65,-1.35,252
4.65,-1.2,246
4.65,-1.05,154
4.65,-0.9,93
4.65,-0.75,116
4.65,-0.6,144
4.65,-0.45,164
4.65,-0.3,171
4.65,-0.15,171
4.65,0.0,172
4.65,0.15,169
4.65,0.3,169
4.65,0.45,169
4.65,0.6,170
4.65,0.75,170
4.65,0.9,169
4.65,1.05,169
4.65,1.2,169
4.65,1.35,169
4.65,1.5,169
4.8,-1.5,253
4.8,-1.35,253
4.8,-1.2,250
4.8,-1.05,194
4.8,-0.9,161
4.8,-0.75,168
4.8,-0.6,173
4.8,-0.45,162
4.8,-0.3,170
4.8,-0.15,169
4.8,0.0,169
4.8,0.15,170
4.8,0.3,169
4.8,0.45,171
4.8,0.6,169
4.8,0.75,169
4.8,0.9,169
4.8,1.05,169
4.8,1.2,169
4.8,1.35,169
4.8,1.5,169
4.95,-1.5,253
4.95,-1.35,252
4.95,-1.2,255
4.95,-1.05,240
4.95,-0.9,222
4.95,-0.75,201
4.95,-0.6,176
4.95,-0.45,161
4.95,-0.3,160
4.95,-0.15,163
4.95,0.0,170
4.95,0.15,169
4.95,0.3,169
4.95,0.45,171
4.95,0.6,171
4.95,0.75,169
4.95,0.9,169
4.95,1.05,169
4.95,1.2,169
4.95,1.35,169
4.95,1.5,169
5.1,-1.5,253
5.1,-1.35,252
5.1,-1.2,249
5.1,-1.05,237
5.1,-0.9,220
5.1,-0.75,188
5.1,-0.6,148
5.1,-0.45,139
5.1,-0.3,165
5.1,-0.15,165
5.1,0.0,173
5.1,0.15,169
5.1,0.3,171
5.1,0.45,169
5.1,0.6,171
5.1,0.75,169
5.1,0.9,169
5.1,1.05,169
5.1,1.2,169
5.1,1.35,170
5.1,1.5,170
5.25,-1.5,253
5.25,-1.35,249
5.25,-1.2,239
5.25,-1.05,230
5.25,-0.9,215
5.25,-0.75,181
5.25,-0.6,157
5.25,-0.45,162
5.25,-0.3,164
5.25,-0.15,165
5.25,0.0,173
5.25,0.15,169
5.25,0.3,171
5.25,0.45,169
5.25,0.6,170
5.25,0.75,171
5.25,0.9,171
5.25,1.05,171
5.25,1.2,170
5.25,1.35,171
5.25,1.5,171
5.4,-1.5,249
5.4,-1.35,242
5.4,-1.2,232
5.4,-1.05,193
5.4,-0.9,168
5.4,-0.75,168
5.4,-0.6,171
5.4,-0.45,170
5.4,-0.3,179
5.4,-0.15,173
5.4,0.0,183
5.4,0.15,174
5.4,0.3,169
5.4,0.45,169
5.4,0.6,171
5.4,0.75,171
5.4,0.9,171
5.4,1.05,171
5.4,1.2,171
5.4,1.35,171
5.4,1.5,171
5.55,-1.5,241
5.55,-1.35,233
5.55,-1.2,219
5.55,-1.05,180
5.55,-0.9,165
5.55,-0.75,167
5.55,-0.6,170
5.55,-0.45,172
5.55,-0.3,179
5.55,-0.15,171
5.55,0.0,170
5.55,0.15,169
5.55,0.3,169
5.55,0.45,171
5.55,0.6,169
5.55,0.75,170
5.55,0.9,171
5.55,1.05,171
5.55,1.2,171
5.55,1.35,171
5.55,1.5,171
5.7,-1.5,231
5.7,-1.35,218
5.7,-1.2,190
5.7,-1.05,172
5.7,-0.9,165
5.7,-0.75,168
5.7,-0.6,170
5.7,-0.45,169
5.7,-0.3,161
5.7,-0.15,179
5.7,0.0,184
5.7,0.15,169
5.7,0.3,169
5.7,0.45,169
5.7,0.6,169
5.7,0.75,169
5.7,0.9,170
5.7,1.05,171
5.7,1.2,171
5.7,1.35,171
5.7,1.5,171
5.85,-1.5,183
5.85,-1.35,181
5.85,-1.2,169
5.85,-1.05,165
5.85,-0.9,163
5.85,-0.75,165
5.85,-0.6,168
5.85,-0.45,169
5.85,-0.3,182
5.85,-0.15,203
5.85,0.0,188
5.85,0.15,169
5.85,0.3,169
5.85,0.45,169
5.85,0.6,169
5.85,0.75,170
5.85,0.9,168
5.85,1.05,171
5.85,1.2,171
5.85,1.35,170
5.85,1.5,171
6.0,-1.5,125
6.0,-1.35,138
6.0,-1.2,147
6.0,-1.05,156
6.0,-0.9,159
6.0,-0.75,162
6.0,-0.6,168
6.0,-0.45,173
6.0,-0.3,155
6.0,-0.15,169
6.0,0.0,178
6.0,0.15,168
6.0,0.3,168
6.0,0.45,168
6.0,0.6,168
6.0,0.75,171
6.0,0.9,171
6.0,1.05,166
6.0,1.2,166
6.0,1.35,165
6.0,1.5,165
6.15,-1.5,144
6.15,-1.35,150
6.15,-1.2,155
6.15,-1.05,159
6.15,-0.9,161
6.15,-0.75,165
6.15,-0.6,170
6.15,-0.45,174
6.15,-0.3,165
6.15,-0.15,169
6.15,0.0,167
6.15,0.15,172
6.15,0.3,172
6.15,0.45,168
6.15,0.6,170
6.15,0.75,171
6.15,0.9,171
6.15,1.05,169
6.15,1.2,164
6.15,1.35,162
6.15,1.5,163
6.3,-1.5,153
6.3,-1.35,156
6.3,-1.2,159
6.3,-1.05,162
6.3,-0.9,166
6.3,-0.75,168
6.3,-0.6,171
6.3,-0.45,172
6.3,-0.3,218
6.3,-0.15,147
6.3,0.0,171
6.3,0.15,171
6.3,0.3,168
6.3,0.45,168
6.3,0.6,171
6.3,0.75,169
6.3,0.9,169
6.3,1.05,169
6.3,1.2,159
6.3,1.35,156
6.3,1.5,155
6.45,-1.5,149
6.45,-1.35,153
6.45,-1.2,158
6.45,-1.05,165
6.45,-0.9,169
6.45,-0.75,168
6.45,-0.6,172
6.45,-0.45,171
6.45,-0.3,190
6.45,-0.15,173
6.45,0.0,170
6.45,0.15,171
6.45,0.3,168
6.45,0.45,171
6.45,0.6,168
6.45,0.75,169
6.45,0.9,169
6.45,1.05,161
6.45,1.2,134
6.45,1.35,118
6.45,1.5,108
6.6,-1.5,143
6.6,-1.35,149
6.6,-1.2,157
6.6,-1.05,164
6.6,-0.9,169
6.6,-0.75,170
6.6,-0.6,168
6.6,-0.45,170
6.6,-0.3,175
6.6,-0.15,170
6.6,0.0,170
6.6,0.15,172
6.6,0.3,169
6.6,0.45,169
6.6,0.6,168
6.6,0.75,169
6.6,0.9,167
6.6,1.05,150
6.6,1.2,119
6.6,1.35,102
6.6,1.5,93
6.75,-1.5,132
6.75,-1.35,140
6.75,-1.2,153
6.75,-1.05,159
6.75,-0.9,165
6.75,-0.75,172
6.75,-0.6,168
6.75,-0.45,168
6.75,-0.3,179
6.75,-0.15,172
6.75,0.0,172
6.75,0.15,168
6.75,0.3,170
6.75,0.45,170
6.75,0.6,170
6.75,0.75,155
6.75,0.9,131
6.75,1.05,119
6.75,1.2,113
6.75,1.35,109
6.75,1.5,107
6.9,-1.5,127
6.9,-1.35,135
6.9,-1.2,144
6.9,-1.05,155
6.9,-0.9,163
6.9,-0.75,172
6.9,-0.6,172
6.9,-0.45,170
6.9,-0.3,181
6.9,-0.15,170
6.9,0.0,168
6.9,0.15,170
6.9,0.3,168
6.9,0.45,170
6.9,0.6,169
6.9,0.75,148
6.9,0.9,128
6.9,1.05,121
6.9,1.2,114
6.9,1.35,112
6.9,1.5,113
7.05,-1.5,123
7.05,-1.35,129
7.05,-1.2,133
7.05,-1.05,149
7.05,-0.9,160
7.05,-0.75,172
7.05,-0.6,172
7.05,-0.45,172
7.05,-0.3,190
7.05,-0.15,168
7.05,0.0,171
7.05,0.15,171
7.05,0.3,168
7.05,0.45,170
7.05,0.6,170
7.05,0.75,165
7.05,0.9,145
7.05,1.05,128
7.05,1.2,119
7.05,1.35,116
7.05,1.5,116
7.2,-1.5,150
7.2,-1.35,149
7.2,-1.2,145
7.2,-1.05,145
7.2,-0.9,150
7.2,-0.75,164
7.2,-0.6,165
7.2,-0.45,167
7.2,-0.3,179
7.2,-0.15,171
7.2,0.0,169
7.2,0.15,168
7.2,0.3,169
7.2,0.45,169
7.2,0.6,170
7.2,0.75,170
7.2,0.9,165
7.2,1.05,161
7.2,1.2,120
7.2,1.35,97
7.2,1.5,81
7.35,-1.5,153
7.35,-1.35,153
7.35,-1.2,149
7.35,-1.05,145
7.35,-0.9,145
7.35,-0.75,159
7.35,-0.6,173
7.35,-0.45,183
7.35,-0.3,164
7.35,-0.15,168
7.35,0.0,169
7.35,0.15,168
7.35,0.3,169
7.35,0.45,169
7.35,0.6,171
7.35,0.75,171
7.35,0.9,165
7.35,1.05,162
7.35,1.2,134
7.35,1.35,112
7.35,1.5,94
7.5,-1.5,151
7.5,-1.35,151
7.5,-1.2,153
7.5,-1.05,145
7.5,-0.9,146
7.5,-0.75,174
7.5,-0.6,188
7.5,-0.45,175
7.5,-0.3,163
7.5,-0.15,169
7.5,0.0,168
7.5,0.15,168
7.5,0.3,169
7.5,0.45,171
7.5,0.6,170
7.5,0.75,167
7.5,0.9,165
7.5,1.05,157
7.5,1.2,156
7.5,1.35,153
7.5,1.5,146
7.65,-1.5,151
7.65,-1.35,154
7.65,-1.2,157
7.65,-1.05,149
7.65,-0.9,146
7.65,-0.75,162
7.65,-0.6,173
7.65,-0.45,164
7.65,-0.3,155
7.65,-0.15,169
7.65,0.0,169
7.65,0.15,169
7.65,0.3,172
7.65,0.45,172
7.65,0.6,167
7.65,0.75,172
7.65,0.9,173
7.65,1.05,165
7.65,1.2,161
7.65,1.35,158
7.65,1.5,154
7.8,-1.5,155
7.8,-1.35,158
7.8,-1.2,161
7.8,-1.05,158
7.8,-0.9,155
7.8,-0.75,156
7.8,-0.6,163
7.8,-0.45,173
7.8,-0.3,165
7.8,-0.15,166
7.8,0.0,168
7.8,0.15,169
7.8,0.3,171
7.8,0.45,170
7.8,0.6,174
7.8,0.75,182
7.8,0.9,177
7.8,1.05,163
7.8,1.2,160
7.8,1.35,161
7.8,1.5,160
7.95,-1.5,154
7.95,-1.35,158
7.95,-1.2,161
7.95,-1.05,162
7.95,-0.9,162
7.95,-0.75,162
7.95,-0.6,164
7.95,-0.45,167
7.95,-0.3,173
7.95,-0.15,165
7.95,0.0,179
7.95,0.15,169
7.95,0.3,168
7.95,0.45,174
7.95,0.6,157
7.95,0.75,164
7.95,0.9,167
7.95,1.05,160
7.95,1.2,154
7.95,1.35,150
7.95,1.5,145
8.1,-1.5,153
8.1,-1.35,158
8.1,-1.2,162
8.1,-1.05,167
8.1,-0.9,169
8.1,-0.75,169
8.1,-0.6,166
8.1,-0.45,168
8.1,-0.3,173
8.1,-0.15,169
8.1,0.0,167
8.1,0.15,167
8.1,0.3,174
8.1,0.45,164
8.1,0.6,172
8.1,0.75,172
8.1,0.9,170
8.1,1.05,161
8.1,1.2,153
8.1,1.35,146
8.1,1.5,139
8.25,-1.5,145
8.25,-1.35,154
8.25,-1.2,163
8.25,-1.05,168
8.25,-0.9,169
8.25,-0.75,169
8.25,-0.6,168
8.25,-0.45,173
8.25,-0.3,172
8.25,-0.15,168
8.25,0.0,167
8.25,0.15,170
8.25,0.3,173
8.25,0.45,168
8.25,0.6,168
8.25,0.75,170
8.25,0.9,168
8.25,1.05,165
8.25,1.2,163
8.25,1.35,161
8.25,1.5,160
8.4,-1.5,143
8.4,-1.35,151
8.4,-1.2,159
8.4,-1.05,164
8.4,-0.9,168
8.4,-0.75,169
8.4,-0.6,169
8.4,-0.45,169
8.4,-0.3,173
8.4,-0.15,169
8.4,0.0,168
8.4,0.15,173
8.4,0.3,173
8.4,0.45,170
8.4,0.6,169
8.4,0.75,167
8.4,0.9,165
8.4,1.05,165
8.4,1.2,166
8.4,1.35,166
8.4,1.5,165
8.55,-1.5,143
8.55,-1.35,148
8.55,-1.2,152
8.55,-1.05,159
8.55,-0.9,163
8.55,-0.75,168
8.55,-0.6,170
8.55,-0.45,170
8.55,-0.3,170
8.55,-0.15,168
8.55,0.0,168
8.55,0.15,170
8.55,0.3,169
8.55,0.45,169
8.55,0.6,167
8.55,0.75,168
8.55,0.9,165
8.55,1.05,167
8.55,1.2,163
8.55,1.35,159
8.55,1.5,157
8.7,-1.5,137
8.7,-1.35,144
8.7,-1.2,151
8.7,-1.05,155
8.7,-0.9,162
8.7,-0.75,170
8.7,-0.6,170
8.7,-0.45,168
8.7,-0.3,170
8.7,-0.15,168
8.7,0.0,170
8.7,0.15,170
8.7,0.3,170
8.7,0.45,167
8.7,0.6,167
8.7,0.75,171
8.7,0.9,170
8.7,1.05,170
8.7,1.2,163
8.7,1.35,156
8.7,1.5,149
8.85,-1.5,128
8.85,-1.35,138
8.85,-1.2,152
8.85,-1.05,155
8.85,-0.9,164
8.85,-0.75,168
8.85,-0.6,170
8.85,-0.45,168
8.85,-0.3,169
8.85,-0.15,169
8.85,0.0,170
8.85,0.15,169
8.85,0.3,170
8.85,0.45,167
8.85,0.6,171
8.85,0.75,175
8.85,0.9,175
8.85,1.05,175
8.85,1.2,165
8.85,1.35,154
8.85,1.5,145
9.0,-1.5,139
9.0,-1.35,142
9.0,-1.2,143
9.0,-1.05,156
9.0,-0.9,163
9.0,-0.75,165
9.0,-0.6,167
9.0,-0.45,168
9.0,-0.3,170
9.0,-0.15,169
9.0,0.0,170
9.0,0.15,169
9.0,0.3,170
9.0,0.45,168
9.0,0.6,179
9.0,0.75,191
9.0,0.9,191
9.0,1.05,180
9.0,1.2,169
9.0,1.35,165
9.0,1.5,164
9.15,-1.5,139
9.15,-1.35,141
9.15,-1.2,140
9.15,-1.05,154
9.15,-0.9,162
9.15,-0.75,168
9.15,-0.6,171
9.15,-0.45,170
9.15,-0.3,169
9.15,-0.15,169
9.15,0.0,169
9.15,0.15,169
9.15,0.3,170
9.15,0.45,169
9.15,0.6,172
9.15,0.75,184
9.15,0.9,184
9.15,1.05,174
9.15,1.2,171
9.15,1.35,172
9.15,1.5,175
9.3,-1.5,122
9.3,-1.35,131
9.3,-1.2,140
9.3,-1.05,147
9.3,-0.9,157
9.3,-0.75,167
9.3,-0.6,171
9.3,-0.45,171
9.3,-0.3,169
9.3,-0.15,169
9.3,0.0,169
9.3,0.15,170
9.3,0.3,170
9.3,0.45,169
9.3,0.6,169
9.3,0.75,170
9.3,0.9,170
9.3,1.05,174
9.3,1.2,180
9.3,1.35,184
9.3,1.5,189
9.45,-1.5,124
9.45,-1.35,131
9.45,-1.2,139
9.45,-1.05,149
9.45,-0.9,159
9.45,-0.75,166
9.45,-0.6,169
9.45,-0.45,168
9.45,-0.3,171
9.45,-0.15,180
9.45,0.0,169
9.45,0.15,169
9.45,0.3,171
9.45,0.45,170
9.45,0.6,170
9.45,0.75,169
9.45,0.9,169
9.45,1.05,172
9.45,1.2,181
9.45,1.35,189
9.45,1.5,196
9.6,-1.5,130
9.6,-1.35,134
9.6,-1.2,136
9.6,-1.05,151
9.6,-0.9,161
9.6,-0.75,165
9.6,-0.6,169
9.6,-0.45,168
9.6,-0.3,168
9.6,-0.15,168
9.6,0.0,169
9.6,0.15,169
9.6,0.3,169
9.6,0.45,171
9.6,0.6,171
9.6,0.75,169
9.6,0.9,169
9.6,1.05,175
9.6,1.2,186
9.6,1.35,199
9.6,1.5,211
9.75,-1.5,151
9.75,-1.35,149
9.75,-1.2,148
9.75,-1.05,148
9.75,-0.9,151
9.75,-0.75,158
9.75,-0.6,168
9.75,-0.45,169
9.75,-0.3,168
9.75,-0.15,170
9.75,0.0,168
9.75,0.15,171
9.75,0.3,171
9.75,0.45,170
9.75,0.6,171
9.75,0.75,169
9.75,0.9,169
9.75,1.05,174
9.75,1.2,175
9.75,1.35,178
9.75,1.5,182
9.9,-1.5,170
9.9,-1.35,162
9.9,-1.2,156
9.9,-1.05,148
9.9,-0.9,148
9.9,-0.75,150
9.9,-0.6,160
9.9,-0.45,170
9.9,-0.3,168
9.9,-0.15,170
9.9,0.0,168
9.9,0.15,168
9.9,0.3,171
9.9,0.45,168
9.9,0.6,171
9.9,0.75,168
9.9,0.9,168
9.9,1.05,168
9.9,1.2,168
9.9,1.35,168
9.9,1.5,168
10.05,-1.5,190
10.05,-1.35,178
10.05,-1.2,165
10.05,-1.05,149
10.05,-0.9,148
10.05,-0.75,152
10.05,-0.6,164
10.05,-0.45,170
10.05,-0.3,170
10.05,-0.15,170
10.05,0.0,171
10.05,0.15,171
10.05,0.3,168
10.05,0.45,168
10.05,0.6,170
10.05,0.75,168
10.05,0.9,168
10.05,1.05,168
10.05,1.2,170
10.05,1.35,174
10.05,1.5,178
10.2,-1.5,191
10.2,-1.35,181
10.2,-1.2,170
10.2,-1.05,155
10.2,-0.9,151
10.2,-0.75,161
10.2,-0.6,172
10.2,-0.45,169
10.2,-0.3,171
10.2,-0.15,171
10.2,0.0,169
10.2,0.15,170
10.2,0.3,168
10.2,0.45,169
10.2,0.6,170
10.2,0.75,170
10.2,0.9,168
10.2,1.05,168
10.2,1.2,169
10.2,1.35,172
10.2,1.5,177
10.35,-1.5,177
10.35,-1.35,175
10.35,-1.2,172
10.35,-1.05,168
10.35,-0.9,164
10.35,-0.75,167
10.35,-0.6,173
10.35,-0.45,171
10.35,-0.3,169
10.35,-0.15,169
10.35,0.0,171
10.35,0.15,171
10.35,0.3,169
10.35,0.45,168
10.35,0.6,168
10.35,0.75,168
10.35,0.9,168
10.35,1.05,169
10.35,1.2,169
10.35,1.35,172
10.35,1.5,176
10.5,-1.5,193
10.5,-1.35,188
10.5,-1.2,179
10.5,-1.05,179
10.5,-0.9,176
10.5,-0.75,173
10.5,-0.6,169
10.5,-0.45,170
10.5,-0.3,171
10.5,-0.15,171
10.5,0.0,170
10.5,0.15,169
10.5,0.3,169
10.5,0.45,171
10.5,0.6,171
10.5,0.75,168
10.5,0.9,170
10.5,1.05,171
10.5,1.2,171
10.5,1.35,173
10.5,1.5,174
10.65,-1.5,205
10.65,-1.35,202
10.65,-1.2,187
10.65,-1.05,189
10.65,-0.9,186
10.65,-0.75,178
10.65,-0.6,169
10.65,-0.45,171
10.65,-0.3,171
10.65,-0.15,171
10.65,0.0,171
10.65,0.15,171
10.65,0.3,169
10.65,0.45,169
10.65,0.6,172
10.65,0.75,172
10.65,0.9,172
10.65,1.05,172
10.65,1.2,173
10.65,1.35,173
10.65,1.5,173
10.8,-1.5,205
10.8,-1.35,204
10.8,-1.2,202
10.8,-1.05,199
10.8,-0.9,193
10.8,-0.75,182
10.8,-0.6,171
10.8,-0.45,171
10.8,-0.3,171
10.8,-0.15,170
10.8,0.0,169
10.8,0.15,165
10.8,0.3,171
10.8,0.45,168
10.8,0.6,164
10.8,0.75,160
10.8,0.9,163
10.8,1.05,166
10.8,1.2,173
10.8,1.35,173
10.8,1.5,173
10.95,-1.5,204
10.95,-1.35,206
10.95,-1.2,208
10.95,-1.05,202
10.95,-0.9,193
10.95,-0.75,180
10.95,-0.6,168
10.95,-0.45,166
10.95,-0.3,171
10.95,-0.15,170
10.95,0.0,167
10.95,0.15,160
10.95,0.3,172
10.95,0.45,172
10.95,0.6,168
10.95,0.75,157
10.95,0.9,154
10.95,1.05,157
10.95,1.2,165
10.95,1.35,167
10.95,1.5,168
11.1,-1.5,205
11.1,-1.35,207
11.1,-1.2,213
11.1,-1.05,201
11.1,-0.9,188
11.1,-0.75,171
11.1,-0.6,163
11.1,-0.45,165
11.1,-0.3,168
11.1,-0.15,171
11.1,0.0,170
11.1,0.15,167
11.1,0.3,172
11.1,0.45,172
11.1,0.6,168
11.1,0.75,158
11.1,0.9,145
11.1,1.05,142
11.1,1.2,150
11.1,1.35,149
11.1,1.5,144
11.25,-1.5,190
11.25,-1.35,192
11.25,-1.2,196
11.25,-1.05,187
11.25,-0.9,175
11.25,-0.75,163
11.25,-0.6,163
11.25,-0.45,171
11.25,-0.3,171
11.25,-0.15,170
11.25,0.0,172
11.25,0.15,172
11.25,0.3,169
11.25,0.45,172
11.25,0.6,164
11.25,0.75,157
11.25,0.9,147
11.25,1.05,142
11.25,1.2,144
11.25,1.35,142
11.25,1.5,136
11.4,-1.5,172
11.4,-1.35,172
11.4,-1.2,173
11.4,-1.05,172
11.4,-0.9,170
11.4,-0.75,165
11.4,-0.6,164
11.4,-0.45,162
11.4,-0.3,169
11.4,-0.15,169
11.4,0.0,172
11.4,0.15,171
11.4,0.3,169
11.4,0.45,172
11.4,0.6,162
11.4,0.75,160
11.4,0.9,156
11.4,1.05,146
11.4,1.2,142
11.4,1.35,136
11.4,1.5,130
11.55,-1.5,189
11.55,-1.35,184
11.55,-1.2,172
11.55,-1.05,172
11.55,-0.9,173
11.55,-0.75,171
11.55,-0.6,171
11.55,-0.45,182
11.55,-0.3,172
11.55,-0.15,172
11.55,0.0,172
11.55,0.15,169
11.55,0.3,169
11.55,0.45,170
11.55,0.6,166
11.55,0.75,162
11.55,0.9,159
11.55,1.05,158
11.55,1.2,160
11.55,1.35,161
11.55,1.5,162
11.7,-1.5,195
11.7,-1.35,188
11.7,-1.2,174
11.7,-1.05,173
11.7,-0.9,172
11.7,-0.75,169
11.7,-0.6,169
11.7,-0.45,169
11.7,-0.3,169
11.7,-0.15,169
11.7,0.0,169
11.7,0.15,169
11.7,0.3,170
11.7,0.45,169
11.7,0.6,170
11.7,0.75,170
11.7,0.9,165
11.7,1.05,168
11.7,1.2,173
11.7,1.35,178
11.7,1.5,181
11.85,-1.5,93
11.85,-1.35,126
11.85,-1.2,173
11.85,-1.05,171
11.85,-0.9,168
11.85,-0.75,169
11.85,-0.6,169
11.85,-0.45,171
11.85,-0.3,170
11.85,-0.15,169
11.85,0.0,171
11.85,0.15,169
11.85,0.3,170
11.85,0.45,169
11.85,0.6,170
11.85,0.75,170
11.85,0.9,169
11.85,1.05,167
11.85,1.2,173
11.85,1.35,177
11.85,1.5,181
12.0,-1.5,93
12.0,-1.35,125
12.0,-1.2,171
12.0,-1.05,169
12.0,-0.9,166
12.0,-0.75,168
12.0,-0.6,169
12.0,-0.45,171
12.0,-0.3,171
12.0,-0.15,171
12.0,0.0,171
12.0,0.15,169
12.0,0.3,170
12.0,0.45,167
12.0,0.6,165
12.0,0.75,164
12.0,0.9,168
12.0,1.05,173
12.0,1.2,178
12.0,1.35,183
12.0,1.5,186
12.15,-1.5,161
12.15,-1.35,161
12.15,-1.2,149
12.15,-1.05,165
12.15,-0.9,170
12.15,-0.75,169
12.15,-0.6,171
12.15,-0.45,171
12.15,-0.3,168
12.15,-0.15,170
12.15,0.0,169
12.15,0.15,169
12.15,0.3,170
12.15,0.45,165
12.15,0.6,160
12.15,0.75,162
12.15,0.9,171
12.15,1.05,180
12.15,1.2,185
12.15,1.35,189
12.15,1.5,194
12.3,-1.5,147
12.3,-1.35,149
12.3,-1.2,145
12.3,-1.05,162
12.3,-0.9,172
12.3,-0.75,182
12.3,-0.6,185
12.3,-0.45,172
12.3,-0.3,168
12.3,-0.15,173
12.3,0.0,169
12.3,0.15,170
12.3,0.3,170
12.3,0.45,168
12.3,0.6,163
12.3,0.75,166
12.3,0.9,173
12.3,1.05,180
12.3,1.2,185
12.3,1.35,188
12.3,1.5,190
12.45,-1.5,130
12.45,-1.35,136
12.45,-1.2,142
12.45,-1.05,155
12.45,-0.9,171
12.45,-0.75,190
12.45,-0.6,181
12.45,-0.45,169
12.45,-0.3,174
12.45,-0.15,165
12.45,0.0,165
12.45,0.15,170
12.45,0.3,170
12.45,0.45,170
12.45,0.6,166
12.45,0.75,168
12.45,0.9,173
12.45,1.05,176
12.45,1.2,181
12.45,1.35,182
12.45,1.5,182
12.6,-1.5,130
12.6,-1.35,135
12.6,-1.2,139
12.6,-1.05,160
12.6,-0.9,184
12.6,-0.75,194
12.6,-0.6,129
12.6,-0.45,89
12.6,-0.3,162
12.6,-0.15,182
12.6,0.0,165
12.6,0.15,167
12.6,0.3,168
12.6,0.45,169
12.6,0.6,167
12.6,0.75,166
12.6,0.9,168
12.6,1.05,174
12.6,1.2,176
12.6,1.35,176
12.6,1.5,176
12.75,-1.5,139
12.75,-1.35,139
12.75,-1.2,140
12.75,-1.05,153
12.75,-0.9,169
12.75,-0.75,182
12.75,-0.6,133
12.75,-0.45,142
12.75,-0.3,198
12.75,-0.15,183
12.75,0.0,167
12.75,0.15,169
12.75,0.3,168
12.75,0.45,168
12.75,0.6,169
12.75,0.75,167
12.75,0.9,167
12.75,1.05,171
12.75,1.2,173
12.75,1.35,173
12.75,1.5,173
12.9,-1.5,154
12.9,-1.35,152
12.9,-1.2,152
12.9,-1.05,154
12.9,-0.9,164
12.9,-0.75,156
12.9,-0.6,149
12.9,-0.45,173
12.9,-0.3,175
12.9,-0.15,184
12.9,0.0,192
12.9,0.15,180
12.9,0.3,171
12.9,0.45,168
12.9,0.6,169
12.9,0.75,168
12.9,0.9,168
12.9,1.05,169
12.9,1.2,170
12.9,1.35,170
12.9,1.5,170
13.05,-1.5,175
13.05,-1.35,175
13.05,-1.2,175
13.05,-1.05,178
13.05,-0.9,192
13.05,-0.75,128
13.05,-0.6,128
13.05,-0.45,155
13.05,-0.3,166
13.05,-0.15,211
13.05,0.0,214
13.05,0.15,195
13.05,0.3,175
13.05,0.45,170
13.05,0.6,169
13.05,0.75,169
13.05,0.9,168
13.05,1.05,168
13.05,1.2,168
13.05,1.35,168
13.05,1.5,168
