-3.0,-1.5,232
-3.0,-1.35,232
-3.0,-1.2,231
-3.0,-1.05,231
-3.0,-0.9,231
-3.0,-0.75,232
-3.0,-0.6,232
-3.0,-0.45,232
-3.0,-0.3,232
-3.0,-0.15,233
-3.0,0.0,234
-3.0,0.15,234
-3.0,0.3,234
-3.0,0.45,234
-3.0,0.6,233
-3.0,0.75,233
-3.0,0.9,233
-3.0,1.05,233
-3.0,1.2,233
-3.0,1.35,233
-3.0,1.5,233
-2.85,-1.5,233
-2.85,-1.35,233
-2.85,-1.2,232
-2.85,-1.05,231
-2.85,-0.9,231
-2.85,-0.75,232
-2.85,-0.6,232
-2.85,-0.45,232
-2.85,-0.3,231
-2.85,-0.15,233
-2.85,0.0,234
-2.85,0.15,234
-2.85,0.3,234
-2.85,0.45,234
-2.85,0.6,233
-2.85,0.75,233
-2.85,0.9,233
-2.85,1.05,233
-2.85,1.2,233
-2.85,1.35,233
-2.85,1.5,233
-2.7,-1.5,233
-2.7,-1.35,234
-2.7,-1.2,234
-2.7,-1.05,232
-2.7,-0.9,231
-2.7,-0.75,231
-2.7,-0.6,231
-2.7,-0.45,231
-2.7,-0.3,232
-2.7,-0.15,233
-2.7,0.0,233
-2.7,0.15,234
-2.7,0.3,234
-2.7,0.45,234
-2.7,0.6,234
-2.7,0.75,233
-2.7,0.9,233
-2.7,1.05,233
-2.7,1.2,233
-2.7,1.35,233
-2.7,1.5,233
-2.55,-1.5,233
-2.55,-1.35,234
-2.55,-1.2,235
-2.55,-1.05,234
-2.55,-0.9,232
-2.55,-0.75,230
-2.55,-0.6,230
-2.55,-0.45,231
-2.55,-0.3,232
-2.55,-0.15,232
-2.55,0.0,233
-2.55,0.15,234
-2.55,0.3,234
-2.55,0.45,234
-2.55,0.6,234
-2.55,0.75,233
-2.55,0.9,233
-2.55,1.05,233
-2.55,1.2,233
-2.55,1.35,233
-2.55,1.5,233
-2.4,-1.5,235
-2.4,-1.35,235
-2.4,-1.2,236
-2.4,-1.05,235
-2.4,-0.9,234
-2.4,-0.75,232
-2.4,-0.6,230
-2.4,-0.45,230
-2.4,-0.3,230
-2.4,-0.15,231
-2.4,0.0,232
-2.4,0.15,233
-2.4,0.3,234
-2.4,0.45,234
-2.4,0.6,233
-2.4,0.75,233
-2.4,0.9,233
-2.4,1.05,233
-2.4,1.2,233
-2.4,1.35,233
-2.4,1.5,233
-2.25,-1.5,236
-2.25,-1.35,236
-2.25,-1.2,235
-2.25,-1.05,235
-2.25,-0.9,235
-2.25,-0.75,234
-2.25,-0.6,230
-2.25,-0.45,230
-2.25,-0.3,230
-2.25,-0.15,230
-2.25,0.0,231
-2.25,0.15,233
-2.25,0.3,234
-2.25,0.45,233
-2.25,0.6,233
-2.25,0.75,233
-2.25,0.9,233
-2.25,1.05,233
-2.25,1.2,233
-2.25,1.35,233
-2.25,1.5,233
-2.1,-1.5,235
-2.1,-1.35,235
-2.1,-1.2,236
-2.1,-1.05,236
-2.1,-0.9,235
-2.1,-0.75,232
-2.1,-0.6,233
-2.1,-0.45,231
-2.1,-0.3,230
-2.1,-0.15,230
-2.1,0.0,234
-2.1,0.15,235
-2.1,0.3,237
-2.1,0.45,236
-2.1,0.6,233
-2.1,0.75,233
-2.1,0.9,233
-2.1,1.05,233
-2.1,1.2,233
-2.1,1.35,233
-2.1,1.5,233
-1.95,-1.5,235
-1.95,-1.35,236
-1.95,-1.2,236
-1.95,-1.05,236
-1.95,-0.9,235
-1.95,-0.75,234
-1.95,-0.6,235
-1.95,-0.45,232
-1.95,-0.3,230
-1.95,-0.15,232
-1.95,0.0,238
-1.95,0.15,241
-1.95,0.3,244
-1.95,0.45,242
-1.95,0.6,238
-1.95,0.75,233
-1.95,0.9,233
-1.95,1.05,233
-1.95,1.2,233
-1.95,1.35,233
-1.95,1.5,233
-1.8,-1.5,236
-1.8,-1.35,236
-1.8,-1.2,236
-1.8,-1.05,236
-1.8,-0.9,236
-1.8,-0.75,234
-1.8,-0.6,235
-1.8,-0.45,233
-1.8,-0.3,230
-1.8,-0.15,231
-1.8,0.0,240
-1.8,0.15,248
-1.8,0.3,250
-1.8,0.45,247
-1.8,0.6,244
-1.8,0.75,236
-1.8,0.9,233
-1.8,1.05,233
-1.8,1.2,233
-1.8,1.35,233
-1.8,1.5,233
-1.65,-1.5,236
-1.65,-1.35,236
-1.65,-1.2,236
-1.65,-1.05,236
-1.65,-0.9,236
-1.65,-0.75,236
-1.65,-0.6,234
-1.65,-0.45,230
-1.65,-0.3,227
-1.65,-0.15,226
-1.65,0.0,237
-1.65,0.15,249
-1.65,0.3,255
-1.65,0.45,255
-1.65,0.6,255
-1.65,0.75,248
-1.65,0.9,235
-1.65,1.05,233
-1.65,1.2,233
-1.65,1.35,233
-1.65,1.5,233
-1.5,-1.5,236
-1.5,-1.35,236
-1.5,-1.2,236
-1.5,-1.05,236
-1.5,-0.9,236
-1.5,-0.75,235
-1.5,-0.6,233
-1.5,-0.45,230
-1.5,-0.3,225
-1.5,-0.15,223
-1.5,0.0,229
-1.5,0.15,240
-1.5,0.3,247
-1.5,0.45,255
-1.5,0.6,255
-1.5,0.75,248
-1.5,0.9,237
-1.5,1.05,233
-1.5,1.2,233
-1.5,1.35,233
-1.5,1.5,233
-1.35,-1.5,236
-1.35,-1.35,236
-1.35,-1.2,236
-1.35,-1.05,236
-1.35,-0.9,235
-1.35,-0.75,235
-1.35,-0.6,234
-1.35,-0.45,232
-1.35,-0.3,229
-1.35,-0.15,229
-1.35,0.0,232
-1.35,0.15,234
-1.35,0.3,239
-1.35,0.45,246
-1.35,0.6,249
-1.35,0.75,243
-1.35,0.9,236
-1.35,1.05,233
-1.35,1.2,233
-1.35,1.35,233
-1.35,1.5,233
-1.2,-1.5,236
-1.2,-1.35,236
-1.2,-1.2,236
-1.2,-1.05,236
-1.2,-0.9,235
-1.2,-0.75,235
-1.2,-0.6,235
-1.2,-0.45,234
-1.2,-0.3,233
-1.2,-0.15,234
-1.2,0.0,234
-1.2,0.15,232
-1.2,0.3,234
-1.2,0.45,238
-1.2,0.6,239
-1.2,0.75,237
-1.2,0.9,235
-1.2,1.05,234
-1.2,1.2,234
-1.2,1.35,233
-1.2,1.5,233
-1.05,-1.5,236
-1.05,-1.35,236
-1.05,-1.2,236
-1.05,-1.05,236
-1.05,-0.9,235
-1.05,-0.75,234
-1.05,-0.6,234
-1.05,-0.45,234
-1.05,-0.3,233
-1.05,-0.15,233
-1.05,0.0,233
-1.05,0.15,232
-1.05,0.3,233
-1.05,0.45,235
-1.05,0.6,235
-1.05,0.75,234
-1.05,0.9,234
-1.05,1.05,234
-1.05,1.2,233
-1.05,1.35,233
-1.05,1.5,233
-0.9,-1.5,236
-0.9,-1.35,236
-0.9,-1.2,236
-0.9,-1.05,236
-0.9,-0.9,235
-0.9,-0.75,233
-0.9,-0.6,233
-0.9,-0.45,233
-0.9,-0.3,233
-0.9,-0.15,233
-0.9,0.0,232
-0.9,0.15,233
-0.9,0.3,233
-0.9,0.45,233
-0.9,0.6,233
-0.9,0.75,233
-0.9,0.9,233
-0.9,1.05,233
-0.9,1.2,233
-0.9,1.35,233
-0.9,1.5,233
-0.75,-1.5,236
-0.75,-1.35,236
-0.75,-1.2,236
-0.75,-1.05,236
-0.75,-0.9,234
-0.75,-0.75,233
-0.75,-0.6,233
-0.75,-0.45,233
-0.75,-0.3,233
-0.75,-0.15,232
-0.75,0.0,232
-0.75,0.15,233
-0.75,0.3,233
-0.75,0.45,233
-0.75,0.6,233
-0.75,0.75,233
-0.75,0.9,233
-0.75,1.05,233
-0.75,1.2,233
-0.75,1.35,233
-0.75,1.5,233
-0.6,-1.5,236
-0.6,-1.35,236
-0.6,-1.2,236
-0.6,-1.05,236
-0.6,-0.9,235
-0.6,-0.75,233
-0.6,-0.6,233
-0.6,-0.45,233
-0.6,-0.3,233
-0.6,-0.15,232
-0.6,0.0,232
-0.6,0.15,233
-0.6,0.3,233
-0.6,0.45,233
-0.6,0.6,233
-0.6,0.75,233
-0.6,0.9,233
-0.6,1.05,233
-0.6,1.2,233
-0.6,1.35,233
-0.6,1.5,233
-0.45,-1.5,236
-0.45,-1.35,236
-0.45,-1.2,236
-0.45,-1.05,236
-0.45,-0.9,235
-0.45,-0.75,233
-0.45,-0.6,233
-0.45,-0.45,233
-0.45,-0.3,233
-0.45,-0.15,232
-0.45,0.0,233
-0.45,0.15,233
-0.45,0.3,233
-0.45,0.45,233
-0.45,0.6,233
-0.45,0.75,233
-0.45,0.9,233
-0.45,1.05,233
-0.45,1.2,233
-0.45,1.35,233
-0.45,1.5,233
-0.3,-1.5,236
-0.3,-1.35,236
-0.3,-1.2,236
-0.3,-1.05,236
-0.3,-0.9,234
-0.3,-0.75,233
-0.3,-0.6,233
-0.3,-0.45,233
-0.3,-0.3,233
-0.3,-0.15,232
-0.3,0.0,233
-0.3,0.15,233
-0.3,0.3,233
-0.3,0.45,233
-0.3,0.6,233
-0.3,0.75,233
-0.3,0.9,233
-0.3,1.05,233
-0.3,1.2,233
-0.3,1.35,233
-0.3,1.5,233
-0.15,-1.5,236
-0.15,-1.35,236
-0.15,-1.2,236
-0.15,-1.05,235
-0.15,-0.9,234
-0.15,-0.75,233
-0.15,-0.6,233
-0.15,-0.45,233
-0.15,-0.3,233
-0.15,-0.15,232
-0.15,0.0,232
-0.15,0.15,233
-0.15,0.3,233
-0.15,0.45,233
-0.15,0.6,233
-0.15,0.75,233
-0.15,0.9,233
-0.15,1.05,233
-0.15,1.2,233
-0.15,1.35,233
-0.15,1.5,233
0.0,-1.5,236
0.0,-1.35,236
0.0,-1.2,236
0.0,-1.05,234
0.0,-0.9,233
0.0,-0.75,233
0.0,-0.6,233
0.0,-0.45,233
0.0,-0.3,233
0.0,-0.15,233
0.0,0.0,233
0.0,0.15,233
0.0,0.3,233
0.0,0.45,233
0.0,0.6,233
0.0,0.75,233
0.0,0.9,233
0.0,1.05,233
0.0,1.2,233
0.0,1.35,233
0.0,1.5,233
0.15,-1.5,236
0.15,-1.35,236
0.15,-1.2,235
0.15,-1.05,234
0.15,-0.9,233
0.15,-0.75,233
0.15,-0.6,233
0.15,-0.45,233
0.15,-0.3,233
0.15,-0.15,233
0.15,0.0,233
0.15,0.15,233
0.15,0.3,233
0.15,0.45,233
0.15,0.6,233
0.15,0.75,233
0.15,0.9,233
0.15,1.05,233
0.15,1.2,233
0.15,1.35,233
0.15,1.5,233
0.3,-1.5,236
0.3,-1.35,235
0.3,-1.2,233
0.3,-1.05,233
0.3,-0.9,233
0.3,-0.75,233
0.3,-0.6,233
0.3,-0.45,233
0.3,-0.3,233
0.3,-0.15,233
0.3,0.0,233
0.3,0.15,233
0.3,0.3,233
0.3,0.45,233
0.3,0.6,233
0.3,0.75,233
0.3,0.9,233
0.3,1.05,233
0.3,1.2,233
0.3,1.35,233
0.3,1.5,233
0.45,-1.5,237
0.45,-1.35,235
0.45,-1.2,234
0.45,-1.05,234
0.45,-0.9,234
0.45,-0.75,233
0.45,-0.6,233
0.45,-0.45,233
0.45,-0.3,233
0.45,-0.15,233
0.45,0.0,233
0.45,0.15,233
0.45,0.3,233
0.45,0.45,233
0.45,0.6,233
0.45,0.75,233
0.45,0.9,233
0.45,1.05,233
0.45,1.2,233
0.45,1.35,233
0.45,1.5,233
0.6,-1.5,239
0.6,-1.35,237
0.6,-1.2,234
0.6,-1.05,236
0.6,-0.9,236
0.6,-0.75,235
0.6,-0.6,234
0.6,-0.45,233
0.6,-0.3,233
0.6,-0.15,233
0.6,0.0,233
0.6,0.15,233
0.6,0.3,233
0.6,0.45,233
0.6,0.6,233
0.6,0.75,233
0.6,0.9,233
0.6,1.05,233
0.6,1.2,233
0.6,1.35,233
0.6,1.5,233
0.75,-1.5,239
0.75,-1.35,239
0.75,-1.2,237
0.75,-1.05,235
0.75,-0.9,236
0.75,-0.75,237
0.75,-0.6,235
0.75,-0.45,233
0.75,-0.3,233
0.75,-0.15,233
0.75,0.0,233
0.75,0.15,233
0.75,0.3,233
0.75,0.45,233
0.75,0.6,233
0.75,0.75,233
0.75,0.9,233
0.75,1.05,233
0.75,1.2,233
0.75,1.35,233
0.75,1.5,233
0.9,-1.5,239
0.9,-1.35,239
0.9,-1.2,238
0.9,-1.05,237
0.9,-0.9,237
0.9,-0.75,236
0.9,-0.6,234
0.9,-0.45,233
0.9,-0.3,233
0.9,-0.15,233
0.9,0.0,233
0.9,0.15,233
0.9,0.3,233
0.9,0.45,233
0.9,0.6,233
0.9,0.75,233
0.9,0.9,233
0.9,1.05,233
0.9,1.2,233
0.9,1.35,233
0.9,1.5,233
1.05,-1.5,239
1.05,-1.35,239
1.05,-1.2,238
1.05,-1.05,239
1.05,-0.9,236
1.05,-0.75,234
1.05,-0.6,233
1.05,-0.45,233
1.05,-0.3,233
1.05,-0.15,233
1.05,0.0,233
1.05,0.15,233
1.05,0.3,233
1.05,0.45,233
1.05,0.6,233
1.05,0.75,233
1.05,0.9,233
1.05,1.05,233
1.05,1.2,233
1.05,1.35,233
1.05,1.5,233
1.2,-1.5,242
1.2,-1.35,241
1.2,-1.2,240
1.2,-1.05,237
1.2,-0.9,234
1.2,-0.75,233
1.2,-0.6,233
1.2,-0.45,233
1.2,-0.3,233
1.2,-0.15,233
1.2,0.0,233
1.2,0.15,233
1.2,0.3,233
1.2,0.45,233
1.2,0.6,233
1.2,0.75,233
1.2,0.9,233
1.2,1.05,233
1.2,1.2,233
1.2,1.35,233
1.2,1.5,233
1.35,-1.5,241
1.35,-1.35,241
1.35,-1.2,240
1.35,-1.05,236
1.35,-0.9,233
1.35,-0.75,233
1.35,-0.6,233
1.35,-0.45,233
1.35,-0.3,233
1.35,-0.15,233
1.35,0.0,233
1.35,0.15,233
1.35,0.3,233
1.35,0.45,233
1.35,0.6,233
1.35,0.75,233
1.35,0.9,233
1.35,1.05,233
1.35,1.2,233
1.35,1.35,233
1.35,1.5,233
1.5,-1.5,238
1.5,-1.35,239
1.5,-1.2,239
1.5,-1.05,236
1.5,-0.9,233
1.5,-0.75,233
1.5,-0.6,233
1.5,-0.45,233
1.5,-0.3,233
1.5,-0.15,233
1.5,0.0,233
1.5,0.15,233
1.5,0.3,233
1.5,0.45,233
1.5,0.6,233
1.5,0.75,233
1.5,0.9,233
1.5,1.05,233
1.5,1.2,233
1.5,1.35,233
1.5,1.5,233
1.65,-1.5,234
1.65,-1.35,235
1.65,-1.2,236
1.65,-1.05,235
1.65,-0.9,233
1.65,-0.75,233
1.65,-0.6,233
1.65,-0.45,233
1.65,-0.3,233
1.65,-0.15,233
1.65,0.0,233
1.65,0.15,233
1.65,0.3,233
1.65,0.45,233
1.65,0.6,233
1.65,0.75,233
1.65,0.9,233
1.65,1.05,233
1.65,1.2,233
1.65,1.35,233
1.65,1.5,233
1.8,-1.5,233
1.8,-1.35,233
1.8,-1.2,234
1.8,-1.05,233
1.8,-0.9,233
1.8,-0.75,234
1.8,-0.6,233
1.8,-0.45,233
1.8,-0.3,233
1.8,-0.15,233
1.8,0.0,233
1.8,0.15,233
1.8,0.3,233
1.8,0.45,233
1.8,0.6,233
1.8,0.75,233
1.8,0.9,233
1.8,1.05,233
1.8,1.2,233
1.8,1.35,233
1.8,1.5,233
1.95,-1.5,233
1.95,-1.35,233
1.95,-1.2,233
1.95,-1.05,233
1.95,-0.9,233
1.95,-0.75,235
1.95,-0.6,234
1.95,-0.45,233
1.95,-0.3,233
1.95,-0.15,233
1.95,0.0,233
1.95,0.15,233
1.95,0.3,233
1.95,0.45,233
1.95,0.6,233
1.95,0.75,233
1.95,0.9,233
1.95,1.05,233
1.95,1.2,233
1.95,1.35,233
1.95,1.5,233
2.1,-1.5,233
2.1,-1.35,233
2.1,-1.2,234
2.1,-1.05,234
2.1,-0.9,235
2.1,-0.75,236
2.1,-0.6,235
2.1,-0.45,233
2.1,-0.3,233
2.1,-0.15,233
2.1,0.0,233
2.1,0.15,233
2.1,0.3,233
2.1,0.45,233
2.1,0.6,233
2.1,0.75,233
2.1,0.9,233
2.1,1.05,233
2.1,1.2,233
2.1,1.35,233
2.1,1.5,233
2.25,-1.5,233
2.25,-1.35,234
2.25,-1.2,236
2.25,-1.05,237
2.25,-0.9,236
2.25,-0.75,236
2.25,-0.6,234
2.25,-0.45,233
2.25,-0.3,233
2.25,-0.15,233
2.25,0.0,233
2.25,0.15,233
2.25,0.3,233
2.25,0.45,233
2.25,0.6,233
2.25,0.75,233
2.25,0.9,233
2.25,1.05,233
2.25,1.2,233
2.25,1.35,233
2.25,1.5,233
2.4,-1.5,235
2.4,-1.35,237
2.4,-1.2,238
2.4,-1.05,238
2.4,-0.9,235
2.4,-0.75,233
2.4,-0.6,233
2.4,-0.45,233
2.4,-0.3,233
2.4,-0.15,233
2.4,0.0,233
2.4,0.15,233
2.4,0.3,233
2.4,0.45,233
2.4,0.6,233
2.4,0.75,233
2.4,0.9,233
2.4,1.05,233
2.4,1.2,233
2.4,1.35,233
2.4,1.5,233
2.55,-1.5,238
2.55,-1.35,238
2.55,-1.2,237
2.55,-1.05,235
2.55,-0.9,233
2.55,-0.75,233
2.55,-0.6,233
2.55,-0.45,233
2.55,-0.3,233
2.55,-0.15,233
2.55,0.0,233
2.55,0.15,233
2.55,0.3,233
2.55,0.45,233
2.55,0.6,233
2.55,0.75,233
2.55,0.9,233
2.55,1.05,233
2.55,1.2,233
2.55,1.35,233
2.55,1.5,233
2.7,-1.5,238
2.7,-1.35,239
2.7,-1.2,238
2.7,-1.05,233
2.7,-0.9,233
2.7,-0.75,233
2.7,-0.6,233
2.7,-0.45,233
2.7,-0.3,233
2.7,-0.15,233
2.7,0.0,233
2.7,0.15,233
2.7,0.3,233
2.7,0.45,233
2.7,0.6,233
2.7,0.75,233
2.7,0.9,233
2.7,1.05,233
2.7,1.2,233
2.7,1.35,233
2.7,1.5,233
2.85,-1.5,243
2.85,-1.35,240
2.85,-1.2,237
2.85,-1.05,233
2.85,-0.9,233
2.85,-0.75,233
2.85,-0.6,233
2.85,-0.45,233
2.85,-0.3,233
2.85,-0.15,233
2.85,0.0,233
2.85,0.15,233
2.85,0.3,233
2.85,0.45,233
2.85,0.6,233
2.85,0.75,233
2.85,0.9,233
2.85,1.05,233
2.85,1.2,233
2.85,1.35,233
2.85,1.5,233
3.0,-1.5,245
3.0,-1.35,241
3.0,-1.2,236
3.0,-1.05,233
3.0,-0.9,233
3.0,-0.75,233
3.0,-0.6,233
3.0,-0.45,233
3.0,-0.3,233
3.0,-0.15,233
3.0,0.0,233
3.0,0.15,233
3.0,0.3,233
3.0,0.45,233
3.0,0.6,233
3.0,0.75,233
3.0,0.9,233
3.0,1.05,234
3.0,1.2,234
3.0,1.35,234
3.0,1.5,234
3.15,-1.5,242
3.15,-1.35,236
3.15,-1.2,233
3.15,-1.05,235
3.15,-0.9,233
3.15,-0.75,233
3.15,-0.6,233
3.15,-0.45,233
3.15,-0.3,233
3.15,-0.15,233
3.15,0.0,233
3.15,0.15,233
3.15,0.3,234
3.15,0.45,233
3.15,0.6,233
3.15,0.75,233
3.15,0.9,233
3.15,1.05,234
3.15,1.2,236
3.15,1.35,236
3.15,1.5,236
3.3,-1.5,238
3.3,-1.35,235
3.3,-1.2,234
3.3,-1.05,235
3.3,-0.9,234
3.3,-0.75,232
3.3,-0.6,233
3.3,-0.45,232
3.3,-0.3,232
3.3,-0.15,233
3.3,0.0,233
3.3,0.15,235
3.3,0.3,237
3.3,0.45,237
3.3,0.6,235
3.3,0.75,233
3.3,0.9,233
3.3,1.05,234
3.3,1.2,236
3.3,1.35,236
3.3,1.5,236
3.45,-1.5,233
3.45,-1.35,234
3.45,-1.2,234
3.45,-1.05,235
3.45,-0.9,234
3.45,-0.75,232
3.45,-0.6,232
3.45,-0.45,233
3.45,-0.3,233
3.45,-0.15,233
3.45,0.0,233
3.45,0.15,235
3.45,0.3,237
3.45,0.45,237
3.45,0.6,233
3.45,0.75,233
3.45,0.9,233
3.45,1.05,235
3.45,1.2,236
3.45,1.35,236
3.45,1.5,236
3.6,-1.5,232
3.6,-1.35,233
3.6,-1.2,233
3.6,-1.05,233
3.6,-0.9,233
3.6,-0.75,232
3.6,-0.6,232
3.6,-0.45,233
3.6,-0.3,233
3.6,-0.15,233
3.6,0.0,233
3.6,0.15,233
3.6,0.3,237
3.6,0.45,237
3.6,0.6,234
3.6,0.75,233
3.6,0.9,234
3.6,1.05,235
3.6,1.2,236
3.6,1.35,236
3.6,1.5,236
3.75,-1.5,232
3.75,-1.35,232
3.75,-1.2,232
3.75,-1.05,232
3.75,-0.9,233
3.75,-0.75,233
3.75,-0.6,232
3.75,-0.45,233
3.75,-0.3,233
3.75,-0.15,233
3.75,0.0,233
3.75,0.15,233
3.75,0.3,233
3.75,0.45,236
3.75,0.6,237
3.75,0.75,235
3.75,0.9,235
3.75,1.05,236
3.75,1.2,236
3.75,1.35,236
3.75,1.5,236
3.9,-1.5,232
3.9,-1.35,232
3.9,-1.2,232
3.9,-1.05,232
3.9,-0.9,232
3.9,-0.75,233
3.9,-0.6,232
3.9,-0.45,233
3.9,-0.3,233
3.9,-0.15,233
3.9,0.0,233
3.9,0.15,233
3.9,0.3,235
3.9,0.45,244
3.9,0.6,243
3.9,0.75,238
3.9,0.9,236
3.9,1.05,235
3.9,1.2,234
3.9,1.35,234
3.9,1.5,233
4.05,-1.5,232
4.05,-1.35,232
4.05,-1.2,232
4.05,-1.05,232
4.05,-0.9,232
4.05,-0.75,232
4.05,-0.6,231
4.05,-0.45,233
4.05,-0.3,232
4.05,-0.15,233
4.05,0.0,233
4.05,0.15,233
4.05,0.3,235
4.05,0.45,252
4.05,0.6,253
4.05,0.75,242
4.05,0.9,235
4.05,1.05,231
4.05,1.2,233
4.05,1.35,233
4.05,1.5,233
4.2,-1.5,232
4.2,-1.35,232
4.2,-1.2,232
4.2,-1.05,232
4.2,-0.9,232
4.2,-0.75,233
4.2,-0.6,231
4.2,-0.45,233
4.2,-0.3,232
4.2,-0.15,233
4.2,0.0,233
4.2,0.15,233
4.2,0.3,234
4.2,0.45,241
4.2,0.6,250
4.2,0.75,241
4.2,0.9,235
4.2,1.05,231
4.2,1.2,232
4.2,1.35,232
4.2,1.5,231
4.35,-1.5,232
4.35,-1.35,232
4.35,-1.2,232
4.35,-1.05,233
4.35,-0.9,233
4.35,-0.75,233
4.35,-0.6,233
4.35,-0.45,229
4.35,-0.3,231
4.35,-0.15,232
4.35,0.0,232
4.35,0.15,234
4.35,0.3,232
4.35,0.45,234
4.35,0.6,242
4.35,0.75,240
4.35,0.9,237
4.35,1.05,233
4.35,1.2,229
4.35,1.35,226
4.35,1.5,224
4.5,-1.5,187
4.5,-1.35,210
4.5,-1.2,226
4.5,-1.05,233
4.5,-0.9,233
4.5,-0.75,233
4.5,-0.6,230
4.5,-0.45,228
4.5,-0.3,228
4.5,-0.15,233
4.5,0.0,234
4.5,0.15,232
4.5,0.3,232
4.5,0.45,232
4.5,0.6,234
4.5,0.75,237
4.5,0.9,240
4.5,1.05,232
4.5,1.2,233
4.5,1.35,233
4.5,1.5,233
4.65,-1.5,100
4.65,-1.35,151
4.65,-1.2,192
4.65,-1.05,223
4.65,-0.9,233
4.65,-0.75,233
4.65,-0.6,228
4.65,-0.45,233
4.65,-0.3,231
4.65,-0.15,244
4.65,0.0,235
4.65,0.15,233
4.65,0.3,232
4.65,0.45,229
4.65,0.6,231
4.65,0.75,232
4.65,0.9,239
4.65,1.05,231
4.65,1.2,236
4.65,1.35,240
4.65,1.5,243
4.8,-1.5,53
4.8,-1.35,105
4.8,-1.2,149
4.8,-1.05,192
4.8,-0.9,227
4.8,-0.75,232
4.8,-0.6,235
4.8,-0.45,226
4.8,-0.3,231
4.8,-0.15,236
4.8,0.0,233
4.8,0.15,234
4.8,0.3,234
4.8,0.45,229
4.8,0.6,227
4.8,0.75,229
4.8,0.9,231
4.8,1.05,232
4.8,1.2,234
4.8,1.35,237
4.8,1.5,238
4.95,-1.5,9
4.95,-1.35,56
4.95,-1.2,104
4.95,-1.05,162
4.95,-0.9,220
4.95,-0.75,234
4.95,-0.6,235
4.95,-0.45,221
4.95,-0.3,219
4.95,-0.15,233
4.95,0.0,234
4.95,0.15,234
4.95,0.3,231
4.95,0.45,227
4.95,0.6,222
4.95,0.75,227
4.95,0.9,230
4.95,1.05,233
4.95,1.2,234
4.95,1.35,235
4.95,1.5,236
5.1,-1.5,0
5.1,-1.35,18
5.1,-1.2,53
5.1,-1.05,141
5.1,-0.9,241
5.1,-0.75,255
5.1,-0.6,232
5.1,-0.45,226
5.1,-0.3,223
5.1,-0.15,229
5.1,0.0,232
5.1,0.15,234
5.1,0.3,227
5.1,0.45,223
5.1,0.6,225
5.1,0.75,231
5.1,0.9,233
5.1,1.05,234
5.1,1.2,233
5.1,1.35,233
5.1,1.5,234
5.25,-1.5,1
5.25,-1.35,0
5.25,-1.2,0
5.25,-1.05,76
5.25,-0.9,190
5.25,-0.75,255
5.25,-0.6,239
5.25,-0.45,230
5.25,-0.3,228
5.25,-0.15,232
5.25,0.0,233
5.25,0.15,231
5.25,0.3,233
5.25,0.45,233
5.25,0.6,232
5.25,0.75,234
5.25,0.9,234
5.25,1.05,233
5.25,1.2,233
5.25,1.35,232
5.25,1.5,232
5.4,-1.5,0
5.4,-1.35,0
5.4,-1.2,0
5.4,-1.05,27
5.4,-0.9,122
5.4,-0.75,225
5.4,-0.6,240
5.4,-0.45,230
5.4,-0.3,231
5.4,-0.15,232
5.4,0.0,233
5.4,0.15,233
5.4,0.3,232
5.4,0.45,232
5.4,0.6,233
5.4,0.75,234
5.4,0.9,234
5.4,1.05,233
5.4,1.2,232
5.4,1.35,231
5.4,1.5,231
5.55,-1.5,0
5.55,-1.35,0
5.55,-1.2,0
5.55,-1.05,46
5.55,-0.9,157
5.55,-0.75,229
5.55,-0.6,240
5.55,-0.45,232
5.55,-0.3,231
5.55,-0.15,233
5.55,0.0,232
5.55,0.15,232
5.55,0.3,232
5.55,0.45,232
5.55,0.6,234
5.55,0.75,234
5.55,0.9,234
5.55,1.05,232
5.55,1.2,231
5.55,1.35,231
5.55,1.5,231
5.7,-1.5,0
5.7,-1.35,29
5.7,-1.2,138
5.7,-1.05,170
5.7,-0.9,214
5.7,-0.75,237
5.7,-0.6,237
5.7,-0.45,233
5.7,-0.3,228
5.7,-0.15,233
5.7,0.0,233
5.7,0.15,232
5.7,0.3,234
5.7,0.45,234
5.7,0.6,234
5.7,0.75,234
5.7,0.9,233
5.7,1.05,231
5.7,1.2,231
5.7,1.35,231
5.7,1.5,231
5.85,-1.5,33
5.85,-1.35,106
5.85,-1.2,231
5.85,-1.05,237
5.85,-0.9,237
5.85,-0.75,233
5.85,-0.6,222
5.85,-0.45,228
5.85,-0.3,233
5.85,-0.15,232
5.85,0.0,233
5.85,0.15,232
5.85,0.3,232
5.85,0.45,234
5.85,0.6,234
5.85,0.75,234
5.85,0.9,232
5.85,1.05,230
5.85,1.2,230
5.85,1.35,231
5.85,1.5,231
6.0,-1.5,61
6.0,-1.35,134
6.0,-1.2,237
6.0,-1.05,237
6.0,-0.9,235
6.0,-0.75,233
6.0,-0.6,157
6.0,-0.45,207
6.0,-0.3,233
6.0,-0.15,232
6.0,0.0,233
6.0,0.15,234
6.0,0.3,234
6.0,0.45,234
6.0,0.6,233
6.0,0.75,232
6.0,0.9,230
6.0,1.05,231
6.0,1.2,228
6.0,1.35,226
6.0,1.5,225
6.15,-1.5,140
6.15,-1.35,185
6.15,-1.2,236
6.15,-1.05,235
6.15,-0.9,235
6.15,-0.75,233
6.15,-0.6,194
6.15,-0.45,220
6.15,-0.3,231
6.15,-0.15,233
6.15,0.0,232
6.15,0.15,233
6.15,0.3,233
6.15,0.45,234
6.15,0.6,233
6.15,0.75,230
6.15,0.9,229
6.15,1.05,228
6.15,1.2,225
6.15,1.35,222
6.15,1.5,221
6.3,-1.5,230
6.3,-1.35,232
6.3,-1.2,234
6.3,-1.05,232
6.3,-0.9,232
6.3,-0.75,232
6.3,-0.6,233
6.3,-0.45,231
6.3,-0.3,230
6.3,-0.15,233
6.3,0.0,233
6.3,0.15,233
6.3,0.3,233
6.3,0.45,233
6.3,0.6,232
6.3,0.75,230
6.3,0.9,227
6.3,1.05,222
6.3,1.2,221
6.3,1.35,221
6.3,1.5,221
6.45,-1.5,233
6.45,-1.35,232
6.45,-1.2,232
6.45,-1.05,232
6.45,-0.9,232
6.45,-0.75,232
6.45,-0.6,231
6.45,-0.45,232
6.45,-0.3,231
6.45,-0.15,230
6.45,0.0,233
6.45,0.15,233
6.45,0.3,232
6.45,0.45,232
6.45,0.6,232
6.45,0.75,227
6.45,0.9,223
6.45,1.05,219
6.45,1.2,221
6.45,1.35,221
6.45,1.5,221
6.6,-1.5,234
6.6,-1.35,234
6.6,-1.2,234
6.6,-1.05,234
6.6,-0.9,233
6.6,-0.75,232
6.6,-0.6,231
6.6,-0.45,233
6.6,-0.3,231
6.6,-0.15,232
6.6,0.0,231
6.6,0.15,232
6.6,0.3,231
6.6,0.45,230
6.6,0.6,231
6.6,0.75,226
6.6,0.9,221
6.6,1.05,219
6.6,1.2,220
6.6,1.35,220
6.6,1.5,219
6.75,-1.5,234
6.75,-1.35,234
6.75,-1.2,235
6.75,-1.05,235
6.75,-0.9,235
6.75,-0.75,232
6.75,-0.6,255
6.75,-0.45,237
6.75,-0.3,233
6.75,-0.15,233
6.75,0.0,232
6.75,0.15,233
6.75,0.3,231
6.75,0.45,231
6.75,0.6,229
6.75,0.75,224
6.75,0.9,220
6.75,1.05,219
6.75,1.2,217
6.75,1.35,214
6.75,1.5,212
6.9,-1.5,234
6.9,-1.35,235
6.9,-1.2,234
6.9,-1.05,235
6.9,-0.9,235
6.9,-0.75,235
6.9,-0.6,245
6.9,-0.45,236
6.9,-0.3,232
6.9,-0.15,233
6.9,0.0,233
6.9,0.15,233
6.9,0.3,233
6.9,0.45,232
6.9,0.6,228
6.9,0.75,223
6.9,0.9,219
6.9,1.05,222
6.9,1.2,218
6.9,1.35,215
6.9,1.5,213
7.05,-1.5,233
7.05,-1.35,234
7.05,-1.2,233
7.05,-1.05,235
7.05,-0.9,234
7.05,-0.75,233
7.05,-0.6,237
7.05,-0.45,233
7.05,-0.3,232
7.05,-0.15,233
7.05,0.0,233
7.05,0.15,232
7.05,0.3,233
7.05,0.45,230
7.05,0.6,228
7.05,0.75,224
7.05,0.9,220
7.05,1.05,223
7.05,1.2,219
7.05,1.35,216
7.05,1.5,214
7.2,-1.5,230
7.2,-1.35,233
7.2,-1.2,235
7.2,-1.05,233
7.2,-0.9,233
7.2,-0.75,234
7.2,-0.6,234
7.2,-0.45,232
7.2,-0.3,232
7.2,-0.15,235
7.2,0.0,233
7.2,0.15,233
7.2,0.3,232
7.2,0.45,232
7.2,0.6,230
7.2,0.75,227
7.2,0.9,224
7.2,1.05,219
7.2,1.2,220
7.2,1.35,222
7.2,1.5,222
7.35,-1.5,230
7.35,-1.35,232
7.35,-1.2,233
7.35,-1.05,232
7.35,-0.9,234
7.35,-0.75,235
7.35,-0.6,240
7.35,-0.45,238
7.35,-0.3,250
7.35,-0.15,232
7.35,0.0,233
7.35,0.15,233
7.35,0.3,232
7.35,0.45,232
7.35,0.6,231
7.35,0.75,228
7.35,0.9,226
7.35,1.05,222
7.35,1.2,224
7.35,1.35,225
7.35,1.5,225
7.5,-1.5,230
7.5,-1.35,231
7.5,-1.2,231
7.5,-1.05,233
7.5,-0.9,234
7.5,-0.75,233
7.5,-0.6,249
7.5,-0.45,233
7.5,-0.3,233
7.5,-0.15,234
7.5,0.0,232
7.5,0.15,233
7.5,0.3,233
7.5,0.45,232
7.5,0.6,231
7.5,0.75,229
7.5,0.9,228
7.5,1.05,228
7.5,1.2,229
7.5,1.35,229
7.5,1.5,229
7.65,-1.5,227
7.65,-1.35,229
7.65,-1.2,231
7.65,-1.05,232
7.65,-0.9,233
7.65,-0.75,232
7.65,-0.6,232
7.65,-0.45,232
7.65,-0.3,232
7.65,-0.15,232
7.65,0.0,233
7.65,0.15,233
7.65,0.3,233
7.65,0.45,232
7.65,0.6,231
7.65,0.75,230
7.65,0.9,229
7.65,1.05,229
7.65,1.2,229
7.65,1.35,229
7.65,1.5,229
7.8,-1.5,224
7.8,-1.35,227
7.8,-1.2,229
7.8,-1.05,231
7.8,-0.9,232
7.8,-0.75,233
7.8,-0.6,232
7.8,-0.45,232
7.8,-0.3,232
7.8,-0.15,232
7.8,0.0,233
7.8,0.15,233
7.8,0.3,232
7.8,0.45,233
7.8,0.6,232
7.8,0.75,231
7.8,0.9,230
7.8,1.05,230
7.8,1.2,231
7.8,1.35,231
7.8,1.5,231
7.95,-1.5,223
7.95,-1.35,225
7.95,-1.2,227
7.95,-1.05,230
7.95,-0.9,232
7.95,-0.75,233
7.95,-0.6,233
7.95,-0.45,232
7.95,-0.3,232
7.95,-0.15,232
7.95,0.0,232
7.95,0.15,233
7.95,0.3,232
7.95,0.45,232
7.95,0.6,233
7.95,0.75,232
7.95,0.9,232
7.95,1.05,232
7.95,1.2,233
7.95,1.35,233
7.95,1.5,233
8.1,-1.5,222
8.1,-1.35,223
8.1,-1.2,226
8.1,-1.05,230
8.1,-0.9,233
8.1,-0.75,232
8.1,-0.6,232
8.1,-0.45,232
8.1,-0.3,233
8.1,-0.15,232
8.1,0.0,232
8.1,0.15,232
8.1,0.3,233
8.1,0.45,232
8.1,0.6,232
8.1,0.75,233
8.1,0.9,233
8.1,1.05,233
8.1,1.2,233
8.1,1.35,233
8.1,1.5,233
8.25,-1.5,220
8.25,-1.35,222
8.25,-1.2,224
8.25,-1.05,229
8.25,-0.9,233
8.25,-0.75,233
8.25,-0.6,233
8.25,-0.45,232
8.25,-0.3,232
8.25,-0.15,233
8.25,0.0,232
8.25,0.15,232
8.25,0.3,233
8.25,0.45,232
8.25,0.6,232
8.25,0.75,233
8.25,0.9,233
8.25,1.05,233
8.25,1.2,233
8.25,1.35,233
8.25,1.5,233
8.4,-1.5,219
8.4,-1.35,221
8.4,-1.2,224
8.4,-1.05,227
8.4,-0.9,231
8.4,-0.75,233
8.4,-0.6,233
8.4,-0.45,233
8.4,-0.3,232
8.4,-0.15,233
8.4,0.0,232
8.4,0.15,232
8.4,0.3,233
8.4,0.45,232
8.4,0.6,233
8.4,0.75,233
8.4,0.9,233
8.4,1.05,233
8.4,1.2,233
8.4,1.35,233
8.4,1.5,233
8.55,-1.5,221
8.55,-1.35,222
8.55,-1.2,224
8.55,-1.05,229
8.55,-0.9,232
8.55,-0.75,233
8.55,-0.6,233
8.55,-0.45,233
8.55,-0.3,233
8.55,-0.15,233
8.55,0.0,233
8.55,0.15,233
8.55,0.3,233
8.55,0.45,231
8.55,0.6,231
8.55,0.75,233
8.55,0.9,233
8.55,1.05,230
8.55,1.2,225
8.55,1.35,221
8.55,1.5,218
8.7,-1.5,224
8.7,-1.35,224
8.7,-1.2,226
8.7,-1.05,231
8.7,-0.9,233
8.7,-0.75,232
8.7,-0.6,232
8.7,-0.45,233
8.7,-0.3,232
8.7,-0.15,232
8.7,0.0,232
8.7,0.15,232
8.7,0.3,232
8.7,0.45,228
8.7,0.6,227
8.7,0.75,232
8.7,0.9,231
8.7,1.05,215
8.7,1.2,206
8.7,1.35,199
8.7,1.5,193
8.85,-1.5,224
8.85,-1.35,227
8.85,-1.2,231
8.85,-1.05,232
8.85,-0.9,232
8.85,-0.75,232
8.85,-0.6,233
8.85,-0.45,233
8.85,-0.3,233
8.85,-0.15,233
8.85,0.0,234
8.85,0.15,232
8.85,0.3,232
8.85,0.45,230
8.85,0.6,225
8.85,0.75,221
8.85,0.9,213
8.85,1.05,205
8.85,1.2,193
8.85,1.35,181
8.85,1.5,170
9.0,-1.5,227
9.0,-1.35,229
9.0,-1.2,232
9.0,-1.05,232
9.0,-0.9,232
9.0,-0.75,232
9.0,-0.6,233
9.0,-0.45,233
9.0,-0.3,232
9.0,-0.15,234
9.0,0.0,232
9.0,0.15,234
9.0,0.3,233
9.0,0.45,232
9.0,0.6,223
9.0,0.75,208
9.0,0.9,192
9.0,1.05,185
9.0,1.2,177
9.0,1.35,167
9.0,1.5,156
9.15,-1.5,232
9.15,-1.35,233
9.15,-1.2,233
9.15,-1.05,233
9.15,-0.9,232
9.15,-0.75,232
9.15,-0.6,233
9.15,-0.45,232
9.15,-0.3,232
9.15,-0.15,234
9.15,0.0,232
9.15,0.15,232
9.15,0.3,232
9.15,0.45,232
9.15,0.6,214
9.15,0.75,192
9.15,0.9,168
9.15,1.05,153
9.15,1.2,157
9.15,1.35,154
9.15,1.5,143
9.3,-1.5,234
9.3,-1.35,234
9.3,-1.2,234
9.3,-1.05,235
9.3,-0.9,234
9.3,-0.75,233
9.3,-0.6,232
9.3,-0.45,232
9.3,-0.3,233
9.3,-0.15,233
9.3,0.0,234
9.3,0.15,233
9.3,0.3,232
9.3,0.45,240
9.3,0.6,216
9.3,0.75,191
9.3,0.9,166
9.3,1.05,144
9.3,1.2,141
9.3,1.35,134
9.3,1.5,121
9.45,-1.5,235
9.45,-1.35,235
9.45,-1.2,235
9.45,-1.05,237
9.45,-0.9,234
9.45,-0.75,232
9.45,-0.6,232
9.45,-0.45,233
9.45,-0.3,232
9.45,-0.15,232
9.45,0.0,232
9.45,0.15,234
9.45,0.3,237
9.45,0.45,255
9.45,0.6,221
9.45,0.75,193
9.45,0.9,166
9.45,1.05,144
9.45,1.2,140
9.45,1.35,132
9.45,1.5,118
9.6,-1.5,235
9.6,-1.35,235
9.6,-1.2,236
9.6,-1.05,239
9.6,-0.9,237
9.6,-0.75,234
9.6,-0.6,234
9.6,-0.45,233
9.6,-0.3,233
9.6,-0.15,234
9.6,0.0,234
9.6,0.15,232
9.6,0.3,235
9.6,0.45,255
9.6,0.6,226
9.6,0.75,195
9.6,0.9,170
9.6,1.05,164
9.6,1.2,150
9.6,1.35,136
9.6,1.5,122
9.75,-1.5,236
9.75,-1.35,237
9.75,-1.2,240
9.75,-1.05,240
9.75,-0.9,238
9.75,-0.75,234
9.75,-0.6,233
9.75,-0.45,234
9.75,-0.3,234
9.75,-0.15,232
9.75,0.0,233
9.75,0.15,232
9.75,0.3,234
9.75,0.45,239
9.75,0.6,227
9.75,0.75,207
9.75,0.9,183
9.75,1.05,171
9.75,1.2,156
9.75,1.35,141
9.75,1.5,127
9.9,-1.5,237
9.9,-1.35,238
9.9,-1.2,243
9.9,-1.05,241
9.9,-0.9,237
9.9,-0.75,232
9.9,-0.6,232
9.9,-0.45,233
9.9,-0.3,233
9.9,-0.15,232
9.9,0.0,232
9.9,0.15,233
9.9,0.3,233
9.9,0.45,233
9.9,0.6,233
9.9,0.75,220
9.9,0.9,200
9.9,1.05,177
9.9,1.2,162
9.9,1.35,146
9.9,1.5,132
10.05,-1.5,236
10.05,-1.35,237
10.05,-1.2,240
10.05,-1.05,238
10.05,-0.9,235
10.05,-0.75,233
10.05,-0.6,233
10.05,-0.45,232
10.05,-0.3,232
10.05,-0.15,233
10.05,0.0,233
10.05,0.15,233
10.05,0.3,232
10.05,0.45,232
10.05,0.6,233
10.05,0.75,221
10.05,0.9,205
10.05,1.05,190
10.05,1.2,169
10.05,1.35,152
10.05,1.5,137
10.2,-1.5,235
10.2,-1.35,236
10.2,-1.2,238
10.2,-1.05,236
10.2,-0.9,235
10.2,-0.75,234
10.2,-0.6,232
10.2,-0.45,234
10.2,-0.3,232
10.2,-0.15,232
10.2,0.0,233
10.2,0.15,232
10.2,0.3,232
10.2,0.45,232
10.2,0.6,232
10.2,0.75,226
10.2,0.9,217
10.2,1.05,207
10.2,1.2,192
10.2,1.35,179
10.2,1.5,168
10.35,-1.5,234
10.35,-1.35,235
10.35,-1.2,236
10.35,-1.05,235
10.35,-0.9,235
10.35,-0.75,235
10.35,-0.6,233
10.35,-0.45,233
10.35,-0.3,234
10.35,-0.15,232
10.35,0.0,233
10.35,0.15,233
10.35,0.3,233
10.35,0.45,232
10.35,0.6,231
10.35,0.75,231
10.35,0.9,231
10.35,1.05,227
10.35,1.2,221
10.35,1.35,216
10.35,1.5,214
10.5,-1.5,234
10.5,-1.35,233
10.5,-1.2,232
10.5,-1.05,234
10.5,-0.9,235
10.5,-0.75,233
10.5,-0.6,232
10.5,-0.45,233
10.5,-0.3,234
10.5,-0.15,232
10.5,0.0,233
10.5,0.15,233
10.5,0.3,233
10.5,0.45,231
10.5,0.6,230
10.5,0.75,229
10.5,0.9,228
10.5,1.05,226
10.5,1.2,220
10.5,1.35,215
10.5,1.5,214
10.65,-1.5,233
10.65,-1.35,232
10.65,-1.2,232
10.65,-1.05,233
10.65,-0.9,235
10.65,-0.75,234
10.65,-0.6,232
10.65,-0.45,233
10.65,-0.3,233
10.65,-0.15,234
10.65,0.0,233
10.65,0.15,233
10.65,0.3,233
10.65,0.45,231
10.65,0.6,230
10.65,0.75,228
10.65,0.9,227
10.65,1.05,224
10.65,1.2,218
10.65,1.35,214
10.65,1.5,214
10.8,-1.5,232
10.8,-1.35,232
10.8,-1.2,232
10.8,-1.05,232
10.8,-0.9,233
10.8,-0.75,234
10.8,-0.6,232
10.8,-0.45,233
10.8,-0.3,233
10.8,-0.15,234
10.8,0.0,233
10.8,0.15,233
10.8,0.3,233
10.8,0.45,232
10.8,0.6,230
10.8,0.75,228
10.8,0.9,224
10.8,1.05,217
10.8,1.2,215
10.8,1.35,214
10.8,1.5,214
10.95,-1.5,232
10.95,-1.35,232
10.95,-1.2,232
10.95,-1.05,232
10.95,-0.9,232
10.95,-0.75,232
10.95,-0.6,232
10.95,-0.45,234
10.95,-0.3,233
10.95,-0.15,236
10.95,0.0,233
10.95,0.15,233
10.95,0.3,233
10.95,0.45,233
10.95,0.6,232
10.95,0.75,228
10.95,0.9,224
10.95,1.05,221
10.95,1.2,216
10.95,1.35,214
10.95,1.5,214
11.1,-1.5,232
11.1,-1.35,232
11.1,-1.2,232
11.1,-1.05,232
11.1,-0.9,232
11.1,-0.75,233
11.1,-0.6,233
11.1,-0.45,234
11.1,-0.3,241
11.1,-0.15,253
11.1,0.0,238
11.1,0.15,233
11.1,0.3,233
11.1,0.45,232
11.1,0.6,231
11.1,0.75,228
11.1,0.9,225
11.1,1.05,224
11.1,1.2,219
11.1,1.35,216
11.1,1.5,214
11.25,-1.5,232
11.25,-1.35,232
11.25,-1.2,232
11.25,-1.05,232
11.25,-0.9,232
11.25,-0.75,233
11.25,-0.6,232
11.25,-0.45,232
11.25,-0.3,245
11.25,-0.15,255
11.25,0.0,242
11.25,0.15,233
11.25,0.3,233
11.25,0.45,233
11.25,0.6,232
11.25,0.75,230
11.25,0.9,228
11.25,1.05,224
11.25,1.2,218
11.25,1.35,214
11.25,1.5,214
11.4,-1.5,232
11.4,-1.35,232
11.4,-1.2,232
11.4,-1.05,232
11.4,-0.9,232
11.4,-0.75,233
11.4,-0.6,232
11.4,-0.45,236
11.4,-0.3,232
11.4,-0.15,246
11.4,0.0,238
11.4,0.15,233
11.4,0.3,233
11.4,0.45,233
11.4,0.6,233
11.4,0.75,232
11.4,0.9,230
11.4,1.05,227
11.4,1.2,224
11.4,1.35,221
11.4,1.5,220
11.55,-1.5,232
11.55,-1.35,232
11.55,-1.2,232
11.55,-1.05,232
11.55,-0.9,232
11.55,-0.75,233
11.55,-0.6,233
11.55,-0.45,233
11.55,-0.3,233
11.55,-0.15,232
11.55,0.0,233
11.55,0.15,233
11.55,0.3,233
11.55,0.45,233
11.55,0.6,233
11.55,0.75,233
11.55,0.9,232
11.55,1.05,230
11.55,1.2,230
11.55,1.35,230
11.55,1.5,230
11.7,-1.5,232
11.7,-1.35,232
11.7,-1.2,232
11.7,-1.05,232
11.7,-0.9,232
11.7,-0.75,232
11.7,-0.6,232
11.7,-0.45,232
11.7,-0.3,232
11.7,-0.15,232
11.7,0.0,233
11.7,0.15,233
11.7,0.3,233
11.7,0.45,233
11.7,0.6,233
11.7,0.75,233
11.7,0.9,232
11.7,1.05,231
11.7,1.2,231
11.7,1.35,230
11.7,1.5,230
11.85,-1.5,232
11.85,-1.35,232
11.85,-1.2,232
11.85,-1.05,232
11.85,-0.9,232
11.85,-0.75,232
11.85,-0.6,232
11.85,-0.45,232
11.85,-0.3,232
11.85,-0.15,232
11.85,0.0,232
11.85,0.15,233
11.85,0.3,233
11.85,0.45,233
11.85,0.6,233
11.85,0.75,233
11.85,0.9,232
11.85,1.05,231
11.85,1.2,232
11.85,1.35,232
11.85,1.5,231
12.0,-1.5,232
12.0,-1.35,232
12.0,-1.2,232
12.0,-1.05,232
12.0,-0.9,232
12.0,-0.75,232
12.0,-0.6,232
12.0,-0.45,232
12.0,-0.3,232
12.0,-0.15,232
12.0,0.0,232
12.0,0.15,233
12.0,0.3,233
12.0,0.45,233
12.0,0.6,233
12.0,0.75,233
12.0,0.9,233
12.0,1.05,232
12.0,1.2,232
12.0,1.35,232
12.0,1.5,232
12.15,-1.5,232
12.15,-1.35,232
12.15,-1.2,232
12.15,-1.05,232
12.15,-0.9,232
12.15,-0.75,232
12.15,-0.6,232
12.15,-0.45,232
12.15,-0.3,232
12.15,-0.15,232
12.15,0.0,232
12.15,0.15,233
12.15,0.3,233
12.15,0.45,233
12.15,0.6,233
12.15,0.75,233
12.15,0.9,232
12.15,1.05,232
12.15,1.2,232
12.15,1.35,232
12.15,1.5,232
12.3,-1.5,232
12.3,-1.35,232
12.3,-1.2,232
12.3,-1.05,232
12.3,-0.9,232
12.3,-0.75,232
12.3,-0.6,233
12.3,-0.45,233
12.3,-0.3,233
12.3,-0.15,232
12.3,0.0,232
12.3,0.15,232
12.3,0.3,233
12.3,0.45,233
12.3,0.6,232
12.3,0.75,232
12.3,0.9,232
12.3,1.05,232
12.3,1.2,232
12.3,1.35,232
12.3,1.5,232
12.45,-1.5,232
12.45,-1.35,232
12.45,-1.2,232
12.45,-1.05,232
12.45,-0.9,232
12.45,-0.75,233
12.45,-0.6,233
12.45,-0.45,232
12.45,-0.3,232
12.45,-0.15,233
12.45,0.0,232
12.45,0.15,232
12.45,0.3,233
12.45,0.45,232
12.45,0.6,232
12.45,0.75,232
12.45,0.9,232
12.45,1.05,232
12.45,1.2,232
12.45,1.35,232
12.45,1.5,232
12.6,-1.5,232
12.6,-1.35,232
12.6,-1.2,232
12.6,-1.05,232
12.6,-0.9,232
12.6,-0.75,233
12.6,-0.6,233
12.6,-0.45,232
12.6,-0.3,233
12.6,-0.15,233
12.6,0.0,232
12.6,0.15,233
12.6,0.3,232
12.6,0.45,232
12.6,0.6,232
12.6,0.75,232
12.6,0.9,232
12.6,1.05,232
12.6,1.2,232
12.6,1.35,232
12.6,1.5,232
12.75,-1.5,232
12.75,-1.35,232
12.75,-1.2,232
12.75,-1.05,232
12.75,-0.9,232
12.75,-0.75,232
12.75,-0.6,233
12.75,-0.45,232
12.75,-0.3,233
12.75,-0.15,233
12.75,0.0,233
12.75,0.15,233
12.75,0.3,232
12.75,0.45,232
12.75,0.6,232
12.75,0.75,232
12.75,0.9,232
12.75,1.05,232
12.75,1.2,232
12.75,1.35,232
12.75,1.5,232
12.9,-1.5,232
12.9,-1.35,232
12.9,-1.2,232
12.9,-1.05,232
12.9,-0.9,232
12.9,-0.75,232
12.9,-0.6,232
12.9,-0.45,232
12.9,-0.3,233
12.9,-0.15,233
12.9,0.0,233
12.9,0.15,233
12.9,0.3,233
12.9,0.45,233
12.9,0.6,233
12.9,0.75,233
12.9,0.9,233
12.9,1.05,233
12.9,1.2,233
12.9,1.35,232
12.9,1.5,232
13.05,-1.5,232
13.05,-1.35,232
13.05,-1.2,232
13.05,-1.05,232
13.05,-0.9,232
13.05,-0.75,232
13.05,-0.6,233
13.05,-0.45,233
13.05,-0.3,233
13.05,-0.15,233
13.05,0.0,233
13.05,0.15,233
13.05,0.3,233
13.05,0.45,233
13.05,0.6,233
13.05,0.75,233
13.05,0.9,233
13.05,1.05,233
13.05,1.2,233
13.05,1.35,233
13.05,1.5,232
