-3.0,-1.5,137
-3.0,-1.35,137
-3.0,-1.2,137
-3.0,-1.05,137
-3.0,-0.9,137
-3.0,-0.75,137
-3.0,-0.6,138
-3.0,-0.45,138
-3.0,-0.3,138
-3.0,-0.15,138
-3.0,0.0,138
-3.0,0.15,139
-3.0,0.3,140
-3.0,0.45,140
-3.0,0.6,139
-3.0,0.75,130
-3.0,0.9,126
-3.0,1.05,133
-3.0,1.2,136
-3.0,1.35,138
-3.0,1.5,139
-2.85,-1.5,136
-2.85,-1.35,136
-2.85,-1.2,136
-2.85,-1.05,137
-2.85,-0.9,137
-2.85,-0.75,138
-2.85,-0.6,138
-2.85,-0.45,138
-2.85,-0.3,138
-2.85,-0.15,138
-2.85,0.0,138
-2.85,0.15,140
-2.85,0.3,140
-2.85,0.45,140
-2.85,0.6,139
-2.85,0.75,129
-2.85,0.9,125
-2.85,1.05,133
-2.85,1.2,137
-2.85,1.35,139
-2.85,1.5,140
-2.7,-1.5,133
-2.7,-1.35,133
-2.7,-1.2,135
-2.7,-1.05,137
-2.7,-0.9,137
-2.7,-0.75,138
-2.7,-0.6,138
-2.7,-0.45,138
-2.7,-0.3,138
-2.7,-0.15,138
-2.7,0.0,139
-2.7,0.15,141
-2.7,0.3,141
-2.7,0.45,140
-2.7,0.6,139
-2.7,0.75,128
-2.7,0.9,125
-2.7,1.05,133
-2.7,1.2,138
-2.7,1.35,140
-2.7,1.5,141
-2.55,-1.5,135
-2.55,-1.35,132
-2.55,-1.2,132
-2.55,-1.05,134
-2.55,-0.9,134
-2.55,-0.75,136
-2.55,-0.6,137
-2.55,-0.45,137
-2.55,-0.3,138
-2.55,-0.15,138
-2.55,0.0,140
-2.55,0.15,142
-2.55,0.3,142
-2.55,0.45,138
-2.55,0.6,134
-2.55,0.75,130
-2.55,0.9,129
-2.55,1.05,136
-2.55,1.2,140
-2.55,1.35,141
-2.55,1.5,142
-2.4,-1.5,148
-2.4,-1.35,138
-2.4,-1.2,131
-2.4,-1.05,130
-2.4,-0.9,128
-2.4,-0.75,133
-2.4,-0.6,134
-2.4,-0.45,133
-2.4,-0.3,136
-2.4,-0.15,138
-2.4,0.0,141
-2.4,0.15,143
-2.4,0.3,144
-2.4,0.45,134
-2.4,0.6,130
-2.4,0.75,134
-2.4,0.9,138
-2.4,1.05,141
-2.4,1.2,143
-2.4,1.35,143
-2.4,1.5,143
-2.25,-1.5,145
-2.25,-1.35,136
-2.25,-1.2,130
-2.25,-1.05,130
-2.25,-0.9,127
-2.25,-0.75,129
-2.25,-0.6,132
-2.25,-0.45,135
-2.25,-0.3,138
-2.25,-0.15,140
-2.25,0.0,142
-2.25,0.15,144
-2.25,0.3,144
-2.25,0.45,134
-2.25,0.6,130
-2.25,0.75,135
-2.25,0.9,140
-2.25,1.05,143
-2.25,1.2,144
-2.25,1.35,143
-2.25,1.5,143
-2.1,-1.5,94
-2.1,-1.35,95
-2.1,-1.2,111
-2.1,-1.05,126
-2.1,-0.9,123
-2.1,-0.75,123
-2.1,-0.6,127
-2.1,-0.45,138
-2.1,-0.3,141
-2.1,-0.15,142
-2.1,0.0,144
-2.1,0.15,142
-2.1,0.3,135
-2.1,0.45,130
-2.1,0.6,130
-2.1,0.75,132
-2.1,0.9,137
-2.1,1.05,141
-2.1,1.2,143
-2.1,1.35,143
-2.1,1.5,142
-1.95,-1.5,65
-1.95,-1.35,71
-1.95,-1.2,100
-1.95,-1.05,126
-1.95,-0.9,123
-1.95,-0.75,125
-1.95,-0.6,132
-1.95,-0.45,142
-1.95,-0.3,145
-1.95,-0.15,144
-1.95,0.0,145
-1.95,0.15,142
-1.95,0.3,134
-1.95,0.45,130
-1.95,0.6,130
-1.95,0.75,131
-1.95,0.9,135
-1.95,1.05,141
-1.95,1.2,143
-1.95,1.35,143
-1.95,1.5,142
-1.8,-1.5,41
-1.8,-1.35,52
-1.8,-1.2,80
-1.8,-1.05,109
-1.8,-0.9,121
-1.8,-0.75,132
-1.8,-0.6,141
-1.8,-0.45,148
-1.8,-0.3,147
-1.8,-0.15,142
-1.8,0.0,142
-1.8,0.15,146
-1.8,0.3,148
-1.8,0.45,135
-1.8,0.6,130
-1.8,0.75,130
-1.8,0.9,131
-1.8,1.05,137
-1.8,1.2,139
-1.8,1.35,138
-1.8,1.5,137
-1.65,-1.5,31
-1.65,-1.35,46
-1.65,-1.2,72
-1.65,-1.05,100
-1.65,-0.9,122
-1.65,-0.75,138
-1.65,-0.6,149
-1.65,-0.45,160
-1.65,-0.3,158
-1.65,-0.15,144
-1.65,0.0,142
-1.65,0.15,146
-1.65,0.3,153
-1.65,0.45,140
-1.65,0.6,130
-1.65,0.75,131
-1.65,0.9,130
-1.65,1.05,134
-1.65,1.2,136
-1.65,1.35,135
-1.65,1.5,134
-1.5,-1.5,68
-1.5,-1.35,80
-1.5,-1.2,90
-1.5,-1.05,101
-1.5,-0.9,123
-1.5,-0.75,141
-1.5,-0.6,153
-1.5,-0.45,171
-1.5,-0.3,174
-1.5,-0.15,150
-1.5,0.0,142
-1.5,0.15,143
-1.5,0.3,146
-1.5,0.45,140
-1.5,0.6,136
-1.5,0.75,137
-1.5,0.9,136
-1.5,1.05,135
-1.5,1.2,134
-1.5,1.35,132
-1.5,1.5,130
-1.35,-1.5,108
-1.35,-1.35,115
-1.35,-1.2,107
-1.35,-1.05,101
-1.35,-0.9,122
-1.35,-0.75,142
-1.35,-0.6,151
-1.35,-0.45,162
-1.35,-0.3,172
-1.35,-0.15,149
-1.35,0.0,143
-1.35,0.15,142
-1.35,0.3,142
-1.35,0.45,142
-1.35,0.6,141
-1.35,0.75,141
-1.35,0.9,140
-1.35,1.05,136
-1.35,1.2,132
-1.35,1.35,129
-1.35,1.5,126
-1.2,-1.5,110
-1.2,-1.35,116
-1.2,-1.2,114
-1.2,-1.05,116
-1.2,-0.9,132
-1.2,-0.75,143
-1.2,-0.6,137
-1.2,-0.45,126
-1.2,-0.3,141
-1.2,-0.15,146
-1.2,0.0,132
-1.2,0.15,138
-1.2,0.3,145
-1.2,0.45,146
-1.2,0.6,145
-1.2,0.75,143
-1.2,0.9,140
-1.2,1.05,137
-1.2,1.2,133
-1.2,1.35,129
-1.2,1.5,126
-1.05,-1.5,110
-1.05,-1.35,116
-1.05,-1.2,122
-1.05,-1.05,130
-1.05,-0.9,139
-1.05,-0.75,143
-1.05,-0.6,129
-1.05,-0.45,112
-1.05,-0.3,135
-1.05,-0.15,146
-1.05,0.0,128
-1.05,0.15,132
-1.05,0.3,146
-1.05,0.45,147
-1.05,0.6,144
-1.05,0.75,144
-1.05,0.9,143
-1.05,1.05,139
-1.05,1.2,134
-1.05,1.35,130
-1.05,1.5,126
-0.9,-1.5,110
-0.9,-1.35,117
-0.9,-1.2,124
-0.9,-1.05,133
-0.9,-0.9,144
-0.9,-0.75,151
-0.9,-0.6,139
-0.9,-0.45,123
-0.9,-0.3,128
-0.9,-0.15,144
-0.9,0.0,133
-0.9,0.15,137
-0.9,0.3,149
-0.9,0.45,147
-0.9,0.6,146
-0.9,0.75,147
-0.9,0.9,146
-0.9,1.05,142
-0.9,1.2,137
-0.9,1.35,130
-0.9,1.5,124
-0.75,-1.5,116
-0.75,-1.35,121
-0.75,-1.2,126
-0.75,-1.05,136
-0.75,-0.9,149
-0.75,-0.75,156
-0.75,-0.6,143
-0.75,-0.45,118
-0.75,-0.3,115
-0.75,-0.15,140
-0.75,0.0,144
-0.75,0.15,148
-0.75,0.3,153
-0.75,0.45,150
-0.75,0.6,151
-0.75,0.75,152
-0.75,0.9,149
-0.75,1.05,148
-0.75,1.2,140
-0.75,1.35,126
-0.75,1.5,110
-0.6,-1.5,122
-0.6,-1.35,125
-0.6,-1.2,128
-0.6,-1.05,136
-0.6,-0.9,146
-0.6,-0.75,151
-0.6,-0.6,138
-0.6,-0.45,104
-0.6,-0.3,111
-0.6,-0.15,149
-0.6,0.0,148
-0.6,0.15,155
-0.6,0.3,160
-0.6,0.45,155
-0.6,0.6,156
-0.6,0.75,155
-0.6,0.9,153
-0.6,1.05,152
-0.6,1.2,143
-0.6,1.35,127
-0.6,1.5,107
-0.45,-1.5,122
-0.45,-1.35,123
-0.45,-1.2,130
-0.45,-1.05,136
-0.45,-0.9,137
-0.45,-0.75,139
-0.45,-0.6,134
-0.45,-0.45,105
-0.45,-0.3,123
-0.45,-0.15,162
-0.45,0.0,133
-0.45,0.15,154
-0.45,0.3,168
-0.45,0.45,161
-0.45,0.6,158
-0.45,0.75,159
-0.45,0.9,159
-0.45,1.05,152
-0.45,1.2,145
-0.45,1.35,136
-0.45,1.5,125
-0.3,-1.5,122
-0.3,-1.35,122
-0.3,-1.2,131
-0.3,-1.05,136
-0.3,-0.9,136
-0.3,-0.75,140
-0.3,-0.6,147
-0.3,-0.45,135
-0.3,-0.3,129
-0.3,-0.15,141
-0.3,0.0,133
-0.3,0.15,145
-0.3,0.3,160
-0.3,0.45,161
-0.3,0.6,159
-0.3,0.75,159
-0.3,0.9,159
-0.3,1.05,153
-0.3,1.2,150
-0.3,1.35,145
-0.3,1.5,139
-0.15,-1.5,122
-0.15,-1.35,123
-0.15,-1.2,133
-0.15,-1.05,137
-0.15,-0.9,136
-0.15,-0.75,150
-0.15,-0.6,156
-0.15,-0.45,161
-0.15,-0.3,149
-0.15,-0.15,133
-0.15,0.0,143
-0.15,0.15,145
-0.15,0.3,151
-0.15,0.45,156
-0.15,0.6,154
-0.15,0.75,155
-0.15,0.9,157
-0.15,1.05,155
-0.15,1.2,154
-0.15,1.35,149
-0.15,1.5,145
0.0,-1.5,122
0.0,-1.35,126
0.0,-1.2,133
0.0,-1.05,136
0.0,-0.9,140
0.0,-0.75,150
0.0,-0.6,147
0.0,-0.45,145
0.0,-0.3,137
0.0,-0.15,136
0.0,0.0,147
0.0,0.15,149
0.0,0.3,148
0.0,0.45,153
0.0,0.6,149
0.0,0.75,151
0.0,0.9,157
0.0,1.05,157
0.0,1.2,157
0.0,1.35,155
0.0,1.5,152
0.15,-1.5,124
0.15,-1.35,129
0.15,-1.2,134
0.15,-1.05,136
0.15,-0.9,140
0.15,-0.75,142
0.15,-0.6,140
0.15,-0.45,139
0.15,-0.3,136
0.15,-0.15,136
0.15,0.0,153
0.15,0.15,153
0.15,0.3,141
0.15,0.45,142
0.15,0.6,144
0.15,0.75,151
0.15,0.9,157
0.15,1.05,157
0.15,1.2,157
0.15,1.35,155
0.15,1.5,153
0.3,-1.5,124
0.3,-1.35,129
0.3,-1.2,133
0.3,-1.05,138
0.3,-0.9,144
0.3,-0.75,145
0.3,-0.6,143
0.3,-0.45,141
0.3,-0.3,141
0.3,-0.15,139
0.3,0.0,158
0.3,0.15,158
0.3,0.3,125
0.3,0.45,128
0.3,0.6,140
0.3,0.75,150
0.3,0.9,157
0.3,1.05,156
0.3,1.2,152
0.3,1.35,153
0.3,1.5,153
0.45,-1.5,121
0.45,-1.35,127
0.45,-1.2,133
0.45,-1.05,140
0.45,-0.9,148
0.45,-0.75,151
0.45,-0.6,147
0.45,-0.45,141
0.45,-0.3,141
0.45,-0.15,138
0.45,0.0,149
0.45,0.15,158
0.45,0.3,122
0.45,0.45,121
0.45,0.6,135
0.45,0.75,144
0.45,0.9,152
0.45,1.05,151
0.45,1.2,148
0.45,1.35,150
0.45,1.5,151
0.6,-1.5,116
0.6,-1.35,123
0.6,-1.2,131
0.6,-1.05,140
0.6,-0.9,148
0.6,-0.75,152
0.6,-0.6,149
0.6,-0.45,141
0.6,-0.3,143
0.6,-0.15,149
0.6,0.0,133
0.6,0.15,145
0.6,0.3,132
0.6,0.45,123
0.6,0.6,129
0.6,0.75,135
0.6,0.9,143
0.6,1.05,144
0.6,1.2,145
0.6,1.35,147
0.6,1.5,149
0.75,-1.5,114
0.75,-1.35,121
0.75,-1.2,128
0.75,-1.05,136
0.75,-0.9,143
0.75,-0.75,148
0.75,-0.6,144
0.75,-0.45,137
0.75,-0.3,134
0.75,-0.15,128
0.75,0.0,103
0.75,0.15,137
0.75,0.3,139
0.75,0.45,131
0.75,0.6,130
0.75,0.75,132
0.75,0.9,137
0.75,1.05,140
0.75,1.2,142
0.75,1.35,145
0.75,1.5,147
0.9,-1.5,116
0.9,-1.35,121
0.9,-1.2,127
0.9,-1.05,132
0.9,-0.9,137
0.9,-0.75,141
0.9,-0.6,142
0.9,-0.45,141
0.9,-0.3,135
0.9,-0.15,142
0.9,0.0,127
0.9,0.15,161
0.9,0.3,141
0.9,0.45,134
0.9,0.6,133
0.9,0.75,132
0.9,0.9,132
0.9,1.05,136
0.9,1.2,141
0.9,1.35,143
0.9,1.5,146
1.05,-1.5,120
1.05,-1.35,123
1.05,-1.2,127
1.05,-1.05,131
1.05,-0.9,134
1.05,-0.75,137
1.05,-0.6,141
1.05,-0.45,142
1.05,-0.3,139
1.05,-0.15,141
1.05,0.0,142
1.05,0.15,145
1.05,0.3,137
1.05,0.45,133
1.05,0.6,132
1.05,0.75,133
1.05,0.9,132
1.05,1.05,136
1.05,1.2,141
1.05,1.35,143
1.05,1.5,146
1.2,-1.5,125
1.2,-1.35,127
1.2,-1.2,130
1.2,-1.05,134
1.2,-0.9,134
1.2,-0.75,134
1.2,-0.6,136
1.2,-0.45,140
1.2,-0.3,141
1.2,-0.15,141
1.2,0.0,141
1.2,0.15,137
1.2,0.3,140
1.2,0.45,137
1.2,0.6,135
1.2,0.75,137
1.2,0.9,139
1.2,1.05,139
1.2,1.2,139
1.2,1.35,139
1.2,1.5,139
1.35,-1.5,133
1.35,-1.35,134
1.35,-1.2,137
1.35,-1.05,139
1.35,-0.9,137
1.35,-0.75,134
1.35,-0.6,134
1.35,-0.45,138
1.35,-0.3,142
1.35,-0.15,142
1.35,0.0,139
1.35,0.15,142
1.35,0.3,148
1.35,0.45,147
1.35,0.6,143
1.35,0.75,143
1.35,0.9,144
1.35,1.05,143
1.35,1.2,137
1.35,1.35,134
1.35,1.5,131
1.5,-1.5,152
1.5,-1.35,149
1.5,-1.2,146
1.5,-1.05,143
1.5,-0.9,139
1.5,-0.75,135
1.5,-0.6,134
1.5,-0.45,140
1.5,-0.3,142
1.5,-0.15,139
1.5,0.0,139
1.5,0.15,139
1.5,0.3,149
1.5,0.45,152
1.5,0.6,149
1.5,0.75,148
1.5,0.9,148
1.5,1.05,144
1.5,1.2,138
1.5,1.35,134
1.5,1.5,131
1.65,-1.5,193
1.65,-1.35,182
1.65,-1.2,164
1.65,-1.05,147
1.65,-0.9,143
1.65,-0.75,138
1.65,-0.6,139
1.65,-0.45,142
1.65,-0.3,142
1.65,-0.15,142
1.65,0.0,141
1.65,0.15,141
1.65,0.3,142
1.65,0.45,145
1.65,0.6,145
1.65,0.75,148
1.65,0.9,148
1.65,1.05,144
1.65,1.2,137
1.65,1.35,133
1.65,1.5,129
1.8,-1.5,198
1.8,-1.35,185
1.8,-1.2,167
1.8,-1.05,152
1.8,-0.9,146
1.8,-0.75,141
1.8,-0.6,139
1.8,-0.45,140
1.8,-0.3,145
1.8,-0.15,144
1.8,0.0,143
1.8,0.15,143
1.8,0.3,141
1.8,0.45,142
1.8,0.6,141
1.8,0.75,146
1.8,0.9,148
1.8,1.05,143
1.8,1.2,137
1.8,1.35,134
1.8,1.5,131
1.95,-1.5,161
1.95,-1.35,157
1.95,-1.2,165
1.95,-1.05,163
1.95,-0.9,147
1.95,-0.75,141
1.95,-0.6,139
1.95,-0.45,140
1.95,-0.3,145
1.95,-0.15,145
1.95,0.0,140
1.95,0.15,142
1.95,0.3,141
1.95,0.45,141
1.95,0.6,141
1.95,0.75,141
1.95,0.9,143
1.95,1.05,145
1.95,1.2,145
1.95,1.35,145
1.95,1.5,145
2.1,-1.5,144
2.1,-1.35,144
2.1,-1.2,160
2.1,-1.05,159
2.1,-0.9,141
2.1,-0.75,139
2.1,-0.6,137
2.1,-0.45,142
2.1,-0.3,145
2.1,-0.15,140
2.1,0.0,140
2.1,0.15,141
2.1,0.3,142
2.1,0.45,141
2.1,0.6,141
2.1,0.75,141
2.1,0.9,141
2.1,1.05,145
2.1,1.2,145
2.1,1.35,145
2.1,1.5,145
2.25,-1.5,141
2.25,-1.35,142
2.25,-1.2,150
2.25,-1.05,149
2.25,-0.9,142
2.25,-0.75,134
2.25,-0.6,141
2.25,-0.45,146
2.25,-0.3,145
2.25,-0.15,140
2.25,0.0,140
2.25,0.15,141
2.25,0.3,142
2.25,0.45,142
2.25,0.6,141
2.25,0.75,141
2.25,0.9,141
2.25,1.05,137
2.25,1.2,134
2.25,1.35,135
2.25,1.5,136
2.4,-1.5,138
2.4,-1.35,139
2.4,-1.2,141
2.4,-1.05,143
2.4,-0.9,145
2.4,-0.75,128
2.4,-0.6,143
2.4,-0.45,150
2.4,-0.3,140
2.4,-0.15,140
2.4,0.0,141
2.4,0.15,142
2.4,0.3,143
2.4,0.45,142
2.4,0.6,143
2.4,0.75,141
2.4,0.9,139
2.4,1.05,130
2.4,1.2,121
2.4,1.35,121
2.4,1.5,123
2.55,-1.5,129
2.55,-1.35,134
2.55,-1.2,139
2.55,-1.05,142
2.55,-0.9,150
2.55,-0.75,138
2.55,-0.6,137
2.55,-0.45,167
2.55,-0.3,141
2.55,-0.15,140
2.55,0.0,140
2.55,0.15,141
2.55,0.3,144
2.55,0.45,143
2.55,0.6,141
2.55,0.75,135
2.55,0.9,129
2.55,1.05,138
2.55,1.2,149
2.55,1.35,155
2.55,1.5,160
2.7,-1.5,118
2.7,-1.35,130
2.7,-1.2,138
2.7,-1.05,141
2.7,-0.9,150
2.7,-0.75,149
2.7,-0.6,138
2.7,-0.45,134
2.7,-0.3,124
2.7,-0.15,140
2.7,0.0,143
2.7,0.15,142
2.7,0.3,147
2.7,0.45,143
2.7,0.6,135
2.7,0.75,126
2.7,0.9,116
2.7,1.05,153
2.7,1.2,193
2.7,1.35,202
2.7,1.5,210
2.85,-1.5,124
2.85,-1.35,134
2.85,-1.2,146
2.85,-1.05,150
2.85,-0.9,152
2.85,-0.75,150
2.85,-0.6,141
2.85,-0.45,139
2.85,-0.3,154
2.85,-0.15,156
2.85,0.0,149
2.85,0.15,143
2.85,0.3,148
2.85,0.45,146
2.85,0.6,141
2.85,0.75,126
2.85,0.9,108
2.85,1.05,142
2.85,1.2,176
2.85,1.35,180
2.85,1.5,182
3.0,-1.5,145
3.0,-1.35,145
3.0,-1.2,158
3.0,-1.05,164
3.0,-0.9,150
3.0,-0.75,142
3.0,-0.6,141
3.0,-0.45,141
3.0,-0.3,141
3.0,-0.15,149
3.0,0.0,143
3.0,0.15,140
3.0,0.3,140
3.0,0.45,149
3.0,0.6,158
3.0,0.75,134
3.0,0.9,105
3.0,1.05,111
3.0,1.2,124
3.0,1.35,117
3.0,1.5,111
3.15,-1.5,146
3.15,-1.35,145
3.15,-1.2,148
3.15,-1.05,148
3.15,-0.9,141
3.15,-0.75,141
3.15,-0.6,150
3.15,-0.45,133
3.15,-0.3,146
3.15,-0.15,141
3.15,0.0,145
3.15,0.15,142
3.15,0.3,140
3.15,0.45,150
3.15,0.6,164
3.15,0.75,139
3.15,0.9,105
3.15,1.05,105
3.15,1.2,110
3.15,1.35,101
3.15,1.5,92
3.3,-1.5,146
3.3,-1.35,143
3.3,-1.2,121
3.3,-1.05,114
3.3,-0.9,139
3.3,-0.75,165
3.3,-0.6,172
3.3,-0.45,139
3.3,-0.3,145
3.3,-0.15,146
3.3,0.0,142
3.3,0.15,140
3.3,0.3,140
3.3,0.45,145
3.3,0.6,154
3.3,0.75,141
3.3,0.9,120
3.3,1.05,109
3.3,1.2,98
3.3,1.35,86
3.3,1.5,75
3.45,-1.5,149
3.45,-1.35,145
3.45,-1.2,123
3.45,-1.05,122
3.45,-0.9,144
3.45,-0.75,152
3.45,-0.6,146
3.45,-0.45,154
3.45,-0.3,145
3.45,-0.15,142
3.45,0.0,144
3.45,0.15,142
3.45,0.3,137
3.45,0.45,142
3.45,0.6,143
3.45,0.75,138
3.45,0.9,126
3.45,1.05,108
3.45,1.2,91
3.45,1.35,78
3.45,1.5,65
3.6,-1.5,153
3.6,-1.35,147
3.6,-1.2,146
3.6,-1.05,150
3.6,-0.9,145
3.6,-0.75,143
3.6,-0.6,146
3.6,-0.45,152
3.6,-0.3,154
3.6,-0.15,142
3.6,0.0,149
3.6,0.15,133
3.6,0.3,146
3.6,0.45,150
3.6,0.6,141
3.6,0.75,129
3.6,0.9,118
3.6,1.05,102
3.6,1.2,87
3.6,1.35,74
3.6,1.5,62
3.75,-1.5,155
3.75,-1.35,150
3.75,-1.2,150
3.75,-1.05,150
3.75,-0.9,143
3.75,-0.75,144
3.75,-0.6,143
3.75,-0.45,142
3.75,-0.3,141
3.75,-0.15,140
3.75,0.0,132
3.75,0.15,151
3.75,0.3,150
3.75,0.45,150
3.75,0.6,139
3.75,0.75,122
3.75,0.9,110
3.75,1.05,96
3.75,1.2,83
3.75,1.35,71
3.75,1.5,59
3.9,-1.5,153
3.9,-1.35,150
3.9,-1.2,146
3.9,-1.05,142
3.9,-0.9,142
3.9,-0.75,142
3.9,-0.6,132
3.9,-0.45,133
3.9,-0.3,154
3.9,-0.15,141
3.9,0.0,143
3.9,0.15,151
3.9,0.3,148
3.9,0.45,150
3.9,0.6,140
3.9,0.75,119
3.9,0.9,107
3.9,1.05,93
3.9,1.2,80
3.9,1.35,67
3.9,1.5,55
4.05,-1.5,148
4.05,-1.35,148
4.05,-1.2,146
4.05,-1.05,142
4.05,-0.9,142
4.05,-0.75,148
4.05,-0.6,151
4.05,-0.45,142
4.05,-0.3,137
4.05,-0.15,152
4.05,0.0,143
4.05,0.15,163
4.05,0.3,141
4.05,0.45,149
4.05,0.6,139
4.05,0.75,119
4.05,0.9,106
4.05,1.05,91
4.05,1.2,77
4.05,1.35,65
4.05,1.5,53
4.2,-1.5,147
4.2,-1.35,146
4.2,-1.2,143
4.2,-1.05,142
4.2,-0.9,142
4.2,-0.75,152
4.2,-0.6,146
4.2,-0.45,149
4.2,-0.3,140
4.2,-0.15,144
4.2,0.0,136
4.2,0.15,120
4.2,0.3,121
4.2,0.45,139
4.2,0.6,137
4.2,0.75,122
4.2,0.9,104
4.2,1.05,91
4.2,1.2,81
4.2,1.35,69
4.2,1.5,59
4.35,-1.5,147
4.35,-1.35,145
4.35,-1.2,142
4.35,-1.05,142
4.35,-0.9,148
4.35,-0.75,152
4.35,-0.6,140
4.35,-0.45,140
4.35,-0.3,140
4.35,-0.15,134
4.35,0.0,132
4.35,0.15,127
4.35,0.3,141
4.35,0.45,140
4.35,0.6,138
4.35,0.75,123
4.35,0.9,100
4.35,1.05,94
4.35,1.2,92
4.35,1.35,85
4.35,1.5,78
4.5,-1.5,147
4.5,-1.35,145
4.5,-1.2,144
4.5,-1.05,148
4.5,-0.9,152
4.5,-0.75,149
4.5,-0.6,142
4.5,-0.45,150
4.5,-0.3,150
4.5,-0.15,109
4.5,0.0,130
4.5,0.15,144
4.5,0.3,145
4.5,0.45,140
4.5,0.6,132
4.5,0.75,120
4.5,0.9,105
4.5,1.05,102
4.5,1.2,101
4.5,1.35,96
4.5,1.5,90
4.65,-1.5,144
4.65,-1.35,144
4.65,-1.2,145
4.65,-1.05,150
4.65,-0.9,148
4.65,-0.75,154
4.65,-0.6,158
4.65,-0.45,146
4.65,-0.3,133
4.65,-0.15,146
4.65,0.0,146
4.65,0.15,145
4.65,0.3,139
4.65,0.45,137
4.65,0.6,133
4.65,0.75,128
4.65,0.9,123
4.65,1.05,121
4.65,1.2,120
4.65,1.35,118
4.65,1.5,116
4.8,-1.5,144
4.8,-1.35,144
4.8,-1.2,144
4.8,-1.05,140
4.8,-0.9,139
4.8,-0.75,145
4.8,-0.6,143
4.8,-0.45,144
4.8,-0.3,133
4.8,-0.15,146
4.8,0.0,138
4.8,0.15,138
4.8,0.3,138
4.8,0.45,144
4.8,0.6,150
4.8,0.75,138
4.8,0.9,130
4.8,1.05,129
4.8,1.2,128
4.8,1.35,127
4.8,1.5,127
4.95,-1.5,144
4.95,-1.35,144
4.95,-1.2,146
4.95,-1.05,140
4.95,-0.9,139
4.95,-0.75,143
4.95,-0.6,143
4.95,-0.45,146
4.95,-0.3,145
4.95,-0.15,141
4.95,0.0,142
4.95,0.15,133
4.95,0.3,136
4.95,0.45,156
4.95,0.6,162
4.95,0.75,144
4.95,0.9,133
4.95,1.05,133
4.95,1.2,135
4.95,1.35,136
4.95,1.5,137
5.1,-1.5,144
5.1,-1.35,144
5.1,-1.2,151
5.1,-1.05,152
5.1,-0.9,139
5.1,-0.75,150
5.1,-0.6,153
5.1,-0.45,148
5.1,-0.3,148
5.1,-0.15,140
5.1,0.0,146
5.1,0.15,133
5.1,0.3,140
5.1,0.45,149
5.1,0.6,150
5.1,0.75,142
5.1,0.9,135
5.1,1.05,137
5.1,1.2,140
5.1,1.35,140
5.1,1.5,140
5.25,-1.5,144
5.25,-1.35,145
5.25,-1.2,157
5.25,-1.05,164
5.25,-0.9,143
5.25,-0.75,133
5.25,-0.6,136
5.25,-0.45,137
5.25,-0.3,142
5.25,-0.15,140
5.25,0.0,144
5.25,0.15,154
5.25,0.3,132
5.25,0.45,124
5.25,0.6,132
5.25,0.75,138
5.25,0.9,139
5.25,1.05,140
5.25,1.2,140
5.25,1.35,140
5.25,1.5,140
5.4,-1.5,146
5.4,-1.35,147
5.4,-1.2,159
5.4,-1.05,164
5.4,-0.9,144
5.4,-0.75,130
5.4,-0.6,137
5.4,-0.45,144
5.4,-0.3,141
5.4,-0.15,140
5.4,0.0,143
5.4,0.15,149
5.4,0.3,124
5.4,0.45,119
5.4,0.6,125
5.4,0.75,135
5.4,0.9,141
5.4,1.05,141
5.4,1.2,140
5.4,1.35,140
5.4,1.5,140
5.55,-1.5,148
5.55,-1.35,149
5.55,-1.2,153
5.55,-1.05,151
5.55,-0.9,141
5.55,-0.75,142
5.55,-0.6,148
5.55,-0.45,150
5.55,-0.3,126
5.55,-0.15,138
5.55,0.0,143
5.55,0.15,143
5.55,0.3,139
5.55,0.45,134
5.55,0.6,134
5.55,0.75,137
5.55,0.9,140
5.55,1.05,141
5.55,1.2,140
5.55,1.35,140
5.55,1.5,140
5.7,-1.5,154
5.7,-1.35,158
5.7,-1.2,150
5.7,-1.05,139
5.7,-0.9,139
5.7,-0.75,139
5.7,-0.6,150
5.7,-0.45,144
5.7,-0.3,141
5.7,-0.15,140
5.7,0.0,141
5.7,0.15,139
5.7,0.3,144
5.7,0.45,142
5.7,0.6,139
5.7,0.75,140
5.7,0.9,139
5.7,1.05,142
5.7,1.2,143
5.7,1.35,145
5.7,1.5,147
5.85,-1.5,156
5.85,-1.35,160
5.85,-1.2,154
5.85,-1.05,139
5.85,-0.9,139
5.85,-0.75,140
5.85,-0.6,139
5.85,-0.45,153
5.85,-0.3,140
5.85,-0.15,141
5.85,0.0,141
5.85,0.15,149
5.85,0.3,161
5.85,0.45,155
5.85,0.6,142
5.85,0.75,140
5.85,0.9,138
5.85,1.05,140
5.85,1.2,144
5.85,1.35,147
5.85,1.5,149
6.0,-1.5,159
6.0,-1.35,160
6.0,-1.2,160
6.0,-1.05,153
6.0,-0.9,143
6.0,-0.75,139
6.0,-0.6,141
6.0,-0.45,140
6.0,-0.3,140
6.0,-0.15,142
6.0,0.0,141
6.0,0.15,141
6.0,0.3,161
6.0,0.45,161
6.0,0.6,146
6.0,0.75,137
6.0,0.9,129
6.0,1.05,135
6.0,1.2,149
6.0,1.35,152
6.0,1.5,155
6.15,-1.5,159
6.15,-1.35,160
6.15,-1.2,160
6.15,-1.05,168
6.15,-0.9,160
6.15,-0.75,139
6.15,-0.6,149
6.15,-0.45,146
6.15,-0.3,146
6.15,-0.15,142
6.15,0.0,146
6.15,0.15,169
6.15,0.3,150
6.15,0.45,141
6.15,0.6,131
6.15,0.75,123
6.15,0.9,119
6.15,1.05,132
6.15,1.2,149
6.15,1.35,153
6.15,1.5,156
6.3,-1.5,148
6.3,-1.35,149
6.3,-1.2,154
6.3,-1.05,158
6.3,-0.9,153
6.3,-0.75,154
6.3,-0.6,139
6.3,-0.45,142
6.3,-0.3,140
6.3,-0.15,140
6.3,0.0,154
6.3,0.15,153
6.3,0.3,99
6.3,0.45,97
6.3,0.6,121
6.3,0.75,113
6.3,0.9,99
6.3,1.05,112
6.3,1.2,123
6.3,1.35,123
6.3,1.5,122
6.45,-1.5,140
6.45,-1.35,140
6.45,-1.2,143
6.45,-1.05,140
6.45,-0.9,143
6.45,-0.75,142
6.45,-0.6,141
6.45,-0.45,139
6.45,-0.3,144
6.45,-0.15,148
6.45,0.0,140
6.45,0.15,141
6.45,0.3,58
6.45,0.45,59
6.45,0.6,100
6.45,0.75,96
6.45,0.9,79
6.45,1.05,92
6.45,1.2,103
6.45,1.35,104
6.45,1.5,103
6.6,-1.5,155
6.6,-1.35,146
6.6,-1.2,140
6.6,-1.05,140
6.6,-0.9,140
6.6,-0.75,140
6.6,-0.6,140
6.6,-0.45,142
6.6,-0.3,135
6.6,-0.15,144
6.6,0.0,140
6.6,0.15,146
6.6,0.3,80
6.6,0.45,66
6.6,0.6,92
6.6,0.75,93
6.6,0.9,100
6.6,1.05,97
6.6,1.2,87
6.6,1.35,87
6.6,1.5,87
6.75,-1.5,171
6.75,-1.35,157
6.75,-1.2,145
6.75,-1.05,141
6.75,-0.9,143
6.75,-0.75,158
6.75,-0.6,140
6.75,-0.45,135
6.75,-0.3,139
6.75,-0.15,135
6.75,0.0,143
6.75,0.15,147
6.75,0.3,117
6.75,0.45,93
6.75,0.6,107
6.75,0.75,106
6.75,0.9,128
6.75,1.05,102
6.75,1.2,61
6.75,1.35,57
6.75,1.5,54
6.9,-1.5,165
6.9,-1.35,157
6.9,-1.2,142
6.9,-1.05,141
6.9,-0.9,158
6.9,-0.75,109
6.9,-0.6,68
6.9,-0.45,131
6.9,-0.3,144
6.9,-0.15,141
6.9,0.0,141
6.9,0.15,167
6.9,0.3,156
6.9,0.45,125
6.9,0.6,120
6.9,0.75,110
6.9,0.9,113
6.9,1.05,55
6.9,1.2,1
6.9,1.35,0
6.9,1.5,1
7.05,-1.5,154
7.05,-1.35,151
7.05,-1.2,123
7.05,-1.05,142
7.05,-0.9,188
7.05,-0.75,105
7.05,-0.6,81
7.05,-0.45,142
7.05,-0.3,144
7.05,-0.15,139
7.05,0.0,128
7.05,0.15,155
7.05,0.3,160
7.05,0.45,152
7.05,0.6,135
7.05,0.75,109
7.05,0.9,82
7.05,1.05,0
7.05,1.2,0
7.05,1.35,0
7.05,1.5,0
7.2,-1.5,139
7.2,-1.35,143
7.2,-1.2,110
7.2,-1.05,126
7.2,-0.9,194
7.2,-0.75,173
7.2,-0.6,144
7.2,-0.45,143
7.2,-0.3,145
7.2,-0.15,143
7.2,0.0,144
7.2,0.15,137
7.2,0.3,142
7.2,0.45,153
7.2,0.6,148
7.2,0.75,122
7.2,0.9,91
7.2,1.05,0
7.2,1.2,0
7.2,1.35,0
7.2,1.5,0
7.35,-1.5,67
7.35,-1.35,93
7.35,-1.2,92
7.35,-1.05,84
7.35,-0.9,136
7.35,-0.75,151
7.35,-0.6,137
7.35,-0.45,145
7.35,-0.3,141
7.35,-0.15,141
7.35,0.0,137
7.35,0.15,143
7.35,0.3,137
7.35,0.45,151
7.35,0.6,153
7.35,0.75,138
7.35,0.9,111
7.35,1.05,71
7.35,1.2,39
7.35,1.35,27
7.35,1.5,19
7.5,-1.5,26
7.5,-1.35,49
7.5,-1.2,65
7.5,-1.05,64
7.5,-0.9,123
7.5,-0.75,158
7.5,-0.6,133
7.5,-0.45,145
7.5,-0.3,145
7.5,-0.15,145
7.5,0.0,141
7.5,0.15,155
7.5,0.3,143
7.5,0.45,145
7.5,0.6,150
7.5,0.75,137
7.5,0.9,118
7.5,1.05,99
7.5,1.2,80
7.5,1.35,68
7.5,1.5,56
7.65,-1.5,26
7.65,-1.35,26
7.65,-1.2,4
7.65,-1.05,0
7.65,-0.9,80
7.65,-0.75,156
7.65,-0.6,165
7.65,-0.45,145
7.65,-0.3,141
7.65,-0.15,145
7.65,0.0,127
7.65,0.15,155
7.65,0.3,147
7.65,0.45,139
7.65,0.6,130
7.65,0.75,133
7.65,0.9,138
7.65,1.05,118
7.65,1.2,92
7.65,1.35,81
7.65,1.5,70
7.8,-1.5,38
7.8,-1.35,28
7.8,-1.2,0
7.8,-1.05,0
7.8,-0.9,18
7.8,-0.75,48
7.8,-0.6,119
7.8,-0.45,181
7.8,-0.3,154
7.8,-0.15,141
7.8,0.0,145
7.8,0.15,172
7.8,0.3,147
7.8,0.45,138
7.8,0.6,130
7.8,0.75,133
7.8,0.9,147
7.8,1.05,128
7.8,1.2,100
7.8,1.35,90
7.8,1.5,80
7.95,-1.5,12
7.95,-1.35,13
7.95,-1.2,4
7.95,-1.05,0
7.95,-0.9,40
7.95,-0.75,96
7.95,-0.6,139
7.95,-0.45,152
7.95,-0.3,139
7.95,-0.15,146
7.95,0.0,139
7.95,0.15,153
7.95,0.3,149
7.95,0.45,142
7.95,0.6,133
7.95,0.75,130
7.95,0.9,133
7.95,1.05,130
7.95,1.2,124
7.95,1.35,122
7.95,1.5,120
8.1,-1.5,5
8.1,-1.35,21
8.1,-1.2,48
8.1,-1.05,36
8.1,-0.9,112
8.1,-0.75,152
8.1,-0.6,144
8.1,-0.45,140
8.1,-0.3,139
8.1,-0.15,141
8.1,0.0,139
8.1,0.15,143
8.1,0.3,148
8.1,0.45,144
8.1,0.6,138
8.1,0.75,130
8.1,0.9,125
8.1,1.05,131
8.1,1.2,145
8.1,1.35,152
8.1,1.5,159
8.25,-1.5,211
8.25,-1.35,192
8.25,-1.2,155
8.25,-1.05,120
8.25,-0.9,152
8.25,-0.75,152
8.25,-0.6,144
8.25,-0.45,139
8.25,-0.3,141
8.25,-0.15,139
8.25,0.0,139
8.25,0.15,143
8.25,0.3,141
8.25,0.45,142
8.25,0.6,141
8.25,0.75,134
8.25,0.9,125
8.25,1.05,127
8.25,1.2,133
8.25,1.35,136
8.25,1.5,139
8.4,-1.5,255
8.4,-1.35,255
8.4,-1.2,251
8.4,-1.05,166
8.4,-0.9,155
8.4,-0.75,144
8.4,-0.6,138
8.4,-0.45,141
8.4,-0.3,139
8.4,-0.15,139
8.4,0.0,152
8.4,0.15,143
8.4,0.3,138
8.4,0.45,138
8.4,0.6,140
8.4,0.75,134
8.4,0.9,124
8.4,1.05,118
8.4,1.2,113
8.4,1.35,108
8.4,1.5,105
8.55,-1.5,255
8.55,-1.35,255
8.55,-1.2,223
8.55,-1.05,162
8.55,-0.9,145
8.55,-0.75,138
8.55,-0.6,144
8.55,-0.45,121
8.55,-0.3,142
8.55,-0.15,139
8.55,0.0,141
8.55,0.15,141
8.55,0.3,138
8.55,0.45,138
8.55,0.6,138
8.55,0.75,133
8.55,0.9,125
8.55,1.05,118
8.55,1.2,111
8.55,1.35,106
8.55,1.5,101
8.7,-1.5,194
8.7,-1.35,175
8.7,-1.2,162
8.7,-1.05,150
8.7,-0.9,138
8.7,-0.75,147
8.7,-0.6,154
8.7,-0.45,142
8.7,-0.3,139
8.7,-0.15,142
8.7,0.0,142
8.7,0.15,140
8.7,0.3,140
8.7,0.45,139
8.7,0.6,138
8.7,0.75,133
8.7,0.9,131
8.7,1.05,124
8.7,1.2,113
8.7,1.35,109
8.7,1.5,105
8.85,-1.5,91
8.85,-1.35,97
8.85,-1.2,125
8.85,-1.05,136
8.85,-0.9,126
8.85,-0.75,134
8.85,-0.6,145
8.85,-0.45,142
8.85,-0.3,142
8.85,-0.15,142
8.85,0.0,140
8.85,0.15,141
8.85,0.3,141
8.85,0.45,138
8.85,0.6,136
8.85,0.75,133
8.85,0.9,133
8.85,1.05,126
8.85,1.2,116
8.85,1.35,113
8.85,1.5,110
9.0,-1.5,91
9.0,-1.35,91
9.0,-1.2,93
9.0,-1.05,98
9.0,-0.9,108
9.0,-0.75,121
9.0,-0.6,137
9.0,-0.45,142
9.0,-0.3,133
9.0,-0.15,141
9.0,0.0,141
9.0,0.15,141
9.0,0.3,140
9.0,0.45,138
9.0,0.6,135
9.0,0.75,133
9.0,0.9,133
9.0,1.05,127
9.0,1.2,121
9.0,1.35,118
9.0,1.5,117
9.15,-1.5,106
9.15,-1.35,92
9.15,-1.2,71
9.15,-1.05,79
9.15,-0.9,115
9.15,-0.75,135
9.15,-0.6,148
9.15,-0.45,147
9.15,-0.3,147
9.15,-0.15,130
9.15,0.0,148
9.15,0.15,142
9.15,0.3,145
9.15,0.45,142
9.15,0.6,138
9.15,0.75,135
9.15,0.9,133
9.15,1.05,127
9.15,1.2,120
9.15,1.35,118
9.15,1.5,116
9.3,-1.5,78
9.3,-1.35,70
9.3,-1.2,67
9.3,-1.05,93
9.3,-0.9,137
9.3,-0.75,148
9.3,-0.6,140
9.3,-0.45,144
9.3,-0.3,147
9.3,-0.15,147
9.3,0.0,155
9.3,0.15,141
9.3,0.3,149
9.3,0.45,147
9.3,0.6,141
9.3,0.75,135
9.3,0.9,129
9.3,1.05,123
9.3,1.2,118
9.3,1.35,114
9.3,1.5,112
9.45,-1.5,71
9.45,-1.35,69
9.45,-1.2,76
9.45,-1.05,102
9.45,-0.9,154
9.45,-0.75,167
9.45,-0.6,150
9.45,-0.45,139
9.45,-0.3,147
9.45,-0.15,145
9.45,0.0,147
9.45,0.15,141
9.45,0.3,150
9.45,0.45,148
9.45,0.6,143
9.45,0.75,133
9.45,0.9,120
9.45,1.05,116
9.45,1.2,114
9.45,1.35,110
9.45,1.5,106
9.6,-1.5,107
9.6,-1.35,105
9.6,-1.2,116
9.6,-1.05,127
9.6,-0.9,146
9.6,-0.75,152
9.6,-0.6,138
9.6,-0.45,137
9.6,-0.3,140
9.6,-0.15,147
9.6,0.0,147
9.6,0.15,141
9.6,0.3,145
9.6,0.45,145
9.6,0.6,142
9.6,0.75,131
9.6,0.9,120
9.6,1.05,116
9.6,1.2,113
9.6,1.35,108
9.6,1.5,103
9.75,-1.5,142
9.75,-1.35,147
9.75,-1.2,167
9.75,-1.05,158
9.75,-0.9,136
9.75,-0.75,156
9.75,-0.6,151
9.75,-0.45,139
9.75,-0.3,127
9.75,-0.15,147
9.75,0.0,147
9.75,0.15,135
9.75,0.3,133
9.75,0.45,135
9.75,0.6,130
9.75,0.75,124
9.75,0.9,123
9.75,1.05,121
9.75,1.2,114
9.75,1.35,107
9.75,1.5,101
9.9,-1.5,184
9.9,-1.35,187
9.9,-1.2,190
9.9,-1.05,172
9.9,-0.9,156
9.9,-0.75,143
9.9,-0.6,153
9.9,-0.45,125
9.9,-0.3,141
9.9,-0.15,137
9.9,0.0,141
9.9,0.15,136
9.9,0.3,131
9.9,0.45,126
9.9,0.6,123
9.9,0.75,123
9.9,0.9,129
9.9,1.05,129
9.9,1.2,122
9.9,1.35,119
9.9,1.5,115
10.05,-1.5,245
10.05,-1.35,223
10.05,-1.2,190
10.05,-1.05,168
10.05,-0.9,170
10.05,-0.75,168
10.05,-0.6,147
10.05,-0.45,193
10.05,-0.3,136
10.05,-0.15,136
10.05,0.0,141
10.05,0.15,144
10.05,0.3,135
10.05,0.45,125
10.05,0.6,123
10.05,0.75,134
10.05,0.9,161
10.05,1.05,177
10.05,1.2,188
10.05,1.35,200
10.05,1.5,209
10.2,-1.5,247
10.2,-1.35,220
10.2,-1.2,178
10.2,-1.05,155
10.2,-0.9,158
10.2,-0.75,147
10.2,-0.6,148
10.2,-0.45,139
10.2,-0.3,145
10.2,-0.15,145
10.2,0.0,142
10.2,0.15,152
10.2,0.3,144
10.2,0.45,132
10.2,0.6,123
10.2,0.75,143
10.2,0.9,181
10.2,1.05,209
10.2,1.2,230
10.2,1.35,248
10.2,1.5,255
10.35,-1.5,177
10.35,-1.35,168
10.35,-1.2,146
10.35,-1.05,134
10.35,-0.9,143
10.35,-0.75,150
10.35,-0.6,143
10.35,-0.45,143
10.35,-0.3,145
10.35,-0.15,146
10.35,0.0,141
10.35,0.15,148
10.35,0.3,147
10.35,0.45,140
10.35,0.6,136
10.35,0.75,149
10.35,0.9,175
10.35,1.05,196
10.35,1.2,211
10.35,1.35,221
10.35,1.5,227
10.5,-1.5,128
10.5,-1.35,130
10.5,-1.2,127
10.5,-1.05,132
10.5,-0.9,147
10.5,-0.75,159
10.5,-0.6,141
10.5,-0.45,140
10.5,-0.3,146
10.5,-0.15,143
10.5,0.0,141
10.5,0.15,141
10.5,0.3,136
10.5,0.45,136
10.5,0.6,150
10.5,0.75,170
10.5,0.9,189
10.5,1.05,205
10.5,1.2,213
10.5,1.35,216
10.5,1.5,216
10.65,-1.5,121
10.65,-1.35,124
10.65,-1.2,126
10.65,-1.05,135
10.65,-0.9,153
10.65,-0.75,159
10.65,-0.6,144
10.65,-0.45,129
10.65,-0.3,139
10.65,-0.15,146
10.65,0.0,143
10.65,0.15,154
10.65,0.3,137
10.65,0.45,136
10.65,0.6,168
10.65,0.75,202
10.65,0.9,223
10.65,1.05,234
10.65,1.2,234
10.65,1.35,231
10.65,1.5,224
10.8,-1.5,113
10.8,-1.35,118
10.8,-1.2,123
10.8,-1.05,134
10.8,-0.9,148
10.8,-0.75,145
10.8,-0.6,138
10.8,-0.45,133
10.8,-0.3,133
10.8,-0.15,145
10.8,0.0,154
10.8,0.15,167
10.8,0.3,150
10.8,0.45,155
10.8,0.6,199
10.8,0.75,238
10.8,0.9,255
10.8,1.05,251
10.8,1.2,233
10.8,1.35,221
10.8,1.5,204
10.95,-1.5,119
10.95,-1.35,123
10.95,-1.2,125
10.95,-1.05,130
10.95,-0.9,139
10.95,-0.75,140
10.95,-0.6,140
10.95,-0.45,139
10.95,-0.3,136
10.95,-0.15,144
10.95,0.0,153
10.95,0.15,148
10.95,0.3,140
10.95,0.45,181
10.95,0.6,225
10.95,0.75,255
10.95,0.9,255
10.95,1.05,255
10.95,1.2,242
10.95,1.35,229
10.95,1.5,212
11.1,-1.5,129
11.1,-1.35,129
11.1,-1.2,129
11.1,-1.05,130
11.1,-0.9,141
11.1,-0.75,142
11.1,-0.6,142
11.1,-0.45,142
11.1,-0.3,141
11.1,-0.15,147
11.1,0.0,150
11.1,0.15,143
11.1,0.3,134
11.1,0.45,179
11.1,0.6,220
11.1,0.75,248
11.1,0.9,255
11.1,1.05,255
11.1,1.2,252
11.1,1.35,245
11.1,1.5,235
11.25,-1.5,121
11.25,-1.35,125
11.25,-1.2,125
11.25,-1.05,133
11.25,-0.9,141
11.25,-0.75,138
11.25,-0.6,130
11.25,-0.45,141
11.25,-0.3,147
11.25,-0.15,141
11.25,0.0,145
11.25,0.15,171
11.25,0.3,173
11.25,0.45,170
11.25,0.6,192
11.25,0.75,229
11.25,0.9,255
11.25,1.05,251
11.25,1.2,240
11.25,1.35,237
11.25,1.5,231
11.4,-1.5,92
11.4,-1.35,102
11.4,-1.2,122
11.4,-1.05,138
11.4,-0.9,135
11.4,-0.75,131
11.4,-0.6,123
11.4,-0.45,142
11.4,-0.3,137
11.4,-0.15,132
11.4,0.0,142
11.4,0.15,167
11.4,0.3,166
11.4,0.45,140
11.4,0.6,127
11.4,0.75,190
11.4,0.9,245
11.4,1.05,232
11.4,1.2,216
11.4,1.35,217
11.4,1.5,214
11.55,-1.5,85
11.55,-1.35,95
11.55,-1.2,115
11.55,-1.05,128
11.55,-0.9,129
11.55,-0.75,146
11.55,-0.6,150
11.55,-0.45,150
11.55,-0.3,133
11.55,-0.15,142
11.55,0.0,147
11.55,0.15,155
11.55,0.3,150
11.55,0.45,128
11.55,0.6,110
11.55,0.75,169
11.55,0.9,228
11.55,1.05,210
11.55,1.2,192
11.55,1.35,196
11.55,1.5,196
11.7,-1.5,104
11.7,-1.35,107
11.7,-1.2,108
11.7,-1.05,114
11.7,-0.9,125
11.7,-0.75,149
11.7,-0.6,148
11.7,-0.45,134
11.7,-0.3,151
11.7,-0.15,161
11.7,0.0,142
11.7,0.15,143
11.7,0.3,141
11.7,0.45,137
11.7,0.6,133
11.7,0.75,138
11.7,0.9,150
11.7,1.05,177
11.7,1.2,197
11.7,1.35,202
11.7,1.5,203
11.85,-1.5,106
11.85,-1.35,107
11.85,-1.2,105
11.85,-1.05,112
11.85,-0.9,121
11.85,-0.75,148
11.85,-0.6,165
11.85,-0.45,140
11.85,-0.3,156
11.85,-0.15,160
11.85,0.0,138
11.85,0.15,138
11.85,0.3,138
11.85,0.45,142
11.85,0.6,145
11.85,0.75,125
11.85,0.9,108
11.85,1.05,162
11.85,1.2,206
11.85,1.35,210
11.85,1.5,212
12.0,-1.5,98
12.0,-1.35,102
12.0,-1.2,106
12.0,-1.05,114
12.0,-0.9,116
12.0,-0.75,129
12.0,-0.6,145
12.0,-0.45,146
12.0,-0.3,140
12.0,-0.15,144
12.0,0.0,138
12.0,0.15,138
12.0,0.3,143
12.0,0.45,147
12.0,0.6,149
12.0,0.75,141
12.0,0.9,133
12.0,1.05,144
12.0,1.2,157
12.0,1.35,160
12.0,1.5,163
12.15,-1.5,111
12.15,-1.35,113
12.15,-1.2,110
12.15,-1.05,114
12.15,-0.9,119
12.15,-0.75,133
12.15,-0.6,140
12.15,-0.45,140
12.15,-0.3,140
12.15,-0.15,144
12.15,0.0,138
12.15,0.15,138
12.15,0.3,148
12.15,0.45,153
12.15,0.6,154
12.15,0.75,155
12.15,0.9,153
12.15,1.05,130
12.15,1.2,113
12.15,1.35,113
12.15,1.5,116
12.3,-1.5,127
12.3,-1.35,126
12.3,-1.2,117
12.3,-1.05,115
12.3,-0.9,125
12.3,-0.75,139
12.3,-0.6,149
12.3,-0.45,144
12.3,-0.3,140
12.3,-0.15,144
12.3,0.0,141
12.3,0.15,139
12.3,0.3,149
12.3,0.45,155
12.3,0.6,157
12.3,0.75,157
12.3,0.9,154
12.3,1.05,139
12.3,1.2,126
12.3,1.35,125
12.3,1.5,125
12.45,-1.5,144
12.45,-1.35,139
12.45,-1.2,128
12.45,-1.05,122
12.45,-0.9,126
12.45,-0.75,135
12.45,-0.6,139
12.45,-0.45,139
12.45,-0.3,140
12.45,-0.15,140
12.45,0.0,139
12.45,0.15,140
12.45,0.3,146
12.45,0.45,156
12.45,0.6,161
12.45,0.75,158
12.45,0.9,154
12.45,1.05,150
12.45,1.2,147
12.45,1.35,144
12.45,1.5,142
12.6,-1.5,148
12.6,-1.35,142
12.6,-1.2,132
12.6,-1.05,124
12.6,-0.9,122
12.6,-0.75,131
12.6,-0.6,148
12.6,-0.45,147
12.6,-0.3,137
12.6,-0.15,123
12.6,0.0,132
12.6,0.15,142
12.6,0.3,147
12.6,0.45,156
12.6,0.6,164
12.6,0.75,160
12.6,0.9,154
12.6,1.05,151
12.6,1.2,148
12.6,1.35,146
12.6,1.5,143
12.75,-1.5,151
12.75,-1.35,144
12.75,-1.2,131
12.75,-1.05,116
12.75,-0.9,122
12.75,-0.75,133
12.75,-0.6,136
12.75,-0.45,149
12.75,-0.3,134
12.75,-0.15,117
12.75,0.0,131
12.75,0.15,147
12.75,0.3,149
12.75,0.45,160
12.75,0.6,172
12.75,0.75,166
12.75,0.9,157
12.75,1.05,151
12.75,1.2,146
12.75,1.35,143
12.75,1.5,143
12.9,-1.5,146
12.9,-1.35,137
12.9,-1.2,122
12.9,-1.05,106
12.9,-0.9,118
12.9,-0.75,141
12.9,-0.6,146
12.9,-0.45,151
12.9,-0.3,126
12.9,-0.15,115
12.9,0.0,136
12.9,0.15,153
12.9,0.3,153
12.9,0.45,166
12.9,0.6,180
12.9,0.75,168
12.9,0.9,155
12.9,1.05,150
12.9,1.2,145
12.9,1.35,143
12.9,1.5,143
13.05,-1.5,135
13.05,-1.35,125
13.05,-1.2,110
13.05,-1.05,95
13.05,-0.9,109
13.05,-0.75,144
13.05,-0.6,145
13.05,-0.45,137
13.05,-0.3,111
13.05,-0.15,113
13.05,0.0,138
13.05,0.15,157
13.05,0.3,159
13.05,0.45,172
13.05,0.6,185
13.05,0.75,168
13.05,0.9,152
13.05,1.05,148
13.05,1.2,145
13.05,1.35,143
13.05,1.5,143
