-3.0,-1.5,133
-3.0,-1.35,133
-3.0,-1.2,133
-3.0,-1.05,133
-3.0,-0.9,133
-3.0,-0.75,133
-3.0,-0.6,133
-3.0,-0.45,133
-3.0,-0.3,133
-3.0,-0.15,133
-3.0,0.0,133
-3.0,0.15,133
-3.0,0.3,133
-3.0,0.45,133
-3.0,0.6,133
-3.0,0.75,132
-3.0,0.9,131
-3.0,1.05,130
-3.0,1.2,129
-3.0,1.35,129
-3.0,1.5,128
-2.85,-1.5,133
-2.85,-1.35,133
-2.85,-1.2,133
-2.85,-1.05,133
-2.85,-0.9,133
-2.85,-0.75,133
-2.85,-0.6,133
-2.85,-0.45,133
-2.85,-0.3,133
-2.85,-0.15,133
-2.85,0.0,133
-2.85,0.15,133
-2.85,0.3,133
-2.85,0.45,133
-2.85,0.6,133
-2.85,0.75,131
-2.85,0.9,130
-2.85,1.05,129
-2.85,1.2,129
-2.85,1.35,128
-2.85,1.5,128
-2.7,-1.5,133
-2.7,-1.35,133
-2.7,-1.2,133
-2.7,-1.05,133
-2.7,-0.9,133
-2.7,-0.75,133
-2.7,-0.6,133
-2.7,-0.45,133
-2.7,-0.3,133
-2.7,-0.15,133
-2.7,0.0,133
-2.7,0.15,133
-2.7,0.3,133
-2.7,0.45,133
-2.7,0.6,132
-2.7,0.75,131
-2.7,0.9,130
-2.7,1.05,129
-2.7,1.2,128
-2.7,1.35,128
-2.7,1.5,128
-2.55,-1.5,133
-2.55,-1.35,133
-2.55,-1.2,133
-2.55,-1.05,133
-2.55,-0.9,133
-2.55,-0.75,133
-2.55,-0.6,133
-2.55,-0.45,133
-2.55,-0.3,133
-2.55,-0.15,133
-2.55,0.0,133
-2.55,0.15,133
-2.55,0.3,133
-2.55,0.45,133
-2.55,0.6,132
-2.55,0.75,130
-2.55,0.9,129
-2.55,1.05,128
-2.55,1.2,128
-2.55,1.35,128
-2.55,1.5,128
-2.4,-1.5,133
-2.4,-1.35,133
-2.4,-1.2,133
-2.4,-1.05,133
-2.4,-0.9,133
-2.4,-0.75,133
-2.4,-0.6,133
-2.4,-0.45,133
-2.4,-0.3,133
-2.4,-0.15,133
-2.4,0.0,133
-2.4,0.15,133
-2.4,0.3,133
-2.4,0.45,133
-2.4,0.6,131
-2.4,0.75,129
-2.4,0.9,128
-2.4,1.05,128
-2.4,1.2,128
-2.4,1.35,128
-2.4,1.5,128
-2.25,-1.5,133
-2.25,-1.35,133
-2.25,-1.2,133
-2.25,-1.05,133
-2.25,-0.9,133
-2.25,-0.75,133
-2.25,-0.6,133
-2.25,-0.45,133
-2.25,-0.3,133
-2.25,-0.15,133
-2.25,0.0,133
-2.25,0.15,133
-2.25,0.3,133
-2.25,0.45,132
-2.25,0.6,130
-2.25,0.75,129
-2.25,0.9,128
-2.25,1.05,128
-2.25,1.2,128
-2.25,1.35,128
-2.25,1.5,128
-2.1,-1.5,133
-2.1,-1.35,133
-2.1,-1.2,133
-2.1,-1.05,133
-2.1,-0.9,133
-2.1,-0.75,133
-2.1,-0.6,133
-2.1,-0.45,133
-2.1,-0.3,133
-2.1,-0.15,133
-2.1,0.0,133
-2.1,0.15,133
-2.1,0.3,133
-2.1,0.45,131
-2.1,0.6,129
-2.1,0.75,128
-2.1,0.9,128
-2.1,1.05,128
-2.1,1.2,128
-2.1,1.35,128
-2.1,1.5,128
-1.95,-1.5,133
-1.95,-1.35,133
-1.95,-1.2,133
-1.95,-1.05,133
-1.95,-0.9,133
-1.95,-0.75,133
-1.95,-0.6,133
-1.95,-0.45,133
-1.95,-0.3,133
-1.95,-0.15,133
-1.95,0.0,133
-1.95,0.15,133
-1.95,0.3,132
-1.95,0.45,130
-1.95,0.6,129
-1.95,0.75,128
-1.95,0.9,128
-1.95,1.05,128
-1.95,1.2,128
-1.95,1.35,128
-1.95,1.5,128
-1.8,-1.5,133
-1.8,-1.35,133
-1.8,-1.2,133
-1.8,-1.05,133
-1.8,-0.9,133
-1.8,-0.75,133
-1.8,-0.6,133
-1.8,-0.45,133
-1.8,-0.3,133
-1.8,-0.15,133
-1.8,0.0,133
-1.8,0.15,132
-1.8,0.3,131
-1.8,0.45,130
-1.8,0.6,129
-1.8,0.75,128
-1.8,0.9,128
-1.8,1.05,128
-1.8,1.2,128
-1.8,1.35,128
-1.8,1.5,128
-1.65,-1.5,133
-1.65,-1.35,133
-1.65,-1.2,133
-1.65,-1.05,133
-1.65,-0.9,133
-1.65,-0.75,133
-1.65,-0.6,133
-1.65,-0.45,133
-1.65,-0.3,133
-1.65,-0.15,133
-1.65,0.0,132
-1.65,0.15,131
-1.65,0.3,130
-1.65,0.45,129
-1.65,0.6,129
-1.65,0.75,128
-1.65,0.9,128
-1.65,1.05,128
-1.65,1.2,128
-1.65,1.35,128
-1.65,1.5,128
-1.5,-1.5,139
-1.5,-1.35,139
-1.5,-1.2,138
-1.5,-1.05,135
-1.5,-0.9,134
-1.5,-0.75,132
-1.5,-0.6,133
-1.5,-0.45,133
-1.5,-0.3,133
-1.5,-0.15,132
-1.5,0.0,132
-1.5,0.15,131
-1.5,0.3,130
-1.5,0.45,129
-1.5,0.6,129
-1.5,0.75,128
-1.5,0.9,128
-1.5,1.05,128
-1.5,1.2,128
-1.5,1.35,128
-1.5,1.5,128
-1.35,-1.5,154
-1.35,-1.35,154
-1.35,-1.2,147
-1.35,-1.05,138
-1.35,-0.9,135
-1.35,-0.75,132
-1.35,-0.6,132
-1.35,-0.45,133
-1.35,-0.3,132
-1.35,-0.15,132
-1.35,0.0,132
-1.35,0.15,131
-1.35,0.3,130
-1.35,0.45,129
-1.35,0.6,129
-1.35,0.75,128
-1.35,0.9,128
-1.35,1.05,128
-1.35,1.2,128
-1.35,1.35,128
-1.35,1.5,128
-1.2,-1.5,165
-1.2,-1.35,163
-1.2,-1.2,156
-1.2,-1.05,147
-1.2,-0.9,140
-1.2,-0.75,132
-1.2,-0.6,132
-1.2,-0.45,131
-1.2,-0.3,130
-1.2,-0.15,131
-1.2,0.0,131
-1.2,0.15,130
-1.2,0.3,130
-1.2,0.45,129
-1.2,0.6,129
-1.2,0.75,129
-1.2,0.9,128
-1.2,1.05,128
-1.2,1.2,128
-1.2,1.35,128
-1.2,1.5,128
-1.05,-1.5,180
-1.05,-1.35,175
-1.05,-1.2,172
-1.05,-1.05,171
-1.05,-0.9,156
-1.05,-0.75,136
-1.05,-0.6,132
-1.05,-0.45,130
-1.05,-0.3,130
-1.05,-0.15,130
-1.05,0.0,130
-1.05,0.15,130
-1.05,0.3,130
-1.05,0.45,129
-1.05,0.6,129
-1.05,0.75,129
-1.05,0.9,128
-1.05,1.05,128
-1.05,1.2,128
-1.05,1.35,128
-1.05,1.5,128
-0.9,-1.5,185
-0.9,-1.35,180
-0.9,-1.2,179
-0.9,-1.05,180
-0.9,-0.9,166
-0.9,-0.75,147
-0.9,-0.6,140
-0.9,-0.45,130
-0.9,-0.3,130
-0.9,-0.15,130
-0.9,0.0,130
-0.9,0.15,130
-0.9,0.3,130
-0.9,0.45,130
-0.9,0.6,129
-0.9,0.75,129
-0.9,0.9,128
-0.9,1.05,128
-0.9,1.2,128
-0.9,1.35,128
-0.9,1.5,128
-0.75,-1.5,199
-0.75,-1.35,193
-0.75,-1.2,189
-0.75,-1.05,189
-0.75,-0.9,189
-0.75,-0.75,190
-0.75,-0.6,174
-0.75,-0.45,151
-0.75,-0.3,141
-0.75,-0.15,130
-0.75,0.0,130
-0.75,0.15,130
-0.75,0.3,130
-0.75,0.45,130
-0.75,0.6,129
-0.75,0.75,129
-0.75,0.9,129
-0.75,1.05,128
-0.75,1.2,128
-0.75,1.35,128
-0.75,1.5,128
-0.6,-1.5,202
-0.6,-1.35,196
-0.6,-1.2,193
-0.6,-1.05,192
-0.6,-0.9,197
-0.6,-0.75,205
-0.6,-0.6,187
-0.6,-0.45,163
-0.6,-0.3,150
-0.6,-0.15,130
-0.6,0.0,130
-0.6,0.15,130
-0.6,0.3,130
-0.6,0.45,130
-0.6,0.6,130
-0.6,0.75,130
-0.6,0.9,129
-0.6,1.05,128
-0.6,1.2,128
-0.6,1.35,128
-0.6,1.5,129
-0.45,-1.5,185
-0.45,-1.35,179
-0.45,-1.2,186
-0.45,-1.05,197
-0.45,-0.9,197
-0.45,-0.75,195
-0.45,-0.6,185
-0.45,-0.45,175
-0.45,-0.3,162
-0.45,-0.15,143
-0.45,0.0,134
-0.45,0.15,130
-0.45,0.3,132
-0.45,0.45,133
-0.45,0.6,134
-0.45,0.75,131
-0.45,0.9,128
-0.45,1.05,130
-0.45,1.2,130
-0.45,1.35,130
-0.45,1.5,130
-0.3,-1.5,177
-0.3,-1.35,171
-0.3,-1.2,182
-0.3,-1.05,197
-0.3,-0.9,194
-0.3,-0.75,187
-0.3,-0.6,182
-0.3,-0.45,179
-0.3,-0.3,168
-0.3,-0.15,155
-0.3,0.0,142
-0.3,0.15,130
-0.3,0.3,133
-0.3,0.45,136
-0.3,0.6,138
-0.3,0.75,135
-0.3,0.9,131
-0.3,1.05,128
-0.3,1.2,128
-0.3,1.35,130
-0.3,1.5,130
-0.15,-1.5,165
-0.15,-1.35,162
-0.15,-1.2,171
-0.15,-1.05,182
-0.15,-0.9,181
-0.15,-0.75,182
-0.15,-0.6,178
-0.15,-0.45,174
-0.15,-0.3,167
-0.15,-0.15,161
-0.15,0.0,149
-0.15,0.15,132
-0.15,0.3,130
-0.15,0.45,135
-0.15,0.6,139
-0.15,0.75,139
-0.15,0.9,133
-0.15,1.05,128
-0.15,1.2,127
-0.15,1.35,130
-0.15,1.5,130
0.0,-1.5,147
0.0,-1.35,147
0.0,-1.2,157
0.0,-1.05,165
0.0,-0.9,168
0.0,-0.75,176
0.0,-0.6,171
0.0,-0.45,166
0.0,-0.3,162
0.0,-0.15,161
0.0,0.0,158
0.0,0.15,139
0.0,0.3,130
0.0,0.45,136
0.0,0.6,144
0.0,0.75,138
0.0,0.9,130
0.0,1.05,127
0.0,1.2,127
0.0,1.35,127
0.0,1.5,128
0.15,-1.5,137
0.15,-1.35,138
0.15,-1.2,146
0.15,-1.05,153
0.15,-0.9,156
0.15,-0.75,162
0.15,-0.6,157
0.15,-0.45,153
0.15,-0.3,149
0.15,-0.15,151
0.15,0.0,153
0.15,0.15,141
0.15,0.3,130
0.15,0.45,137
0.15,0.6,143
0.15,0.75,140
0.15,0.9,135
0.15,1.05,126
0.15,1.2,123
0.15,1.35,123
0.15,1.5,125
0.3,-1.5,115
0.3,-1.35,117
0.3,-1.2,122
0.3,-1.05,126
0.3,-0.9,135
0.3,-0.75,145
0.3,-0.6,142
0.3,-0.45,138
0.3,-0.3,130
0.3,-0.15,128
0.3,0.0,134
0.3,0.15,141
0.3,0.3,129
0.3,0.45,126
0.3,0.6,122
0.3,0.75,138
0.3,0.9,131
0.3,1.05,115
0.3,1.2,117
0.3,1.35,119
0.3,1.5,122
0.45,-1.5,109
0.45,-1.35,112
0.45,-1.2,117
0.45,-1.05,120
0.45,-0.9,129
0.45,-0.75,138
0.45,-0.6,134
0.45,-0.45,124
0.45,-0.3,112
0.45,-0.15,107
0.45,0.0,119
0.45,0.15,140
0.45,0.3,130
0.45,0.45,129
0.45,0.6,127
0.45,0.75,134
0.45,0.9,119
0.45,1.05,108
0.45,1.2,111
0.45,1.35,113
0.45,1.5,113
0.6,-1.5,109
0.6,-1.35,112
0.6,-1.2,116
0.6,-1.05,119
0.6,-0.9,124
0.6,-0.75,128
0.6,-0.6,128
0.6,-0.45,120
0.6,-0.3,109
0.6,-0.15,103
0.6,0.0,119
0.6,0.15,131
0.6,0.3,131
0.6,0.45,133
0.6,0.6,133
0.6,0.75,132
0.6,0.9,127
0.6,1.05,115
0.6,1.2,104
0.6,1.35,93
0.6,1.5,84
0.75,-1.5,109
0.75,-1.35,113
0.75,-1.2,115
0.75,-1.05,117
0.75,-0.9,121
0.75,-0.75,125
0.75,-0.6,128
0.75,-0.45,123
0.75,-0.3,115
0.75,-0.15,109
0.75,0.0,119
0.75,0.15,128
0.75,0.3,130
0.75,0.45,131
0.75,0.6,128
0.75,0.75,133
0.75,0.9,133
0.75,1.05,128
0.75,1.2,110
0.75,1.35,93
0.75,1.5,78
0.9,-1.5,116
0.9,-1.35,118
0.9,-1.2,118
0.9,-1.05,118
0.9,-0.9,121
0.9,-0.75,125
0.9,-0.6,130
0.9,-0.45,132
0.9,-0.3,127
0.9,-0.15,125
0.9,0.0,128
0.9,0.15,129
0.9,0.3,128
0.9,0.45,128
0.9,0.6,130
0.9,0.75,133
0.9,0.9,133
0.9,1.05,129
0.9,1.2,115
0.9,1.35,99
0.9,1.5,84
1.05,-1.5,120
1.05,-1.35,122
1.05,-1.2,120
1.05,-1.05,119
1.05,-0.9,121
1.05,-0.75,123
1.05,-0.6,130
1.05,-0.45,136
1.05,-0.3,135
1.05,-0.15,135
1.05,0.0,135
1.05,0.15,132
1.05,0.3,130
1.05,0.45,130
1.05,0.6,132
1.05,0.75,133
1.05,0.9,132
1.05,1.05,127
1.05,1.2,115
1.05,1.35,100
1.05,1.5,85
1.2,-1.5,121
1.2,-1.35,122
1.2,-1.2,122
1.2,-1.05,121
1.2,-0.9,122
1.2,-0.75,124
1.2,-0.6,129
1.2,-0.45,135
1.2,-0.3,136
1.2,-0.15,138
1.2,0.0,137
1.2,0.15,133
1.2,0.3,130
1.2,0.45,129
1.2,0.6,130
1.2,0.75,131
1.2,0.9,130
1.2,1.05,127
1.2,1.2,120
1.2,1.35,111
1.2,1.5,102
1.35,-1.5,122
1.35,-1.35,123
1.35,-1.2,124
1.35,-1.05,124
1.35,-0.9,124
1.35,-0.75,124
1.35,-0.6,127
1.35,-0.45,130
1.35,-0.3,133
1.35,-0.15,135
1.35,0.0,134
1.35,0.15,132
1.35,0.3,130
1.35,0.45,129
1.35,0.6,128
1.35,0.75,128
1.35,0.9,128
1.35,1.05,128
1.35,1.2,126
1.35,1.35,125
1.35,1.5,123
1.5,-1.5,127
1.5,-1.35,127
1.5,-1.2,126
1.5,-1.05,125
1.5,-0.9,123
1.5,-0.75,122
1.5,-0.6,125
1.5,-0.45,128
1.5,-0.3,131
1.5,-0.15,130
1.5,0.0,129
1.5,0.15,130
1.5,0.3,131
1.5,0.45,130
1.5,0.6,128
1.5,0.75,128
1.5,0.9,128
1.5,1.05,128
1.5,1.2,128
1.5,1.35,127
1.5,1.5,127
1.65,-1.5,141
1.65,-1.35,138
1.65,-1.2,132
1.65,-1.05,127
1.65,-0.9,121
1.65,-0.75,117
1.65,-0.6,122
1.65,-0.45,127
1.65,-0.3,130
1.65,-0.15,129
1.65,0.0,129
1.65,0.15,131
1.65,0.3,131
1.65,0.45,128
1.65,0.6,128
1.65,0.75,128
1.65,0.9,128
1.65,1.05,128
1.65,1.2,128
1.65,1.35,128
1.65,1.5,128
1.8,-1.5,142
1.8,-1.35,141
1.8,-1.2,134
1.8,-1.05,128
1.8,-0.9,122
1.8,-0.75,116
1.8,-0.6,121
1.8,-0.45,127
1.8,-0.3,129
1.8,-0.15,130
1.8,0.0,130
1.8,0.15,131
1.8,0.3,131
1.8,0.45,128
1.8,0.6,128
1.8,0.75,128
1.8,0.9,128
1.8,1.05,128
1.8,1.2,128
1.8,1.35,128
1.8,1.5,128
1.95,-1.5,142
1.95,-1.35,141
1.95,-1.2,139
1.95,-1.05,135
1.95,-0.9,130
1.95,-0.75,125
1.95,-0.6,124
1.95,-0.45,125
1.95,-0.3,127
1.95,-0.15,129
1.95,0.0,130
1.95,0.15,131
1.95,0.3,130
1.95,0.45,129
1.95,0.6,128
1.95,0.75,128
1.95,0.9,128
1.95,1.05,128
1.95,1.2,128
1.95,1.35,128
1.95,1.5,128
2.1,-1.5,144
2.1,-1.35,144
2.1,-1.2,144
2.1,-1.05,140
2.1,-0.9,134
2.1,-0.75,129
2.1,-0.6,126
2.1,-0.45,124
2.1,-0.3,128
2.1,-0.15,132
2.1,0.0,130
2.1,0.15,131
2.1,0.3,130
2.1,0.45,131
2.1,0.6,128
2.1,0.75,128
2.1,0.9,128
2.1,1.05,128
2.1,1.2,128
2.1,1.35,127
2.1,1.5,127
2.25,-1.5,138
2.25,-1.35,141
2.25,-1.2,145
2.25,-1.05,145
2.25,-0.9,140
2.25,-0.75,133
2.25,-0.6,124
2.25,-0.45,124
2.25,-0.3,129
2.25,-0.15,132
2.25,0.0,129
2.25,0.15,129
2.25,0.3,131
2.25,0.45,131
2.25,0.6,131
2.25,0.75,129
2.25,0.9,129
2.25,1.05,129
2.25,1.2,129
2.25,1.35,125
2.25,1.5,122
2.4,-1.5,133
2.4,-1.35,138
2.4,-1.2,146
2.4,-1.05,150
2.4,-0.9,147
2.4,-0.75,138
2.4,-0.6,126
2.4,-0.45,124
2.4,-0.3,130
2.4,-0.15,132
2.4,0.0,132
2.4,0.15,129
2.4,0.3,129
2.4,0.45,125
2.4,0.6,126
2.4,0.75,128
2.4,0.9,129
2.4,1.05,129
2.4,1.2,127
2.4,1.35,121
2.4,1.5,115
2.55,-1.5,126
2.55,-1.35,132
2.55,-1.2,143
2.55,-1.05,150
2.55,-0.9,150
2.55,-0.75,143
2.55,-0.6,135
2.55,-0.45,128
2.55,-0.3,130
2.55,-0.15,132
2.55,0.0,130
2.55,0.15,129
2.55,0.3,128
2.55,0.45,131
2.55,0.6,120
2.55,0.75,126
2.55,0.9,129
2.55,1.05,127
2.55,1.2,123
2.55,1.35,117
2.55,1.5,111
2.7,-1.5,115
2.7,-1.35,121
2.7,-1.2,135
2.7,-1.05,150
2.7,-0.9,150
2.7,-0.75,150
2.7,-0.6,148
2.7,-0.45,140
2.7,-0.3,133
2.7,-0.15,130
2.7,0.0,129
2.7,0.15,130
2.7,0.3,127
2.7,0.45,123
2.7,0.6,131
2.7,0.75,131
2.7,0.9,128
2.7,1.05,125
2.7,1.2,119
2.7,1.35,113
2.7,1.5,108
2.85,-1.5,135
2.85,-1.35,136
2.85,-1.2,141
2.85,-1.05,150
2.85,-0.9,149
2.85,-0.75,147
2.85,-0.6,150
2.85,-0.45,146
2.85,-0.3,135
2.85,-0.15,129
2.85,0.0,130
2.85,0.15,128
2.85,0.3,130
2.85,0.45,130
2.85,0.6,137
2.85,0.75,137
2.85,0.9,135
2.85,1.05,126
2.85,1.2,117
2.85,1.35,109
2.85,1.5,103
3.0,-1.5,180
3.0,-1.35,169
3.0,-1.2,153
3.0,-1.05,141
3.0,-0.9,126
3.0,-0.75,123
3.0,-0.6,143
3.0,-0.45,148
3.0,-0.3,135
3.0,-0.15,129
3.0,0.0,130
3.0,0.15,130
3.0,0.3,129
3.0,0.45,133
3.0,0.6,137
3.0,0.75,137
3.0,0.9,133
3.0,1.05,126
3.0,1.2,116
3.0,1.35,108
3.0,1.5,100
3.15,-1.5,178
3.15,-1.35,165
3.15,-1.2,149
3.15,-1.05,133
3.15,-0.9,115
3.15,-0.75,115
3.15,-0.6,135
3.15,-0.45,140
3.15,-0.3,131
3.15,-0.15,129
3.15,0.0,129
3.15,0.15,129
3.15,0.3,129
3.15,0.45,137
3.15,0.6,137
3.15,0.75,138
3.15,0.9,134
3.15,1.05,127
3.15,1.2,118
3.15,1.35,111
3.15,1.5,104
3.3,-1.5,134
3.3,-1.35,131
3.3,-1.2,139
3.3,-1.05,137
3.3,-0.9,119
3.3,-0.75,112
3.3,-0.6,125
3.3,-0.45,130
3.3,-0.3,129
3.3,-0.15,133
3.3,0.0,132
3.3,0.15,134
3.3,0.3,130
3.3,0.45,140
3.3,0.6,139
3.3,0.75,137
3.3,0.9,126
3.3,1.05,125
3.3,1.2,122
3.3,1.35,116
3.3,1.5,110
3.45,-1.5,116
3.45,-1.35,118
3.45,-1.2,134
3.45,-1.05,135
3.45,-0.9,114
3.45,-0.75,102
3.45,-0.6,118
3.45,-0.45,133
3.45,-0.3,133
3.45,-0.15,140
3.45,0.0,140
3.45,0.15,128
3.45,0.3,130
3.45,0.45,138
3.45,0.6,144
3.45,0.75,133
3.45,0.9,125
3.45,1.05,128
3.45,1.2,126
3.45,1.35,119
3.45,1.5,113
3.6,-1.5,116
3.6,-1.35,119
3.6,-1.2,126
3.6,-1.05,126
3.6,-0.9,112
3.6,-0.75,93
3.6,-0.6,109
3.6,-0.45,133
3.6,-0.3,128
3.6,-0.15,131
3.6,0.0,132
3.6,0.15,130
3.6,0.3,128
3.6,0.45,128
3.6,0.6,150
3.6,0.75,138
3.6,0.9,138
3.6,1.05,138
3.6,1.2,130
3.6,1.35,122
3.6,1.5,115
3.75,-1.5,116
3.75,-1.35,119
3.75,-1.2,121
3.75,-1.05,124
3.75,-0.9,118
3.75,-0.75,88
3.75,-0.6,87
3.75,-0.45,117
3.75,-0.3,128
3.75,-0.15,141
3.75,0.0,141
3.75,0.15,131
3.75,0.3,144
3.75,0.45,128
3.75,0.6,146
3.75,0.75,126
3.75,0.9,133
3.75,1.05,138
3.75,1.2,131
3.75,1.35,124
3.75,1.5,116
3.9,-1.5,110
3.9,-1.35,114
3.9,-1.2,124
3.9,-1.05,125
3.9,-0.9,115
3.9,-0.75,88
3.9,-0.6,72
3.9,-0.45,98
3.9,-0.3,149
3.9,-0.15,117
3.9,0.0,131
3.9,0.15,129
3.9,0.3,137
3.9,0.45,128
3.9,0.6,136
3.9,0.75,129
3.9,0.9,126
3.9,1.05,131
3.9,1.2,130
3.9,1.35,125
3.9,1.5,120
4.05,-1.5,101
4.05,-1.35,109
4.05,-1.2,133
4.05,-1.05,143
4.05,-0.9,126
4.05,-0.75,104
4.05,-0.6,94
4.05,-0.45,117
4.05,-0.3,132
4.05,-0.15,131
4.05,0.0,131
4.05,0.15,132
4.05,0.3,129
4.05,0.45,124
4.05,0.6,109
4.05,0.75,121
4.05,0.9,127
4.05,1.05,125
4.05,1.2,122
4.05,1.35,122
4.05,1.5,123
4.2,-1.5,100
4.2,-1.35,108
4.2,-1.2,134
4.2,-1.05,148
4.2,-0.9,145
4.2,-0.75,133
4.2,-0.6,129
4.2,-0.45,138
4.2,-0.3,148
4.2,-0.15,131
4.2,0.0,134
4.2,0.15,136
4.2,0.3,132
4.2,0.45,129
4.2,0.6,109
4.2,0.75,124
4.2,0.9,128
4.2,1.05,123
4.2,1.2,122
4.2,1.35,122
4.2,1.5,123
4.35,-1.5,98
4.35,-1.35,107
4.35,-1.2,119
4.35,-1.05,129
4.35,-0.9,148
4.35,-0.75,159
4.35,-0.6,144
4.35,-0.45,134
4.35,-0.3,132
4.35,-0.15,131
4.35,0.0,133
4.35,0.15,160
4.35,0.3,128
4.35,0.45,132
4.35,0.6,127
4.35,0.75,130
4.35,0.9,128
4.35,1.05,127
4.35,1.2,125
4.35,1.35,124
4.35,1.5,125
4.5,-1.5,96
4.5,-1.35,105
4.5,-1.2,113
4.5,-1.05,120
4.5,-0.9,145
4.5,-0.75,159
4.5,-0.6,142
4.5,-0.45,132
4.5,-0.3,130
4.5,-0.15,131
4.5,0.0,131
4.5,0.15,129
4.5,0.3,128
4.5,0.45,132
4.5,0.6,132
4.5,0.75,129
4.5,0.9,126
4.5,1.05,126
4.5,1.2,127
4.5,1.35,126
4.5,1.5,126
4.65,-1.5,96
4.65,-1.35,105
4.65,-1.2,114
4.65,-1.05,121
4.65,-0.9,137
4.65,-0.75,146
4.65,-0.6,138
4.65,-0.45,131
4.65,-0.3,132
4.65,-0.15,130
4.65,0.0,130
4.65,0.15,131
4.65,0.3,132
4.65,0.45,128
4.65,0.6,126
4.65,0.75,126
4.65,0.9,126
4.65,1.05,128
4.65,1.2,129
4.65,1.35,129
4.65,1.5,128
4.8,-1.5,93
4.8,-1.35,101
4.8,-1.2,116
4.8,-1.05,130
4.8,-0.9,138
4.8,-0.75,141
4.8,-0.6,136
4.8,-0.45,132
4.8,-0.3,129
4.8,-0.15,130
4.8,0.0,129
4.8,0.15,132
4.8,0.3,132
4.8,0.45,126
4.8,0.6,131
4.8,0.75,128
4.8,0.9,127
4.8,1.05,133
4.8,1.2,131
4.8,1.35,131
4.8,1.5,130
4.95,-1.5,69
4.95,-1.35,79
4.95,-1.2,107
4.95,-1.05,133
4.95,-0.9,142
4.95,-0.75,143
4.95,-0.6,133
4.95,-0.45,129
4.95,-0.3,129
4.95,-0.15,137
4.95,0.0,129
4.95,0.15,131
4.95,0.3,129
4.95,0.45,132
4.95,0.6,132
4.95,0.75,128
4.95,0.9,132
4.95,1.05,137
4.95,1.2,132
4.95,1.35,131
4.95,1.5,130
5.1,-1.5,49
5.1,-1.35,62
5.1,-1.2,96
5.1,-1.05,125
5.1,-0.9,142
5.1,-0.75,154
5.1,-0.6,148
5.1,-0.45,151
5.1,-0.3,137
5.1,-0.15,129
5.1,0.0,131
5.1,0.15,130
5.1,0.3,128
5.1,0.45,131
5.1,0.6,128
5.1,0.75,130
5.1,0.9,140
5.1,1.05,139
5.1,1.2,134
5.1,1.35,132
5.1,1.5,130
5.25,-1.5,70
5.25,-1.35,78
5.25,-1.2,99
5.25,-1.05,119
5.25,-0.9,138
5.25,-0.75,157
5.25,-0.6,164
5.25,-0.45,159
5.25,-0.3,144
5.25,-0.15,137
5.25,0.0,129
5.25,0.15,129
5.25,0.3,128
5.25,0.45,128
5.25,0.6,138
5.25,0.75,142
5.25,0.9,148
5.25,1.05,140
5.25,1.2,132
5.25,1.35,129
5.25,1.5,125
5.4,-1.5,96
5.4,-1.35,98
5.4,-1.2,100
5.4,-1.05,106
5.4,-0.9,123
5.4,-0.75,140
5.4,-0.6,159
5.4,-0.45,154
5.4,-0.3,133
5.4,-0.15,129
5.4,0.0,130
5.4,0.15,130
5.4,0.3,128
5.4,0.45,143
5.4,0.6,149
5.4,0.75,152
5.4,0.9,143
5.4,1.05,134
5.4,1.2,127
5.4,1.35,122
5.4,1.5,116
5.55,-1.5,93
5.55,-1.35,93
5.55,-1.2,93
5.55,-1.05,98
5.55,-0.9,112
5.55,-0.75,125
5.55,-0.6,141
5.55,-0.45,141
5.55,-0.3,141
5.55,-0.15,137
5.55,0.0,129
5.55,0.15,130
5.55,0.3,130
5.55,0.45,133
5.55,0.6,154
5.55,0.75,136
5.55,0.9,123
5.55,1.05,125
5.55,1.2,122
5.55,1.35,117
5.55,1.5,111
5.7,-1.5,87
5.7,-1.35,87
5.7,-1.2,89
5.7,-1.05,94
5.7,-0.9,98
5.7,-0.75,103
5.7,-0.6,115
5.7,-0.45,112
5.7,-0.3,132
5.7,-0.15,134
5.7,0.0,129
5.7,0.15,130
5.7,0.3,134
5.7,0.45,135
5.7,0.6,141
5.7,0.75,123
5.7,0.9,122
5.7,1.05,120
5.7,1.2,116
5.7,1.35,111
5.7,1.5,106
5.85,-1.5,79
5.85,-1.35,79
5.85,-1.2,80
5.85,-1.05,83
5.85,-0.9,85
5.85,-0.75,93
5.85,-0.6,112
5.85,-0.45,119
5.85,-0.3,133
5.85,-0.15,129
5.85,0.0,132
5.85,0.15,127
5.85,0.3,135
5.85,0.45,129
5.85,0.6,132
5.85,0.75,125
5.85,0.9,122
5.85,1.05,116
5.85,1.2,112
5.85,1.35,107
5.85,1.5,102
6.0,-1.5,57
6.0,-1.35,61
6.0,-1.2,63
6.0,-1.05,66
6.0,-0.9,78
6.0,-0.75,92
6.0,-0.6,113
6.0,-0.45,133
6.0,-0.3,133
6.0,-0.15,127
6.0,0.0,127
6.0,0.15,129
6.0,0.3,128
6.0,0.45,130
6.0,0.6,144
6.0,0.75,130
6.0,0.9,121
6.0,1.05,114
6.0,1.2,111
6.0,1.35,110
6.0,1.5,110
6.15,-1.5,44
6.15,-1.35,50
6.15,-1.2,56
6.15,-1.05,61
6.15,-0.9,77
6.15,-0.75,93
6.15,-0.6,112
6.15,-0.45,130
6.15,-0.3,129
6.15,-0.15,131
6.15,0.0,129
6.15,0.15,127
6.15,0.3,143
6.15,0.45,117
6.15,0.6,126
6.15,0.75,132
6.15,0.9,126
6.15,1.05,116
6.15,1.2,112
6.15,1.35,111
6.15,1.5,115
6.3,-1.5,41
6.3,-1.35,48
6.3,-1.2,56
6.3,-1.05,65
6.3,-0.9,82
6.3,-0.75,100
6.3,-0.6,118
6.3,-0.45,132
6.3,-0.3,130
6.3,-0.15,144
6.3,0.0,133
6.3,0.15,127
6.3,0.3,127
6.3,0.45,134
6.3,0.6,131
6.3,0.75,132
6.3,0.9,132
6.3,1.05,122
6.3,1.2,119
6.3,1.35,115
6.3,1.5,111
6.45,-1.5,44
6.45,-1.35,51
6.45,-1.2,59
6.45,-1.05,70
6.45,-0.9,90
6.45,-0.75,108
6.45,-0.6,125
6.45,-0.45,132
6.45,-0.3,136
6.45,-0.15,130
6.45,0.0,131
6.45,0.15,128
6.45,0.3,134
6.45,0.45,133
6.45,0.6,129
6.45,0.75,132
6.45,0.9,132
6.45,1.05,131
6.45,1.2,137
6.45,1.35,132
6.45,1.5,121
6.6,-1.5,57
6.6,-1.35,64
6.6,-1.2,71
6.6,-1.05,84
6.6,-0.9,105
6.6,-0.75,125
6.6,-0.6,137
6.6,-0.45,136
6.6,-0.3,129
6.6,-0.15,128
6.6,0.0,131
6.6,0.15,128
6.6,0.3,128
6.6,0.45,130
6.6,0.6,129
6.6,0.75,129
6.6,0.9,129
6.6,1.05,147
6.6,1.2,163
6.6,1.35,165
6.6,1.5,158
6.75,-1.5,79
6.75,-1.35,82
6.75,-1.2,87
6.75,-1.05,97
6.75,-0.9,114
6.75,-0.75,132
6.75,-0.6,140
6.75,-0.45,140
6.75,-0.3,130
6.75,-0.15,128
6.75,0.0,128
6.75,0.15,128
6.75,0.3,131
6.75,0.45,129
6.75,0.6,137
6.75,0.75,129
6.75,0.9,154
6.75,1.05,181
6.75,1.2,202
6.75,1.35,211
6.75,1.5,211
6.9,-1.5,91
6.9,-1.35,95
6.9,-1.2,99
6.9,-1.05,105
6.9,-0.9,118
6.9,-0.75,132
6.9,-0.6,140
6.9,-0.45,135
6.9,-0.3,131
6.9,-0.15,128
6.9,0.0,129
6.9,0.15,131
6.9,0.3,131
6.9,0.45,120
6.9,0.6,132
6.9,0.75,156
6.9,0.9,197
6.9,1.05,224
6.9,1.2,242
6.9,1.35,253
6.9,1.5,255
7.05,-1.5,98
7.05,-1.35,103
7.05,-1.2,112
7.05,-1.05,119
7.05,-0.9,128
7.05,-0.75,141
7.05,-0.6,143
7.05,-0.45,141
7.05,-0.3,128
7.05,-0.15,129
7.05,0.0,128
7.05,0.15,130
7.05,0.3,128
7.05,0.45,131
7.05,0.6,138
7.05,0.75,117
7.05,0.9,194
7.05,1.05,249
7.05,1.2,255
7.05,1.35,255
7.05,1.5,255
7.2,-1.5,106
7.2,-1.35,111
7.2,-1.2,119
7.2,-1.05,126
7.2,-0.9,134
7.2,-0.75,143
7.2,-0.6,142
7.2,-0.45,143
7.2,-0.3,142
7.2,-0.15,125
7.2,0.0,130
7.2,0.15,130
7.2,0.3,128
7.2,0.45,138
7.2,0.6,112
7.2,0.75,97
7.2,0.9,157
7.2,1.05,217
7.2,1.2,255
7.2,1.35,255
7.2,1.5,255
7.35,-1.5,130
7.35,-1.35,131
7.35,-1.2,133
7.35,-1.05,137
7.35,-0.9,143
7.35,-0.75,142
7.35,-0.6,140
7.35,-0.45,136
7.35,-0.3,119
7.35,-0.15,118
7.35,0.0,126
7.35,0.15,128
7.35,0.3,128
7.35,0.45,131
7.35,0.6,126
7.35,0.75,126
7.35,0.9,136
7.35,1.05,173
7.35,1.2,240
7.35,1.35,255
7.35,1.5,255
7.5,-1.5,137
7.5,-1.35,137
7.5,-1.2,138
7.5,-1.05,142
7.5,-0.9,146
7.5,-0.75,143
7.5,-0.6,138
7.5,-0.45,132
7.5,-0.3,129
7.5,-0.15,128
7.5,0.0,131
7.5,0.15,131
7.5,0.3,129
7.5,0.45,127
7.5,0.6,131
7.5,0.75,128
7.5,0.9,129
7.5,1.05,148
7.5,1.2,205
7.5,1.35,255
7.5,1.5,255
7.65,-1.5,137
7.65,-1.35,136
7.65,-1.2,151
7.65,-1.05,163
7.65,-0.9,153
7.65,-0.75,147
7.65,-0.6,142
7.65,-0.45,135
7.65,-0.3,130
7.65,-0.15,129
7.65,0.0,128
7.65,0.15,131
7.65,0.3,130
7.65,0.45,128
7.65,0.6,130
7.65,0.75,125
7.65,0.9,118
7.65,1.05,124
7.65,1.2,144
7.65,1.35,162
7.65,1.5,181
7.8,-1.5,137
7.8,-1.35,136
7.8,-1.2,159
7.8,-1.05,178
7.8,-0.9,157
7.8,-0.75,143
7.8,-0.6,134
7.8,-0.45,129
7.8,-0.3,129
7.8,-0.15,128
7.8,0.0,129
7.8,0.15,132
7.8,0.3,129
7.8,0.45,140
7.8,0.6,129
7.8,0.75,128
7.8,0.9,120
7.8,1.05,117
7.8,1.2,115
7.8,1.35,109
7.8,1.5,102
7.95,-1.5,117
7.95,-1.35,121
7.95,-1.2,144
7.95,-1.05,162
7.95,-0.9,152
7.95,-0.75,142
7.95,-0.6,130
7.95,-0.45,129
7.95,-0.3,129
7.95,-0.15,131
7.95,0.0,139
7.95,0.15,130
7.95,0.3,128
7.95,0.45,130
7.95,0.6,128
7.95,0.75,129
7.95,0.9,126
7.95,1.05,120
7.95,1.2,116
7.95,1.35,110
7.95,1.5,105
8.1,-1.5,80
8.1,-1.35,92
8.1,-1.2,119
8.1,-1.05,140
8.1,-0.9,147
8.1,-0.75,146
8.1,-0.6,133
8.1,-0.45,129
8.1,-0.3,130
8.1,-0.15,132
8.1,0.0,129
8.1,0.15,130
8.1,0.3,128
8.1,0.45,130
8.1,0.6,129
8.1,0.75,129
8.1,0.9,127
8.1,1.05,120
8.1,1.2,120
8.1,1.35,120
8.1,1.5,118
8.25,-1.5,63
8.25,-1.35,78
8.25,-1.2,103
8.25,-1.05,124
8.25,-0.9,134
8.25,-0.75,141
8.25,-0.6,134
8.25,-0.45,129
8.25,-0.3,130
8.25,-0.15,130
8.25,0.0,129
8.25,0.15,130
8.25,0.3,130
8.25,0.45,122
8.25,0.6,118
8.25,0.75,129
8.25,0.9,124
8.25,1.05,120
8.25,1.2,120
8.25,1.35,120
8.25,1.5,119
8.4,-1.5,43
8.4,-1.35,60
8.4,-1.2,72
8.4,-1.05,86
8.4,-0.9,103
8.4,-0.75,119
8.4,-0.6,130
8.4,-0.45,129
8.4,-0.3,130
8.4,-0.15,129
8.4,0.0,130
8.4,0.15,129
8.4,0.3,129
8.4,0.45,130
8.4,0.6,130
8.4,0.75,129
8.4,0.9,122
8.4,1.05,120
8.4,1.2,120
8.4,1.35,120
8.4,1.5,119
8.55,-1.5,29
8.55,-1.35,47
8.55,-1.2,57
8.55,-1.05,69
8.55,-0.9,91
8.55,-0.75,110
8.55,-0.6,128
8.55,-0.45,129
8.55,-0.3,130
8.55,-0.15,131
8.55,0.0,130
8.55,0.15,129
8.55,0.3,129
8.55,0.45,130
8.55,0.6,126
8.55,0.75,123
8.55,0.9,122
8.55,1.05,123
8.55,1.2,125
8.55,1.35,125
8.55,1.5,123
8.7,-1.5,24
8.7,-1.35,39
8.7,-1.2,45
8.7,-1.05,58
8.7,-0.9,82
8.7,-0.75,106
8.7,-0.6,129
8.7,-0.45,128
8.7,-0.3,128
8.7,-0.15,128
8.7,0.0,132
8.7,0.15,129
8.7,0.3,130
8.7,0.45,129
8.7,0.6,130
8.7,0.75,128
8.7,0.9,126
8.7,1.05,127
8.7,1.2,130
8.7,1.35,132
8.7,1.5,133
8.85,-1.5,16
8.85,-1.35,30
8.85,-1.2,35
8.85,-1.05,49
8.85,-0.9,74
8.85,-0.75,101
8.85,-0.6,132
8.85,-0.45,137
8.85,-0.3,128
8.85,-0.15,142
8.85,0.0,140
8.85,0.15,130
8.85,0.3,129
8.85,0.45,130
8.85,0.6,128
8.85,0.75,130
8.85,0.9,130
8.85,1.05,129
8.85,1.2,133
8.85,1.35,137
8.85,1.5,138
9.0,-1.5,0
9.0,-1.35,1
9.0,-1.2,19
9.0,-1.05,42
9.0,-0.9,59
9.0,-0.75,82
9.0,-0.6,124
9.0,-0.45,138
9.0,-0.3,130
9.0,-0.15,130
9.0,0.0,130
9.0,0.15,128
9.0,0.3,128
9.0,0.45,128
9.0,0.6,128
9.0,0.75,129
9.0,0.9,129
9.0,1.05,128
9.0,1.2,133
9.0,1.35,137
9.0,1.5,138
9.15,-1.5,0
9.15,-1.35,0
9.15,-1.2,4
9.15,-1.05,33
9.15,-0.9,41
9.15,-0.75,63
9.15,-0.6,112
9.15,-0.45,130
9.15,-0.3,130
9.15,-0.15,135
9.15,0.0,133
9.15,0.15,133
9.15,0.3,129
9.15,0.45,129
9.15,0.6,136
9.15,0.75,134
9.15,0.9,126
9.15,1.05,124
9.15,1.2,132
9.15,1.35,135
9.15,1.5,138
9.3,-1.5,0
9.3,-1.35,0
9.3,-1.2,0
9.3,-1.05,3
9.3,-0.9,32
9.3,-0.75,68
9.3,-0.6,108
9.3,-0.45,133
9.3,-0.3,131
9.3,-0.15,137
9.3,0.0,114
9.3,0.15,140
9.3,0.3,135
9.3,0.45,123
9.3,0.6,132
9.3,0.75,137
9.3,0.9,122
9.3,1.05,118
9.3,1.2,134
9.3,1.35,140
9.3,1.5,145
9.45,-1.5,0
9.45,-1.35,4
9.45,-1.2,0
9.45,-1.05,0
9.45,-0.9,27
9.45,-0.75,78
9.45,-0.6,97
9.45,-0.45,130
9.45,-0.3,137
9.45,-0.15,135
9.45,0.0,137
9.45,0.15,146
9.45,0.3,128
9.45,0.45,106
9.45,0.6,135
9.45,0.75,147
9.45,0.9,120
9.45,1.05,111
9.45,1.2,139
9.45,1.35,148
9.45,1.5,157
9.6,-1.5,18
9.6,-1.35,22
9.6,-1.2,3
9.6,-1.05,0
9.6,-0.9,30
9.6,-0.75,59
9.6,-0.6,71
9.6,-0.45,107
9.6,-0.3,131
9.6,-0.15,134
9.6,0.0,130
9.6,0.15,145
9.6,0.3,120
9.6,0.45,103
9.6,0.6,158
9.6,0.75,159
9.6,0.9,126
9.6,1.05,118
9.6,1.2,142
9.6,1.35,148
9.6,1.5,154
9.75,-1.5,52
9.75,-1.35,51
9.75,-1.2,60
9.75,-1.05,70
9.75,-0.9,56
9.75,-0.75,45
9.75,-0.6,55
9.75,-0.45,89
9.75,-0.3,130
9.75,-0.15,130
9.75,0.0,130
9.75,0.15,144
9.75,0.3,125
9.75,0.45,135
9.75,0.6,184
9.75,0.75,162
9.75,0.9,148
9.75,1.05,145
9.75,1.2,146
9.75,1.35,145
9.75,1.5,145
9.9,-1.5,56
9.9,-1.35,57
9.9,-1.2,72
9.9,-1.05,86
9.9,-0.9,72
9.9,-0.75,65
9.9,-0.6,77
9.9,-0.45,103
9.9,-0.3,135
9.9,-0.15,137
9.9,0.0,131
9.9,0.15,131
9.9,0.3,136
9.9,0.45,125
9.9,0.6,152
9.9,0.75,150
9.9,0.9,158
9.9,1.05,158
9.9,1.2,153
9.9,1.35,149
9.9,1.5,145
10.05,-1.5,44
10.05,-1.35,51
10.05,-1.2,57
10.05,-1.05,63
10.05,-0.9,77
10.05,-0.75,93
10.05,-0.6,110
10.05,-0.45,129
10.05,-0.3,127
10.05,-0.15,138
10.05,0.0,129
10.05,0.15,129
10.05,0.3,130
10.05,0.45,130
10.05,0.6,130
10.05,0.75,130
10.05,0.9,145
10.05,1.05,156
10.05,1.2,153
10.05,1.35,150
10.05,1.5,145
10.2,-1.5,43
10.2,-1.35,54
10.2,-1.2,60
10.2,-1.05,69
10.2,-0.9,96
10.2,-0.75,121
10.2,-0.6,134
10.2,-0.45,147
10.2,-0.3,147
10.2,-0.15,129
10.2,0.0,129
10.2,0.15,130
10.2,0.3,130
10.2,0.45,129
10.2,0.6,129
10.2,0.75,129
10.2,0.9,134
10.2,1.05,148
10.2,1.2,151
10.2,1.35,150
10.2,1.5,145
10.35,-1.5,70
10.35,-1.35,82
10.35,-1.2,75
10.35,-1.05,74
10.35,-0.9,118
10.35,-0.75,152
10.35,-0.6,148
10.35,-0.45,140
10.35,-0.3,137
10.35,-0.15,129
10.35,0.0,129
10.35,0.15,129
10.35,0.3,129
10.35,0.45,129
10.35,0.6,132
10.35,0.75,131
10.35,0.9,134
10.35,1.05,142
10.35,1.2,152
10.35,1.35,158
10.35,1.5,161
10.5,-1.5,90
10.5,-1.35,103
10.5,-1.2,85
10.5,-1.05,76
10.5,-0.9,127
10.5,-0.75,160
10.5,-0.6,151
10.5,-0.45,136
10.5,-0.3,129
10.5,-0.15,129
10.5,0.0,132
10.5,0.15,132
10.5,0.3,132
10.5,0.45,132
10.5,0.6,134
10.5,0.75,134
10.5,0.9,134
10.5,1.05,137
10.5,1.2,147
10.5,1.35,154
10.5,1.5,161
10.65,-1.5,93
10.65,-1.35,107
10.65,-1.2,103
10.65,-1.05,102
10.65,-0.9,129
10.65,-0.75,148
10.65,-0.6,150
10.65,-0.45,148
10.65,-0.3,132
10.65,-0.15,129
10.65,0.0,134
10.65,0.15,134
10.65,0.3,134
10.65,0.45,133
10.65,0.6,134
10.65,0.75,134
10.65,0.9,134
10.65,1.05,133
10.65,1.2,135
10.65,1.35,136
10.65,1.5,138
10.8,-1.5,94
10.8,-1.35,111
10.8,-1.2,124
10.8,-1.05,133
10.8,-0.9,132
10.8,-0.75,130
10.8,-0.6,139
10.8,-0.45,146
10.8,-0.3,131
10.8,-0.15,131
10.8,0.0,134
10.8,0.15,131
10.8,0.3,131
10.8,0.45,131
10.8,0.6,133
10.8,0.75,134
10.8,0.9,134
10.8,1.05,130
10.8,1.2,128
10.8,1.35,125
10.8,1.5,122
10.95,-1.5,97
10.95,-1.35,115
10.95,-1.2,133
10.95,-1.05,146
10.95,-0.9,143
10.95,-0.75,133
10.95,-0.6,133
10.95,-0.45,135
10.95,-0.3,134
10.95,-0.15,138
10.95,0.0,138
10.95,0.15,129
10.95,0.3,129
10.95,0.45,129
10.95,0.6,132
10.95,0.75,134
10.95,0.9,134
10.95,1.05,130
10.95,1.2,126
10.95,1.35,122
10.95,1.5,118
11.1,-1.5,98
11.1,-1.35,117
11.1,-1.2,138
11.1,-1.05,155
11.1,-0.9,158
11.1,-0.75,153
11.1,-0.6,140
11.1,-0.45,125
11.1,-0.3,115
11.1,-0.15,130
11.1,0.0,145
11.1,0.15,132
11.1,0.3,129
11.1,0.45,129
11.1,0.6,130
11.1,0.75,132
11.1,0.9,132
11.1,1.05,128
11.1,1.2,123
11.1,1.35,118
11.1,1.5,113
11.25,-1.5,98
11.25,-1.35,112
11.25,-1.2,130
11.25,-1.05,146
11.25,-0.9,156
11.25,-0.75,157
11.25,-0.6,139
11.25,-0.45,111
11.25,-0.3,91
11.25,-0.15,101
11.25,0.0,128
11.25,0.15,132
11.25,0.3,130
11.25,0.45,129
11.25,0.6,129
11.25,0.75,129
11.25,0.9,130
11.25,1.05,126
11.25,1.2,120
11.25,1.35,115
11.25,1.5,110
11.4,-1.5,99
11.4,-1.35,110
11.4,-1.2,118
11.4,-1.05,128
11.4,-0.9,139
11.4,-0.75,139
11.4,-0.6,133
11.4,-0.45,139
11.4,-0.3,135
11.4,-0.15,130
11.4,0.0,129
11.4,0.15,130
11.4,0.3,130
11.4,0.45,129
11.4,0.6,130
11.4,0.75,129
11.4,0.9,127
11.4,1.05,122
11.4,1.2,116
11.4,1.35,110
11.4,1.5,104
11.55,-1.5,99
11.55,-1.35,102
11.55,-1.2,102
11.55,-1.05,104
11.55,-0.9,115
11.55,-0.75,119
11.55,-0.6,123
11.55,-0.45,137
11.55,-0.3,135
11.55,-0.15,145
11.55,0.0,136
11.55,0.15,129
11.55,0.3,129
11.55,0.45,130
11.55,0.6,135
11.55,0.75,132
11.55,0.9,126
11.55,1.05,120
11.55,1.2,112
11.55,1.35,106
11.55,1.5,100
11.7,-1.5,99
11.7,-1.35,99
11.7,-1.2,99
11.7,-1.05,101
11.7,-0.9,112
11.7,-0.75,126
11.7,-0.6,125
11.7,-0.45,129
11.7,-0.3,129
11.7,-0.15,129
11.7,0.0,129
11.7,0.15,130
11.7,0.3,129
11.7,0.45,135
11.7,0.6,139
11.7,0.75,133
11.7,0.9,126
11.7,1.05,119
11.7,1.2,112
11.7,1.35,106
11.7,1.5,100
11.85,-1.5,99
11.85,-1.35,99
11.85,-1.2,101
11.85,-1.05,107
11.85,-0.9,121
11.85,-0.75,145
11.85,-0.6,137
11.85,-0.45,132
11.85,-0.3,129
11.85,-0.15,130
11.85,0.0,131
11.85,0.15,132
11.85,0.3,132
11.85,0.45,134
11.85,0.6,135
11.85,0.75,130
11.85,0.9,123
11.85,1.05,117
11.85,1.2,112
11.85,1.35,107
11.85,1.5,103
12.0,-1.5,105
12.0,-1.35,104
12.0,-1.2,112
12.0,-1.05,122
12.0,-0.9,133
12.0,-0.75,150
12.0,-0.6,140
12.0,-0.45,131
12.0,-0.3,131
12.0,-0.15,132
12.0,0.0,132
12.0,0.15,132
12.0,0.3,132
12.0,0.45,128
12.0,0.6,127
12.0,0.75,124
12.0,0.9,118
12.0,1.05,113
12.0,1.2,110
12.0,1.35,106
12.0,1.5,103
12.15,-1.5,125
12.15,-1.35,121
12.15,-1.2,130
12.15,-1.05,146
12.15,-0.9,146
12.15,-0.75,144
12.15,-0.6,139
12.15,-0.45,134
12.15,-0.3,128
12.15,-0.15,126
12.15,0.0,126
12.15,0.15,122
12.15,0.3,129
12.15,0.45,130
12.15,0.6,127
12.15,0.75,121
12.15,0.9,115
12.15,1.05,111
12.15,1.2,109
12.15,1.35,107
12.15,1.5,105
12.3,-1.5,126
12.3,-1.35,124
12.3,-1.2,130
12.3,-1.05,142
12.3,-0.9,142
12.3,-0.75,141
12.3,-0.6,138
12.3,-0.45,136
12.3,-0.3,133
12.3,-0.15,130
12.3,0.0,130
12.3,0.15,121
12.3,0.3,131
12.3,0.45,131
12.3,0.6,128
12.3,0.75,121
12.3,0.9,116
12.3,1.05,112
12.3,1.2,109
12.3,1.35,107
12.3,1.5,106
12.45,-1.5,128
12.45,-1.35,128
12.45,-1.2,130
12.45,-1.05,135
12.45,-0.9,136
12.45,-0.75,135
12.45,-0.6,134
12.45,-0.45,133
12.45,-0.3,131
12.45,-0.15,133
12.45,0.0,133
12.45,0.15,125
12.45,0.3,131
12.45,0.45,131
12.45,0.6,128
12.45,0.75,125
12.45,0.9,124
12.45,1.05,118
12.45,1.2,111
12.45,1.35,109
12.45,1.5,108
12.6,-1.5,128
12.6,-1.35,128
12.6,-1.2,129
12.6,-1.05,131
12.6,-0.9,131
12.6,-0.75,130
12.6,-0.6,129
12.6,-0.45,129
12.6,-0.3,129
12.6,-0.15,132
12.6,0.0,133
12.6,0.15,131
12.6,0.3,129
12.6,0.45,127
12.6,0.6,125
12.6,0.75,126
12.6,0.9,126
12.6,1.05,122
12.6,1.2,117
12.6,1.35,115
12.6,1.5,114
12.75,-1.5,128
12.75,-1.35,128
12.75,-1.2,128
12.75,-1.05,129
12.75,-0.9,129
12.75,-0.75,128
12.75,-0.6,128
12.75,-0.45,128
12.75,-0.3,128
12.75,-0.15,128
12.75,0.0,128
12.75,0.15,130
12.75,0.3,130
12.75,0.45,126
12.75,0.6,125
12.75,0.75,128
12.75,0.9,129
12.75,1.05,128
12.75,1.2,126
12.75,1.35,125
12.75,1.5,123
12.9,-1.5,128
12.9,-1.35,128
12.9,-1.2,129
12.9,-1.05,129
12.9,-0.9,130
12.9,-0.75,131
12.9,-0.6,132
12.9,-0.45,132
12.9,-0.3,132
12.9,-0.15,129
12.9,0.0,128
12.9,0.15,128
12.9,0.3,130
12.9,0.45,125
12.9,0.6,125
12.9,0.75,130
12.9,0.9,133
12.9,1.05,131
12.9,1.2,130
12.9,1.35,129
12.9,1.5,127
13.05,-1.5,129
13.05,-1.35,129
13.05,-1.2,130
13.05,-1.05,132
13.05,-0.9,134
13.05,-0.75,137
13.05,-0.6,139
13.05,-0.45,143
13.05,-0.3,144
13.05,-0.15,139
13.05,0.0,131
13.05,0.15,128
13.05,0.3,128
13.05,0.45,125
13.05,0.6,125
13.05,0.75,132
13.05,0.9,137
13.05,1.05,134
13.05,1.2,132
13.05,1.35,131
13.05,1.5,129
