-3.0,-1.5,0
-3.0,-1.35,1
-3.0,-1.2,17
-3.0,-1.05,37
-3.0,-0.9,54
-3.0,-0.75,67
-3.0,-0.6,78
-3.0,-0.45,84
-3.0,-0.3,87
-3.0,-0.15,86
-3.0,0.0,80
-3.0,0.15,73
-3.0,0.3,72
-3.0,0.45,78
-3.0,0.6,86
-3.0,0.75,86
-3.0,0.9,76
-3.0,1.05,55
-3.0,1.2,27
-3.0,1.35,3
-3.0,1.5,0
-2.85,-1.5,1
-2.85,-1.35,7
-2.85,-1.2,23
-2.85,-1.05,42
-2.85,-0.9,58
-2.85,-0.75,69
-2.85,-0.6,79
-2.85,-0.45,86
-2.85,-0.3,90
-2.85,-0.15,87
-2.85,0.0,76
-2.85,0.15,60
-2.85,0.3,57
-2.85,0.45,72
-2.85,0.6,88
-2.85,0.75,94
-2.85,0.9,86
-2.85,1.05,66
-2.85,1.2,38
-2.85,1.35,13
-2.85,1.5,3
-2.7,-1.5,16
-2.7,-1.35,23
-2.7,-1.2,37
-2.7,-1.05,51
-2.7,-0.9,62
-2.7,-0.75,71
-2.7,-0.6,78
-2.7,-0.45,86
-2.7,-0.3,93
-2.7,-0.15,93
-2.7,0.0,80
-2.7,0.15,56
-2.7,0.3,50
-2.7,0.45,74
-2.7,0.6,99
-2.7,0.75,108
-2.7,0.9,102
-2.7,1.05,84
-2.7,1.2,60
-2.7,1.35,38
-2.7,1.5,27
-2.55,-1.5,34
-2.55,-1.35,39
-2.55,-1.2,49
-2.55,-1.05,59
-2.55,-0.9,66
-2.55,-0.75,69
-2.55,-0.6,73
-2.55,-0.45,82
-2.55,-0.3,95
-2.55,-0.15,105
-2.55,0.0,101
-2.55,0.15,85
-2.55,0.3,82
-2.55,0.45,105
-2.55,0.6,125
-2.55,0.75,130
-2.55,0.9,123
-2.55,1.05,106
-2.55,1.2,85
-2.55,1.35,67
-2.55,1.5,55
-2.4,-1.5,47
-2.4,-1.35,52
-2.4,-1.2,58
-2.4,-1.05,63
-2.4,-0.9,65
-2.4,-0.75,63
-2.4,-0.6,61
-2.4,-0.45,71
-2.4,-0.3,95
-2.4,-0.15,120
-2.4,0.0,136
-2.4,0.15,143
-2.4,0.3,151
-2.4,0.45,163
-2.4,0.6,167
-2.4,0.75,160
-2.4,0.9,145
-2.4,1.05,127
-2.4,1.2,109
-2.4,1.35,92
-2.4,1.5,82
-2.25,-1.5,57
-2.25,-1.35,60
-2.25,-1.2,63
-2.25,-1.05,65
-2.25,-0.9,64
-2.25,-0.75,57
-2.25,-0.6,49
-2.25,-0.45,59
-2.25,-0.3,96
-2.25,-0.15,138
-2.25,0.0,176
-2.25,0.15,203
-2.25,0.3,222
-2.25,0.45,229
-2.25,0.6,215
-2.25,0.75,191
-2.25,0.9,167
-2.25,1.05,146
-2.25,1.2,127
-2.25,1.35,113
-2.25,1.5,101
-2.1,-1.5,62
-2.1,-1.35,64
-2.1,-1.2,65
-2.1,-1.05,65
-2.1,-0.9,65
-2.1,-0.75,59
-2.1,-0.6,53
-2.1,-0.45,65
-2.1,-0.3,105
-2.1,-0.15,160
-2.1,0.0,217
-2.1,0.15,255
-2.1,0.3,255
-2.1,0.45,255
-2.1,0.6,255
-2.1,0.75,214
-2.1,0.9,182
-2.1,1.05,158
-2.1,1.2,139
-2.1,1.35,126
-2.1,1.5,115
-1.95,-1.5,65
-1.95,-1.35,65
-1.95,-1.2,65
-1.95,-1.05,65
-1.95,-0.9,65
-1.95,-0.75,64
-1.95,-0.6,67
-1.95,-0.45,82
-1.95,-0.3,116
-1.95,-0.15,171
-1.95,0.0,247
-1.95,0.15,255
-1.95,0.3,255
-1.95,0.45,255
-1.95,0.6,255
-1.95,0.75,219
-1.95,0.9,186
-1.95,1.05,162
-1.95,1.2,146
-1.95,1.35,133
-1.95,1.5,123
-1.8,-1.5,65
-1.8,-1.35,65
-1.8,-1.2,65
-1.8,-1.05,64
-1.8,-0.9,61
-1.8,-0.75,59
-1.8,-0.6,61
-1.8,-0.45,77
-1.8,-0.3,107
-1.8,-0.15,156
-1.8,0.0,224
-1.8,0.15,255
-1.8,0.3,255
-1.8,0.45,255
-1.8,0.6,234
-1.8,0.75,204
-1.8,0.9,178
-1.8,1.05,161
-1.8,1.2,147
-1.8,1.35,135
-1.8,1.5,127
-1.65,-1.5,51
-1.65,-1.35,63
-1.65,-1.2,62
-1.65,-1.05,58
-1.65,-0.9,53
-1.65,-0.75,42
-1.65,-0.6,33
-1.65,-0.45,46
-1.65,-0.3,81
-1.65,-0.15,119
-1.65,0.0,158
-1.65,0.15,191
-1.65,0.3,203
-1.65,0.45,202
-1.65,0.6,194
-1.65,0.75,178
-1.65,0.9,163
-1.65,1.05,153
-1.65,1.2,143
-1.65,1.35,134
-1.65,1.5,127
-1.5,-1.5,51
-1.5,-1.35,51
-1.5,-1.2,60
-1.5,-1.05,62
-1.5,-0.9,53
-1.5,-0.75,30
-1.5,-0.6,2
-1.5,-0.45,13
-1.5,-0.3,58
-1.5,-0.15,86
-1.5,0.0,99
-1.5,0.15,116
-1.5,0.3,137
-1.5,0.45,151
-1.5,0.6,155
-1.5,0.75,154
-1.5,0.9,148
-1.5,1.05,142
-1.5,1.2,136
-1.5,1.35,130
-1.5,1.5,127
-1.35,-1.5,51
-1.35,-1.35,61
-1.35,-1.2,61
-1.35,-1.05,55
-1.35,-0.9,46
-1.35,-0.75,35
-1.35,-0.6,12
-1.35,-0.45,24
-1.35,-0.3,55
-1.35,-0.15,71
-1.35,0.0,63
-1.35,0.15,69
-1.35,0.3,95
-1.35,0.45,114
-1.35,0.6,127
-1.35,0.75,131
-1.35,0.9,143
-1.35,1.05,131
-1.35,1.2,128
-1.35,1.35,127
-1.35,1.5,127
-1.2,-1.5,52
-1.2,-1.35,51
-1.2,-1.2,51
-1.2,-1.05,58
-1.2,-0.9,53
-1.2,-0.75,47
-1.2,-0.6,44
-1.2,-0.45,51
-1.2,-0.3,59
-1.2,-0.15,59
-1.2,0.0,54
-1.2,0.15,60
-1.2,0.3,84
-1.2,0.45,103
-1.2,0.6,116
-1.2,0.75,124
-1.2,0.9,129
-1.2,1.05,132
-1.2,1.2,132
-1.2,1.35,132
-1.2,1.5,132
-1.05,-1.5,52
-1.05,-1.35,52
-1.05,-1.2,51
-1.05,-1.05,51
-1.05,-0.9,51
-1.05,-0.75,51
-1.05,-0.6,63
-1.05,-0.45,69
-1.05,-0.3,66
-1.05,-0.15,49
-1.05,0.0,58
-1.05,0.15,62
-1.05,0.3,83
-1.05,0.45,98
-1.05,0.6,108
-1.05,0.75,115
-1.05,0.9,120
-1.05,1.05,124
-1.05,1.2,126
-1.05,1.35,128
-1.05,1.5,129
-0.9,-1.5,49
-0.9,-1.35,49
-0.9,-1.2,49
-0.9,-1.05,50
-0.9,-0.9,52
-0.9,-0.75,57
-0.9,-0.6,67
-0.9,-0.45,77
-0.9,-0.3,85
-0.9,-0.15,95
-0.9,0.0,87
-0.9,0.15,76
-0.9,0.3,92
-0.9,0.45,100
-0.9,0.6,106
-0.9,0.75,111
-0.9,0.9,115
-0.9,1.05,120
-0.9,1.2,123
-0.9,1.35,125
-0.9,1.5,127
-0.75,-1.5,57
-0.75,-1.35,56
-0.75,-1.2,55
-0.75,-1.05,48
-0.75,-0.9,51
-0.75,-0.75,57
-0.75,-0.6,67
-0.75,-0.45,84
-0.75,-0.3,106
-0.75,-0.15,159
-0.75,0.0,191
-0.75,0.15,116
-0.75,0.3,97
-0.75,0.45,99
-0.75,0.6,106
-0.75,0.75,115
-0.75,0.9,113
-0.75,1.05,116
-0.75,1.2,119
-0.75,1.35,121
-0.75,1.5,123
-0.6,-1.5,69
-0.6,-1.35,66
-0.6,-1.2,51
-0.6,-1.05,49
-0.6,-0.9,47
-0.6,-0.75,53
-0.6,-0.6,63
-0.6,-0.45,80
-0.6,-0.3,102
-0.6,-0.15,124
-0.6,0.0,136
-0.6,0.15,112
-0.6,0.3,104
-0.6,0.45,100
-0.6,0.6,101
-0.6,0.75,106
-0.6,0.9,108
-0.6,1.05,114
-0.6,1.2,117
-0.6,1.35,119
-0.6,1.5,121
-0.45,-1.5,77
-0.45,-1.35,64
-0.45,-1.2,58
-0.45,-1.05,48
-0.45,-0.9,35
-0.45,-0.75,35
-0.45,-0.6,66
-0.45,-0.45,86
-0.45,-0.3,92
-0.45,-0.15,78
-0.45,0.0,82
-0.45,0.15,101
-0.45,0.3,103
-0.45,0.45,101
-0.45,0.6,105
-0.45,0.75,108
-0.45,0.9,111
-0.45,1.05,112
-0.45,1.2,113
-0.45,1.35,114
-0.45,1.5,115
-0.3,-1.5,77
-0.3,-1.35,78
-0.3,-1.2,67
-0.3,-1.05,50
-0.3,-0.9,18
-0.3,-0.75,0
-0.3,-0.6,61
-0.3,-0.45,100
-0.3,-0.3,107
-0.3,-0.15,83
-0.3,0.0,86
-0.3,0.15,110
-0.3,0.3,111
-0.3,0.45,107
-0.3,0.6,108
-0.3,0.75,112
-0.3,0.9,114
-0.3,1.05,115
-0.3,1.2,116
-0.3,1.35,116
-0.3,1.5,117
-0.15,-1.5,81
-0.15,-1.35,79
-0.15,-1.2,67
-0.15,-1.05,51
-0.15,-0.9,33
-0.15,-0.75,36
-0.15,-0.6,76
-0.15,-0.45,103
-0.15,-0.3,140
-0.15,-0.15,159
-0.15,0.0,127
-0.15,0.15,112
-0.15,0.3,107
-0.15,0.45,113
-0.15,0.6,120
-0.15,0.75,124
-0.15,0.9,128
-0.15,1.05,130
-0.15,1.2,132
-0.15,1.35,132
-0.15,1.5,118
0.0,-1.5,92
0.0,-1.35,83
0.0,-1.2,69
0.0,-1.05,49
0.0,-0.9,24
0.0,-0.75,41
0.0,-0.6,77
0.0,-0.45,69
0.0,-0.3,108
0.0,-0.15,138
0.0,0.0,139
0.0,0.15,123
0.0,0.3,112
0.0,0.45,116
0.0,0.6,126
0.0,0.75,128
0.0,0.9,129
0.0,1.05,141
0.0,1.2,127
0.0,1.35,131
0.0,1.5,132
0.15,-1.5,97
0.15,-1.35,89
0.15,-1.2,76
0.15,-1.05,51
0.15,-0.9,9
0.15,-0.75,37
0.15,-0.6,96
0.15,-0.45,76
0.15,-0.3,66
0.15,-0.15,148
0.15,0.0,164
0.15,0.15,154
0.15,0.3,135
0.15,0.45,133
0.15,0.6,131
0.15,0.75,134
0.15,0.9,136
0.15,1.05,137
0.15,1.2,122
0.15,1.35,121
0.15,1.5,105
0.3,-1.5,98
0.3,-1.35,98
0.3,-1.2,92
0.3,-1.05,79
0.3,-0.9,69
0.3,-0.75,91
0.3,-0.6,128
0.3,-0.45,188
0.3,-0.3,203
0.3,-0.15,205
0.3,0.0,211
0.3,0.15,178
0.3,0.3,144
0.3,0.45,121
0.3,0.6,123
0.3,0.75,122
0.3,0.9,122
0.3,1.05,106
0.3,1.2,105
0.3,1.35,102
0.3,1.5,104
0.45,-1.5,98
0.45,-1.35,98
0.45,-1.2,98
0.45,-1.05,103
0.45,-0.9,106
0.45,-0.75,119
0.45,-0.6,150
0.45,-0.45,172
0.45,-0.3,196
0.45,-0.15,184
0.45,0.0,255
0.45,0.15,165
0.45,0.3,98
0.45,0.45,106
0.45,0.6,112
0.45,0.75,115
0.45,0.9,104
0.45,1.05,100
0.45,1.2,103
0.45,1.35,103
0.45,1.5,102
0.6,-1.5,102
0.6,-1.35,106
0.6,-1.2,113
0.6,-1.05,126
0.6,-0.9,127
0.6,-0.75,129
0.6,-0.6,147
0.6,-0.45,166
0.6,-0.3,125
0.6,-0.15,62
0.6,0.0,136
0.6,0.15,103
0.6,0.3,54
0.6,0.45,84
0.6,0.6,96
0.6,0.75,99
0.6,0.9,97
0.6,1.05,97
0.6,1.2,103
0.6,1.35,101
0.6,1.5,101
0.75,-1.5,91
0.75,-1.35,113
0.75,-1.2,125
0.75,-1.05,148
0.75,-0.9,161
0.75,-0.75,142
0.75,-0.6,139
0.75,-0.45,190
0.75,-0.3,98
0.75,-0.15,49
0.75,0.0,108
0.75,0.15,93
0.75,0.3,80
0.75,0.45,78
0.75,0.6,79
0.75,0.75,80
0.75,0.9,83
0.75,1.05,90
0.75,1.2,91
0.75,1.35,92
0.75,1.5,92
0.9,-1.5,102
0.9,-1.35,109
0.9,-1.2,118
0.9,-1.05,156
0.9,-0.9,203
0.9,-0.75,124
0.9,-0.6,89
0.9,-0.45,87
0.9,-0.3,66
0.9,-0.15,70
0.9,0.0,101
0.9,0.15,69
0.9,0.3,71
0.9,0.45,71
0.9,0.6,71
0.9,0.75,78
0.9,0.9,80
0.9,1.05,81
0.9,1.2,83
0.9,1.35,90
0.9,1.5,91
1.05,-1.5,94
1.05,-1.35,96
1.05,-1.2,101
1.05,-1.05,104
1.05,-0.9,102
1.05,-0.75,87
1.05,-0.6,61
1.05,-0.45,44
1.05,-0.3,46
1.05,-0.15,32
1.05,0.0,57
1.05,0.15,54
1.05,0.3,61
1.05,0.45,59
1.05,0.6,59
1.05,0.75,62
1.05,0.9,64
1.05,1.05,64
1.05,1.2,64
1.05,1.35,67
1.05,1.5,67
1.2,-1.5,95
1.2,-1.35,94
1.2,-1.2,85
1.2,-1.05,71
1.2,-0.9,51
1.2,-0.75,72
1.2,-0.6,42
1.2,-0.45,31
1.2,-0.3,20
1.2,-0.15,53
1.2,0.0,69
1.2,0.15,52
1.2,0.3,53
1.2,0.45,59
1.2,0.6,65
1.2,0.75,67
1.2,0.9,67
1.2,1.05,67
1.2,1.2,67
1.2,1.35,67
1.2,1.5,64
1.35,-1.5,81
1.35,-1.35,81
1.35,-1.2,80
1.35,-1.05,76
1.35,-0.9,80
1.35,-0.75,95
1.35,-0.6,47
1.35,-0.45,2
1.35,-0.3,44
1.35,-0.15,158
1.35,0.0,92
1.35,0.15,58
1.35,0.3,33
1.35,0.45,45
1.35,0.6,56
1.35,0.75,63
1.35,0.9,58
1.35,1.05,58
1.35,1.2,58
1.35,1.35,57
1.35,1.5,59
1.5,-1.5,81
1.5,-1.35,80
1.5,-1.2,81
1.5,-1.05,81
1.5,-0.9,86
1.5,-0.75,84
1.5,-0.6,67
1.5,-0.45,35
1.5,-0.3,35
1.5,-0.15,50
1.5,0.0,49
1.5,0.15,33
1.5,0.3,37
1.5,0.45,53
1.5,0.6,69
1.5,0.75,70
1.5,0.9,71
1.5,1.05,67
1.5,1.2,64
1.5,1.35,62
1.5,1.5,57
1.65,-1.5,81
1.65,-1.35,80
1.65,-1.2,79
1.65,-1.05,71
1.65,-0.9,72
1.65,-0.75,79
1.65,-0.6,104
1.65,-0.45,52
1.65,-0.3,43
1.65,-0.15,36
1.65,0.0,8
1.65,0.15,13
1.65,0.3,18
1.65,0.45,89
1.65,0.6,128
1.65,0.75,97
1.65,0.9,78
1.65,1.05,68
1.65,1.2,63
1.65,1.35,60
1.65,1.5,54
1.8,-1.5,77
1.8,-1.35,71
1.8,-1.2,73
1.8,-1.05,68
1.8,-0.9,61
1.8,-0.75,67
1.8,-0.6,113
1.8,-0.45,101
1.8,-0.3,49
1.8,-0.15,77
1.8,0.0,60
1.8,0.15,17
1.8,0.3,47
1.8,0.45,136
1.8,0.6,174
1.8,0.75,105
1.8,0.9,75
1.8,1.05,63
1.8,1.2,57
1.8,1.35,54
1.8,1.5,54
1.95,-1.5,64
1.95,-1.35,64
1.95,-1.2,64
1.95,-1.05,65
1.95,-0.9,61
1.95,-0.75,69
1.95,-0.6,77
1.95,-0.45,53
1.95,-0.3,12
1.95,-0.15,49
1.95,0.0,73
1.95,0.15,56
1.95,0.3,42
1.95,0.45,69
1.95,0.6,94
1.95,0.75,84
1.95,0.9,73
1.95,1.05,67
1.95,1.2,59
1.95,1.35,56
1.95,1.5,54
2.1,-1.5,51
2.1,-1.35,48
2.1,-1.2,48
2.1,-1.05,49
2.1,-0.9,53
2.1,-0.75,54
2.1,-0.6,50
2.1,-0.45,48
2.1,-0.3,50
2.1,-0.15,60
2.1,0.0,47
2.1,0.15,16
2.1,0.3,33
2.1,0.45,51
2.1,0.6,59
2.1,0.75,66
2.1,0.9,63
2.1,1.05,61
2.1,1.2,59
2.1,1.35,57
2.1,1.5,52
2.25,-1.5,33
2.25,-1.35,34
2.25,-1.2,34
2.25,-1.05,37
2.25,-0.9,46
2.25,-0.75,48
2.25,-0.6,52
2.25,-0.45,66
2.25,-0.3,115
2.25,-0.15,99
2.25,0.0,77
2.25,0.15,45
2.25,0.3,40
2.25,0.45,47
2.25,0.6,51
2.25,0.75,57
2.25,0.9,60
2.25,1.05,59
2.25,1.2,59
2.25,1.35,55
2.25,1.5,47
2.4,-1.5,32
2.4,-1.35,31
2.4,-1.2,30
2.4,-1.05,31
2.4,-0.9,42
2.4,-0.75,44
2.4,-0.6,57
2.4,-0.45,60
2.4,-0.3,90
2.4,-0.15,30
2.4,0.0,18
2.4,0.15,33
2.4,0.3,29
2.4,0.45,32
2.4,0.6,35
2.4,0.75,43
2.4,0.9,42
2.4,1.05,44
2.4,1.2,44
2.4,1.35,44
2.4,1.5,56
2.55,-1.5,35
2.55,-1.35,35
2.55,-1.2,35
2.55,-1.05,27
2.55,-0.9,3
2.55,-0.75,33
2.55,-0.6,3
2.55,-0.45,61
2.55,-0.3,27
2.55,-0.15,27
2.55,0.0,33
2.55,0.15,11
2.55,0.3,23
2.55,0.45,33
2.55,0.6,36
2.55,0.75,37
2.55,0.9,59
2.55,1.05,58
2.55,1.2,60
2.55,1.35,72
2.55,1.5,54
2.7,-1.5,35
2.7,-1.35,35
2.7,-1.2,31
2.7,-1.05,29
2.7,-0.9,19
2.7,-0.75,38
2.7,-0.6,3
2.7,-0.45,143
2.7,-0.3,68
2.7,-0.15,40
2.7,0.0,49
2.7,0.15,48
2.7,0.3,36
2.7,0.45,35
2.7,0.6,56
2.7,0.75,60
2.7,0.9,58
2.7,1.05,59
2.7,1.2,55
2.7,1.35,67
2.7,1.5,67
2.85,-1.5,36
2.85,-1.35,36
2.85,-1.2,34
2.85,-1.05,40
2.85,-0.9,44
2.85,-0.75,64
2.85,-0.6,73
2.85,-0.45,102
2.85,-0.3,181
2.85,-0.15,56
2.85,0.0,67
2.85,0.15,60
2.85,0.3,50
2.85,0.45,58
2.85,0.6,60
2.85,0.75,58
2.85,0.9,57
2.85,1.05,53
2.85,1.2,52
2.85,1.35,47
2.85,1.5,46
3.0,-1.5,36
3.0,-1.35,26
3.0,-1.2,26
3.0,-1.05,27
3.0,-0.9,40
3.0,-0.75,59
3.0,-0.6,67
3.0,-0.45,70
3.0,-0.3,64
3.0,-0.15,69
3.0,0.0,52
3.0,0.15,50
3.0,0.3,30
3.0,0.45,64
3.0,0.6,62
3.0,0.75,56
3.0,0.9,51
3.0,1.05,49
3.0,1.2,43
3.0,1.35,45
3.0,1.5,45
3.15,-1.5,48
3.15,-1.35,49
3.15,-1.2,39
3.15,-1.05,41
3.15,-0.9,45
3.15,-0.75,49
3.15,-0.6,50
3.15,-0.45,49
3.15,-0.3,57
3.15,-0.15,103
3.15,0.0,52
3.15,0.15,30
3.15,0.3,152
3.15,0.45,69
3.15,0.6,54
3.15,0.75,51
3.15,0.9,44
3.15,1.05,42
3.15,1.2,40
3.15,1.35,39
3.15,1.5,38
3.3,-1.5,52
3.3,-1.35,59
3.3,-1.2,53
3.3,-1.05,40
3.3,-0.9,38
3.3,-0.75,49
3.3,-0.6,57
3.3,-0.45,45
3.3,-0.3,56
3.3,-0.15,59
3.3,0.0,42
3.3,0.15,31
3.3,0.3,0
3.3,0.45,32
3.3,0.6,40
3.3,0.75,38
3.3,0.9,36
3.3,1.05,36
3.3,1.2,36
3.3,1.35,36
3.3,1.5,39
3.45,-1.5,63
3.45,-1.35,61
3.45,-1.2,52
3.45,-1.05,22
3.45,-0.9,20
3.45,-0.75,69
3.45,-0.6,46
3.45,-0.45,34
3.45,-0.3,39
3.45,-0.15,59
3.45,0.0,40
3.45,0.15,9
3.45,0.3,2
3.45,0.45,26
3.45,0.6,44
3.45,0.75,44
3.45,0.9,42
3.45,1.05,36
3.45,1.2,40
3.45,1.35,52
3.45,1.5,55
3.6,-1.5,63
3.6,-1.35,60
3.6,-1.2,55
3.6,-1.05,46
3.6,-0.9,59
3.6,-0.75,97
3.6,-0.6,118
3.6,-0.45,41
3.6,-0.3,5
3.6,-0.15,12
3.6,0.0,54
3.6,0.15,69
3.6,0.3,46
3.6,0.45,44
3.6,0.6,44
3.6,0.75,37
3.6,0.9,23
3.6,1.05,33
3.6,1.2,42
3.6,1.35,47
3.6,1.5,54
3.75,-1.5,73
3.75,-1.35,71
3.75,-1.2,69
3.75,-1.05,75
3.75,-0.9,75
3.75,-0.75,101
3.75,-0.6,67
3.75,-0.45,67
3.75,-0.3,110
3.75,-0.15,29
3.75,0.0,50
3.75,0.15,96
3.75,0.3,77
3.75,0.45,70
3.75,0.6,60
3.75,0.75,42
3.75,0.9,5
3.75,1.05,6
3.75,1.2,27
3.75,1.35,41
3.75,1.5,48
3.9,-1.5,73
3.9,-1.35,75
3.9,-1.2,75
3.9,-1.05,72
3.9,-0.9,56
3.9,-0.75,71
3.9,-0.6,192
3.9,-0.45,57
3.9,-0.3,38
3.9,-0.15,0
3.9,0.0,81
3.9,0.15,28
3.9,0.3,71
3.9,0.45,75
3.9,0.6,77
3.9,0.75,55
3.9,0.9,16
3.9,1.05,14
3.9,1.2,29
3.9,1.35,35
3.9,1.5,40
4.05,-1.5,56
4.05,-1.35,55
4.05,-1.2,55
4.05,-1.05,59
4.05,-0.9,46
4.05,-0.75,62
4.05,-0.6,163
4.05,-0.45,63
4.05,-0.3,71
4.05,-0.15,74
4.05,0.0,41
4.05,0.15,17
4.05,0.3,76
4.05,0.45,80
4.05,0.6,70
4.05,0.75,63
4.05,0.9,44
4.05,1.05,44
4.05,1.2,47
4.05,1.35,52
4.05,1.5,56
4.2,-1.5,57
4.2,-1.35,68
4.2,-1.2,64
4.2,-1.05,55
4.2,-0.9,43
4.2,-0.75,15
4.2,-0.6,79
4.2,-0.45,64
4.2,-0.3,36
4.2,-0.15,16
4.2,0.0,69
4.2,0.15,58
4.2,0.3,43
4.2,0.45,88
4.2,0.6,114
4.2,0.75,107
4.2,0.9,89
4.2,1.05,77
4.2,1.2,72
4.2,1.35,72
4.2,1.5,61
4.35,-1.5,59
4.35,-1.35,58
4.35,-1.2,57
4.35,-1.05,54
4.35,-0.9,46
4.35,-0.75,26
4.35,-0.6,22
4.35,-0.45,42
4.35,-0.3,35
4.35,-0.15,89
4.35,0.0,2
4.35,0.15,69
4.35,0.3,26
4.35,0.45,79
4.35,0.6,199
4.35,0.75,130
4.35,0.9,94
4.35,1.05,79
4.35,1.2,71
4.35,1.35,67
4.35,1.5,65
4.5,-1.5,52
4.5,-1.35,52
4.5,-1.2,52
4.5,-1.05,52
4.5,-0.9,56
4.5,-0.75,52
4.5,-0.6,54
4.5,-0.45,61
4.5,-0.3,38
4.5,-0.15,43
4.5,0.0,41
4.5,0.15,59
4.5,0.3,6
4.5,0.45,91
4.5,0.6,115
4.5,0.75,108
4.5,0.9,81
4.5,1.05,69
4.5,1.2,62
4.5,1.35,58
4.5,1.5,58
4.65,-1.5,60
4.65,-1.35,61
4.65,-1.2,64
4.65,-1.05,66
4.65,-0.9,68
4.65,-0.75,182
4.65,-0.6,63
4.65,-0.45,107
4.65,-0.3,73
4.65,-0.15,49
4.65,0.0,52
4.65,0.15,59
4.65,0.3,43
4.65,0.45,55
4.65,0.6,68
4.65,0.75,74
4.65,0.9,83
4.65,1.05,65
4.65,1.2,63
4.65,1.35,60
4.65,1.5,58
4.8,-1.5,63
4.8,-1.35,65
4.8,-1.2,71
4.8,-1.05,79
4.8,-0.9,80
4.8,-0.75,68
4.8,-0.6,54
4.8,-0.45,26
4.8,-0.3,70
4.8,-0.15,61
4.8,0.0,22
4.8,0.15,14
4.8,0.3,1
4.8,0.45,37
4.8,0.6,59
4.8,0.75,67
4.8,0.9,70
4.8,1.05,71
4.8,1.2,57
4.8,1.35,55
4.8,1.5,50
4.95,-1.5,80
4.95,-1.35,82
4.95,-1.2,80
4.95,-1.05,79
4.95,-0.9,60
4.95,-0.75,19
4.95,-0.6,40
4.95,-0.45,19
4.95,-0.3,33
4.95,-0.15,54
4.95,0.0,52
4.95,0.15,51
4.95,0.3,30
4.95,0.45,45
4.95,0.6,56
4.95,0.75,71
4.95,0.9,86
4.95,1.05,52
4.95,1.2,53
4.95,1.35,34
4.95,1.5,33
5.1,-1.5,79
5.1,-1.35,84
5.1,-1.2,93
5.1,-1.05,131
5.1,-0.9,138
5.1,-0.75,54
5.1,-0.6,49
5.1,-0.45,0
5.1,-0.3,44
5.1,-0.15,16
5.1,0.0,44
5.1,0.15,71
5.1,0.3,75
5.1,0.45,57
5.1,0.6,49
5.1,0.75,49
5.1,0.9,49
5.1,1.05,58
5.1,1.2,58
5.1,1.35,59
5.1,1.5,55
5.25,-1.5,70
5.25,-1.35,74
5.25,-1.2,83
5.25,-1.05,107
5.25,-0.9,98
5.25,-0.75,40
5.25,-0.6,108
5.25,-0.45,49
5.25,-0.3,176
5.25,-0.15,5
5.25,0.0,33
5.25,0.15,131
5.25,0.3,89
5.25,0.45,59
5.25,0.6,59
5.25,0.75,55
5.25,0.9,53
5.25,1.05,53
5.25,1.2,60
5.25,1.35,65
5.25,1.5,66
5.4,-1.5,66
5.4,-1.35,65
5.4,-1.2,63
5.4,-1.05,48
5.4,-0.9,42
5.4,-0.75,109
5.4,-0.6,15
5.4,-0.45,45
5.4,-0.3,110
5.4,-0.15,43
5.4,0.0,7
5.4,0.15,54
5.4,0.3,60
5.4,0.45,56
5.4,0.6,56
5.4,0.75,58
5.4,0.9,60
5.4,1.05,61
5.4,1.2,63
5.4,1.35,51
5.4,1.5,59
5.55,-1.5,64
5.55,-1.35,49
5.55,-1.2,41
5.55,-1.05,29
5.55,-0.9,21
5.55,-0.75,31
5.55,-0.6,50
5.55,-0.45,54
5.55,-0.3,223
5.55,-0.15,44
5.55,0.0,27
5.55,0.15,133
5.55,0.3,15
5.55,0.45,17
5.55,0.6,33
5.55,0.75,48
5.55,0.9,52
5.55,1.05,55
5.55,1.2,59
5.55,1.35,61
5.55,1.5,61
5.7,-1.5,44
5.7,-1.35,41
5.7,-1.2,38
5.7,-1.05,23
5.7,-0.9,1
5.7,-0.75,37
5.7,-0.6,46
5.7,-0.45,43
5.7,-0.3,35
5.7,-0.15,65
5.7,0.0,82
5.7,0.15,46
5.7,0.3,71
5.7,0.45,27
5.7,0.6,36
5.7,0.75,35
5.7,0.9,44
5.7,1.05,52
5.7,1.2,57
5.7,1.35,60
5.7,1.5,49
5.85,-1.5,43
5.85,-1.35,27
5.85,-1.2,26
5.85,-1.05,21
5.85,-0.9,23
5.85,-0.75,48
5.85,-0.6,61
5.85,-0.45,149
5.85,-0.3,27
5.85,-0.15,30
5.85,0.0,46
5.85,0.15,134
5.85,0.3,79
5.85,0.45,40
5.85,0.6,5
5.85,0.75,4
5.85,0.9,20
5.85,1.05,28
5.85,1.2,31
5.85,1.35,33
5.85,1.5,34
6.0,-1.5,42
6.0,-1.35,48
6.0,-1.2,32
6.0,-1.05,30
6.0,-0.9,21
6.0,-0.75,36
6.0,-0.6,89
6.0,-0.45,53
6.0,-0.3,31
6.0,-0.15,11
6.0,0.0,63
6.0,0.15,44
6.0,0.3,58
6.0,0.45,51
6.0,0.6,38
6.0,0.75,31
6.0,0.9,41
6.0,1.05,50
6.0,1.2,61
6.0,1.35,64
6.0,1.5,66
6.15,-1.5,55
6.15,-1.35,54
6.15,-1.2,53
6.15,-1.05,48
6.15,-0.9,34
6.15,-0.75,22
6.15,-0.6,30
6.15,-0.45,75
6.15,-0.3,64
6.15,-0.15,60
6.15,0.0,44
6.15,0.15,44
6.15,0.3,69
6.15,0.45,73
6.15,0.6,60
6.15,0.75,47
6.15,0.9,45
6.15,1.05,47
6.15,1.2,48
6.15,1.35,48
6.15,1.5,50
6.3,-1.5,64
6.3,-1.35,64
6.3,-1.2,64
6.3,-1.05,65
6.3,-0.9,60
6.3,-0.75,60
6.3,-0.6,68
6.3,-0.45,59
6.3,-0.3,20
6.3,-0.15,42
6.3,0.0,25
6.3,0.15,175
6.3,0.3,114
6.3,0.45,88
6.3,0.6,69
6.3,0.75,58
6.3,0.9,54
6.3,1.05,50
6.3,1.2,50
6.3,1.35,51
6.3,1.5,52
6.45,-1.5,59
6.45,-1.35,59
6.45,-1.2,59
6.45,-1.05,73
6.45,-0.9,110
6.45,-0.75,67
6.45,-0.6,51
6.45,-0.45,74
6.45,-0.3,37
6.45,-0.15,87
6.45,0.0,59
6.45,0.15,82
6.45,0.3,102
6.45,0.45,92
6.45,0.6,75
6.45,0.75,64
6.45,0.9,60
6.45,1.05,60
6.45,1.2,54
6.45,1.35,55
6.45,1.5,53
6.6,-1.5,59
6.6,-1.35,59
6.6,-1.2,57
6.6,-1.05,65
6.6,-0.9,82
6.6,-0.75,52
6.6,-0.6,27
6.6,-0.45,117
6.6,-0.3,34
6.6,-0.15,36
6.6,0.0,87
6.6,0.15,81
6.6,0.3,73
6.6,0.45,60
6.6,0.6,17
6.6,0.75,34
6.6,0.9,54
6.6,1.05,43
6.6,1.2,46
6.6,1.35,57
6.6,1.5,57
6.75,-1.5,56
6.75,-1.35,56
6.75,-1.2,56
6.75,-1.05,55
6.75,-0.9,57
6.75,-0.75,29
6.75,-0.6,76
6.75,-0.45,7
6.75,-0.3,62
6.75,-0.15,180
6.75,0.0,45
6.75,0.15,39
6.75,0.3,31
6.75,0.45,27
6.75,0.6,2
6.75,0.75,12
6.75,0.9,38
6.75,1.05,48
6.75,1.2,53
6.75,1.35,56
6.75,1.5,57
6.9,-1.5,61
6.9,-1.35,61
6.9,-1.2,61
6.9,-1.05,61
6.9,-0.9,48
6.9,-0.75,32
6.9,-0.6,82
6.9,-0.45,58
6.9,-0.3,47
6.9,-0.15,6
6.9,0.0,27
6.9,0.15,40
6.9,0.3,27
6.9,0.45,21
6.9,0.6,27
6.9,0.75,28
6.9,0.9,48
6.9,1.05,54
6.9,1.2,57
6.9,1.35,56
6.9,1.5,57
7.05,-1.5,50
7.05,-1.35,61
7.05,-1.2,61
7.05,-1.05,53
7.05,-0.9,59
7.05,-0.75,130
7.05,-0.6,32
7.05,-0.45,52
7.05,-0.3,7
7.05,-0.15,70
7.05,0.0,119
7.05,0.15,31
7.05,0.3,44
7.05,0.45,57
7.05,0.6,75
7.05,0.75,68
7.05,0.9,69
7.05,1.05,71
7.05,1.2,72
7.05,1.35,73
7.05,1.5,74
7.2,-1.5,67
7.2,-1.35,67
7.2,-1.2,68
7.2,-1.05,70
7.2,-0.9,71
7.2,-0.75,73
7.2,-0.6,46
7.2,-0.45,56
7.2,-0.3,112
7.2,-0.15,76
7.2,0.0,46
7.2,0.15,144
7.2,0.3,61
7.2,0.45,88
7.2,0.6,93
7.2,0.75,93
7.2,0.9,91
7.2,1.05,79
7.2,1.2,81
7.2,1.35,81
7.2,1.5,70
7.35,-1.5,77
7.35,-1.35,80
7.35,-1.2,80
7.35,-1.05,74
7.35,-0.9,71
7.35,-0.75,85
7.35,-0.6,15
7.35,-0.45,30
7.35,-0.3,31
7.35,-0.15,36
7.35,0.0,21
7.35,0.15,138
7.35,0.3,111
7.35,0.45,118
7.35,0.6,125
7.35,0.75,105
7.35,0.9,97
7.35,1.05,92
7.35,1.2,75
7.35,1.35,73
7.35,1.5,54
7.5,-1.5,79
7.5,-1.35,79
7.5,-1.2,78
7.5,-1.05,73
7.5,-0.9,64
7.5,-0.75,40
7.5,-0.6,104
7.5,-0.45,79
7.5,-0.3,12
7.5,-0.15,22
7.5,0.0,66
7.5,0.15,1
7.5,0.3,29
7.5,0.45,154
7.5,0.6,137
7.5,0.75,103
7.5,0.9,88
7.5,1.05,83
7.5,1.2,58
7.5,1.35,55
7.5,1.5,54
7.65,-1.5,56
7.65,-1.35,55
7.65,-1.2,51
7.65,-1.05,50
7.65,-0.9,39
7.65,-0.75,22
7.65,-0.6,22
7.65,-0.45,41
7.65,-0.3,86
7.65,-0.15,49
7.65,0.0,18
7.65,0.15,6
7.65,0.3,55
7.65,0.45,59
7.65,0.6,76
7.65,0.75,69
7.65,0.9,63
7.65,1.05,62
7.65,1.2,59
7.65,1.35,59
7.65,1.5,54
7.8,-1.5,35
7.8,-1.35,40
7.8,-1.2,51
7.8,-1.05,91
7.8,-0.9,143
7.8,-0.75,22
7.8,-0.6,34
7.8,-0.45,0
7.8,-0.3,29
7.8,-0.15,104
7.8,0.0,18
7.8,0.15,10
7.8,0.3,14
7.8,0.45,34
7.8,0.6,49
7.8,0.75,54
7.8,0.9,55
7.8,1.05,55
7.8,1.2,55
7.8,1.35,54
7.8,1.5,54
7.95,-1.5,46
7.95,-1.35,54
7.95,-1.2,62
7.95,-1.05,90
7.95,-0.9,102
7.95,-0.75,15
7.95,-0.6,43
7.95,-0.45,0
7.95,-0.3,28
7.95,-0.15,29
7.95,0.0,40
7.95,0.15,31
7.95,0.3,33
7.95,0.45,13
7.95,0.6,30
7.95,0.75,40
7.95,0.9,52
7.95,1.05,55
7.95,1.2,55
7.95,1.35,55
7.95,1.5,44
8.1,-1.5,59
8.1,-1.35,60
8.1,-1.2,61
8.1,-1.05,48
8.1,-0.9,36
8.1,-0.75,10
8.1,-0.6,40
8.1,-0.45,73
8.1,-0.3,3
8.1,-0.15,37
8.1,0.0,38
8.1,0.15,87
8.1,0.3,38
8.1,0.45,8
8.1,0.6,19
8.1,0.75,31
8.1,0.9,50
8.1,1.05,51
8.1,1.2,53
8.1,1.35,44
8.1,1.5,41
8.25,-1.5,74
8.25,-1.35,73
8.25,-1.2,71
8.25,-1.05,55
8.25,-0.9,46
8.25,-0.75,18
8.25,-0.6,10
8.25,-0.45,60
8.25,-0.3,52
8.25,-0.15,31
8.25,0.0,56
8.25,0.15,5
8.25,0.3,45
8.25,0.45,5
8.25,0.6,35
8.25,0.75,37
8.25,0.9,41
8.25,1.05,43
8.25,1.2,62
8.25,1.35,64
8.25,1.5,51
8.4,-1.5,124
8.4,-1.35,122
8.4,-1.2,107
8.4,-1.05,93
8.4,-0.9,72
8.4,-0.75,77
8.4,-0.6,31
8.4,-0.45,79
8.4,-0.3,55
8.4,-0.15,25
8.4,0.0,37
8.4,0.15,133
8.4,0.3,72
8.4,0.45,45
8.4,0.6,41
8.4,0.75,35
8.4,0.9,38
8.4,1.05,41
8.4,1.2,42
8.4,1.35,61
8.4,1.5,74
8.55,-1.5,126
8.55,-1.35,126
8.55,-1.2,127
8.55,-1.05,131
8.55,-0.9,139
8.55,-0.75,153
8.55,-0.6,116
8.55,-0.45,29
8.55,-0.3,54
8.55,-0.15,55
8.55,0.0,22
8.55,0.15,76
8.55,0.3,76
8.55,0.45,53
8.55,0.6,43
8.55,0.75,42
8.55,0.9,42
8.55,1.05,61
8.55,1.2,64
8.55,1.35,66
8.55,1.5,63
8.7,-1.5,118
8.7,-1.35,119
8.7,-1.2,119
8.7,-1.05,121
8.7,-0.9,118
8.7,-0.75,204
8.7,-0.6,44
8.7,-0.45,20
8.7,-0.3,37
8.7,-0.15,14
8.7,0.0,2
8.7,0.15,36
8.7,0.3,50
8.7,0.45,43
8.7,0.6,40
8.7,0.75,67
8.7,0.9,72
8.7,1.05,76
8.7,1.2,77
8.7,1.35,77
8.7,1.5,77
8.85,-1.5,112
8.85,-1.35,101
8.85,-1.2,100
8.85,-1.05,98
8.85,-0.9,83
8.85,-0.75,74
8.85,-0.6,92
8.85,-0.45,20
8.85,-0.3,28
8.85,-0.15,36
8.85,0.0,40
8.85,0.15,60
8.85,0.3,50
8.85,0.45,0
8.85,0.6,37
8.85,0.75,67
8.85,0.9,77
8.85,1.05,77
8.85,1.2,76
8.85,1.35,76
8.85,1.5,76
9.0,-1.5,110
9.0,-1.35,108
9.0,-1.2,106
9.0,-1.05,92
9.0,-0.9,83
9.0,-0.75,40
9.0,-0.6,111
9.0,-0.45,58
9.0,-0.3,0
9.0,-0.15,46
9.0,0.0,22
9.0,0.15,58
9.0,0.3,45
9.0,0.45,55
9.0,0.6,68
9.0,0.75,74
9.0,0.9,75
9.0,1.05,77
9.0,1.2,76
9.0,1.35,80
9.0,1.5,80
9.15,-1.5,97
9.15,-1.35,96
9.15,-1.2,94
9.15,-1.05,83
9.15,-0.9,84
9.15,-0.75,111
9.15,-0.6,101
9.15,-0.45,12
9.15,-0.3,34
9.15,-0.15,18
9.15,0.0,46
9.15,0.15,22
9.15,0.3,49
9.15,0.45,109
9.15,0.6,134
9.15,0.75,68
9.15,0.9,83
9.15,1.05,86
9.15,1.2,85
9.15,1.35,87
9.15,1.5,87
9.3,-1.5,94
9.3,-1.35,94
9.3,-1.2,99
9.3,-1.05,100
9.3,-0.9,117
9.3,-0.75,109
9.3,-0.6,145
9.3,-0.45,71
9.3,-0.3,28
9.3,-0.15,139
9.3,0.0,125
9.3,0.15,14
9.3,0.3,84
9.3,0.45,196
9.3,0.6,255
9.3,0.75,89
9.3,0.9,91
9.3,1.05,95
9.3,1.2,95
9.3,1.35,91
9.3,1.5,92
9.45,-1.5,133
9.45,-1.35,121
9.45,-1.2,121
9.45,-1.05,112
9.45,-0.9,133
9.45,-0.75,141
9.45,-0.6,106
9.45,-0.45,26
9.45,-0.3,15
9.45,-0.15,177
9.45,0.0,97
9.45,0.15,155
9.45,0.3,119
9.45,0.45,147
9.45,0.6,170
9.45,0.75,130
9.45,0.9,108
9.45,1.05,102
9.45,1.2,98
9.45,1.35,96
9.45,1.5,94
9.6,-1.5,105
9.6,-1.35,104
9.6,-1.2,89
9.6,-1.05,90
9.6,-0.9,97
9.6,-0.75,107
9.6,-0.6,99
9.6,-0.45,89
9.6,-0.3,24
9.6,-0.15,35
9.6,0.0,35
9.6,0.15,41
9.6,0.3,113
9.6,0.45,140
9.6,0.6,134
9.6,0.75,130
9.6,0.9,114
9.6,1.05,109
9.6,1.2,105
9.6,1.35,103
9.6,1.5,98
9.75,-1.5,71
9.75,-1.35,70
9.75,-1.2,69
9.75,-1.05,62
9.75,-0.9,64
9.75,-0.75,107
9.75,-0.6,26
9.75,-0.45,26
9.75,-0.3,64
9.75,-0.15,45
9.75,0.0,46
9.75,0.15,52
9.75,0.3,82
9.75,0.45,129
9.75,0.6,120
9.75,0.75,120
9.75,0.9,118
9.75,1.05,106
9.75,1.2,104
9.75,1.35,102
9.75,1.5,101
9.9,-1.5,70
9.9,-1.35,70
9.9,-1.2,68
9.9,-1.05,63
9.9,-0.9,57
9.9,-0.75,53
9.9,-0.6,26
9.9,-0.45,34
9.9,-0.3,18
9.9,-0.15,66
9.9,0.0,79
9.9,0.15,64
9.9,0.3,74
9.9,0.45,94
9.9,0.6,108
9.9,0.75,102
9.9,0.9,103
9.9,1.05,103
9.9,1.2,103
9.9,1.35,103
9.9,1.5,102
10.05,-1.5,69
10.05,-1.35,57
10.05,-1.2,59
10.05,-1.05,63
10.05,-0.9,64
10.05,-0.75,34
10.05,-0.6,37
10.05,-0.45,79
10.05,-0.3,97
10.05,-0.15,85
10.05,0.0,190
10.05,0.15,77
10.05,0.3,69
10.05,0.45,74
10.05,0.6,77
10.05,0.75,92
10.05,0.9,85
10.05,1.05,87
10.05,1.2,88
10.05,1.35,88
10.05,1.5,88
10.2,-1.5,47
10.2,-1.35,61
10.2,-1.2,60
10.2,-1.05,61
10.2,-0.9,99
10.2,-0.75,33
10.2,-0.6,40
10.2,-0.45,182
10.2,-0.3,45
10.2,-0.15,101
10.2,0.0,92
10.2,0.15,59
10.2,0.3,53
10.2,0.45,63
10.2,0.6,69
10.2,0.75,73
10.2,0.9,72
10.2,1.05,80
10.2,1.2,86
10.2,1.35,84
10.2,1.5,85
10.35,-1.5,40
10.35,-1.35,41
10.35,-1.2,40
10.35,-1.05,44
10.35,-0.9,41
10.35,-0.75,25
10.35,-0.6,37
10.35,-0.45,0
10.35,-0.3,83
10.35,-0.15,119
10.35,0.0,78
10.35,0.15,50
10.35,0.3,34
10.35,0.45,48
10.35,0.6,69
10.35,0.75,65
10.35,0.9,69
10.35,1.05,61
10.35,1.2,63
10.35,1.35,64
10.35,1.5,84
10.5,-1.5,25
10.5,-1.35,25
10.5,-1.2,35
10.5,-1.05,29
10.5,-0.9,11
10.5,-0.75,17
10.5,-0.6,16
10.5,-0.45,1
10.5,-0.3,77
10.5,-0.15,123
10.5,0.0,77
10.5,0.15,51
10.5,0.3,30
10.5,0.45,45
10.5,0.6,53
10.5,0.75,56
10.5,0.9,56
10.5,1.05,64
10.5,1.2,66
10.5,1.35,68
10.5,1.5,69
10.65,-1.5,28
10.65,-1.35,27
10.65,-1.2,23
10.65,-1.05,18
10.65,-0.9,6
10.65,-0.75,12
10.65,-0.6,43
10.65,-0.45,48
10.65,-0.3,74
10.65,-0.15,106
10.65,0.0,130
10.65,0.15,59
10.65,0.3,50
10.65,0.45,51
10.65,0.6,64
10.65,0.75,65
10.65,0.9,68
10.65,1.05,70
10.65,1.2,64
10.65,1.35,64
10.65,1.5,64
10.8,-1.5,34
10.8,-1.35,34
10.8,-1.2,29
10.8,-1.05,26
10.8,-0.9,29
10.8,-0.75,14
10.8,-0.6,31
10.8,-0.45,88
10.8,-0.3,88
10.8,-0.15,37
10.8,0.0,77
10.8,0.15,67
10.8,0.3,68
10.8,0.45,65
10.8,0.6,66
10.8,0.75,70
10.8,0.9,71
10.8,1.05,73
10.8,1.2,74
10.8,1.35,74
10.8,1.5,65
10.95,-1.5,45
10.95,-1.35,36
10.95,-1.2,36
10.95,-1.05,42
10.95,-0.9,42
10.95,-0.75,29
10.95,-0.6,21
10.95,-0.45,36
10.95,-0.3,79
10.95,-0.15,83
10.95,0.0,91
10.95,0.15,53
10.95,0.3,76
10.95,0.45,75
10.95,0.6,73
10.95,0.75,77
10.95,0.9,74
10.95,1.05,75
10.95,1.2,76
10.95,1.35,67
10.95,1.5,66
11.1,-1.5,45
11.1,-1.35,45
11.1,-1.2,45
11.1,-1.05,46
11.1,-0.9,45
11.1,-0.75,50
11.1,-0.6,51
11.1,-0.45,96
11.1,-0.3,148
11.1,-0.15,171
11.1,0.0,126
11.1,0.15,41
11.1,0.3,108
11.1,0.45,65
11.1,0.6,57
11.1,0.75,73
11.1,0.9,77
11.1,1.05,78
11.1,1.2,78
11.1,1.35,77
11.1,1.5,68
11.25,-1.5,67
11.25,-1.35,67
11.25,-1.2,67
11.25,-1.05,76
11.25,-0.9,68
11.25,-0.75,55
11.25,-0.6,112
11.25,-0.45,154
11.25,-0.3,171
11.25,-0.15,117
11.25,0.0,128
11.25,0.15,178
11.25,0.3,180
11.25,0.45,102
11.25,0.6,77
11.25,0.75,81
11.25,0.9,77
11.25,1.05,77
11.25,1.2,85
11.25,1.35,76
11.25,1.5,76
11.4,-1.5,93
11.4,-1.35,95
11.4,-1.2,106
11.4,-1.05,117
11.4,-0.9,118
11.4,-0.75,111
11.4,-0.6,147
11.4,-0.45,171
11.4,-0.3,161
11.4,-0.15,95
11.4,0.0,94
11.4,0.15,118
11.4,0.3,130
11.4,0.45,98
11.4,0.6,89
11.4,0.75,96
11.4,0.9,99
11.4,1.05,99
11.4,1.2,99
11.4,1.35,94
11.4,1.5,91
11.55,-1.5,130
11.55,-1.35,117
11.55,-1.2,123
11.55,-1.05,133
11.55,-0.9,158
11.55,-0.75,196
11.55,-0.6,199
11.55,-0.45,192
11.55,-0.3,12
11.55,-0.15,78
11.55,0.0,82
11.55,0.15,57
11.55,0.3,58
11.55,0.45,65
11.55,0.6,92
11.55,0.75,99
11.55,0.9,94
11.55,1.05,94
11.55,1.2,95
11.55,1.35,92
11.55,1.5,91
11.7,-1.5,138
11.7,-1.35,141
11.7,-1.2,146
11.7,-1.05,162
11.7,-0.9,173
11.7,-0.75,190
11.7,-0.6,216
11.7,-0.45,236
11.7,-0.3,175
11.7,-0.15,175
11.7,0.0,27
11.7,0.15,69
11.7,0.3,92
11.7,0.45,92
11.7,0.6,95
11.7,0.75,101
11.7,0.9,96
11.7,1.05,97
11.7,1.2,94
11.7,1.35,92
11.7,1.5,91
11.85,-1.5,146
11.85,-1.35,146
11.85,-1.2,150
11.85,-1.05,152
11.85,-0.9,157
11.85,-0.75,159
11.85,-0.6,159
11.85,-0.45,112
11.85,-0.3,66
11.85,-0.15,156
11.85,0.0,93
11.85,0.15,104
11.85,0.3,115
11.85,0.45,122
11.85,0.6,114
11.85,0.75,116
11.85,0.9,107
11.85,1.05,97
11.85,1.2,95
11.85,1.35,92
11.85,1.5,89
12.0,-1.5,153
12.0,-1.35,155
12.0,-1.2,155
12.0,-1.05,155
12.0,-0.9,148
12.0,-0.75,137
12.0,-0.6,114
12.0,-0.45,114
12.0,-0.3,74
12.0,-0.15,83
12.0,0.0,127
12.0,0.15,161
12.0,0.3,127
12.0,0.45,127
12.0,0.6,125
12.0,0.75,113
12.0,0.9,111
12.0,1.05,108
12.0,1.2,94
12.0,1.35,90
12.0,1.5,87
12.15,-1.5,142
12.15,-1.35,147
12.15,-1.2,145
12.15,-1.05,136
12.15,-0.9,146
12.15,-0.75,131
12.15,-0.6,55
12.15,-0.45,92
12.15,-0.3,58
12.15,-0.15,87
12.15,0.0,102
12.15,0.15,220
12.15,0.3,130
12.15,0.45,123
12.15,0.6,112
12.15,0.75,105
12.15,0.9,91
12.15,1.05,96
12.15,1.2,90
12.15,1.35,85
12.15,1.5,81
12.3,-1.5,109
12.3,-1.35,115
12.3,-1.2,113
12.3,-1.05,120
12.3,-0.9,122
12.3,-0.75,144
12.3,-0.6,255
12.3,-0.45,126
12.3,-0.3,58
12.3,-0.15,52
12.3,0.0,62
12.3,0.15,38
12.3,0.3,132
12.3,0.45,121
12.3,0.6,110
12.3,0.75,94
12.3,0.9,86
12.3,1.05,81
12.3,1.2,74
12.3,1.35,78
12.3,1.5,72
12.45,-1.5,87
12.45,-1.35,95
12.45,-1.2,105
12.45,-1.05,114
12.45,-0.9,114
12.45,-0.75,132
12.45,-0.6,170
12.45,-0.45,129
12.45,-0.3,72
12.45,-0.15,56
12.45,0.0,82
12.45,0.15,81
12.45,0.3,102
12.45,0.45,108
12.45,0.6,108
12.45,0.75,94
12.45,0.9,87
12.45,1.05,78
12.45,1.2,68
12.45,1.35,57
12.45,1.5,50
12.6,-1.5,69
12.6,-1.35,80
12.6,-1.2,94
12.6,-1.05,104
12.6,-0.9,112
12.6,-0.75,111
12.6,-0.6,142
12.6,-0.45,184
12.6,-0.3,97
12.6,-0.15,129
12.6,0.0,77
12.6,0.15,69
12.6,0.3,90
12.6,0.45,101
12.6,0.6,88
12.6,0.75,87
12.6,0.9,81
12.6,1.05,70
12.6,1.2,57
12.6,1.35,44
12.6,1.5,37
12.75,-1.5,38
12.75,-1.35,58
12.75,-1.2,82
12.75,-1.05,96
12.75,-0.9,96
12.75,-0.75,70
12.75,-0.6,0
12.75,-0.45,63
12.75,-0.3,150
12.75,-0.15,146
12.75,0.0,13
12.75,0.15,30
12.75,0.3,67
12.75,0.45,84
12.75,0.6,88
12.75,0.75,87
12.75,0.9,73
12.75,1.05,60
12.75,1.2,42
12.75,1.35,24
12.75,1.5,15
12.9,-1.5,5
12.9,-1.35,28
12.9,-1.2,68
12.9,-1.05,89
12.9,-0.9,93
12.9,-0.75,84
12.9,-0.6,86
12.9,-0.45,122
12.9,-0.3,0
12.9,-0.15,76
12.9,0.0,47
12.9,0.15,45
12.9,0.3,66
12.9,0.45,79
12.9,0.6,82
12.9,0.75,81
12.9,0.9,73
12.9,1.05,57
12.9,1.2,30
12.9,1.35,8
12.9,1.5,0
13.05,-1.5,0
13.05,-1.35,20
13.05,-1.2,61
13.05,-1.05,86
13.05,-0.9,95
13.05,-0.75,100
13.05,-0.6,118
13.05,-0.45,160
13.05,-0.3,92
13.05,-0.15,77
13.05,0.0,71
13.05,0.15,68
13.05,0.3,75
13.05,0.45,80
13.05,0.6,80
13.05,0.75,78
13.05,0.9,69
13.05,1.05,53
13.05,1.2,29
13.05,1.35,4
13.05,1.5,0
