-3.0,-1.5,0
-3.0,-1.35,16
-3.0,-1.2,70
-3.0,-1.05,121
-3.0,-0.9,151
-3.0,-0.75,160
-3.0,-0.6,150
-3.0,-0.45,117
-3.0,-0.3,69
-3.0,-0.15,65
-3.0,0.0,122
-3.0,0.15,157
-3.0,0.3,170
-3.0,0.45,175
-3.0,0.6,181
-3.0,0.75,187
-3.0,0.9,179
-3.0,1.05,145
-3.0,1.2,84
-3.0,1.35,19
-3.0,1.5,0
-2.85,-1.5,15
-2.85,-1.35,38
-2.85,-1.2,87
-2.85,-1.05,139
-2.85,-0.9,169
-2.85,-0.75,179
-2.85,-0.6,170
-2.85,-0.45,137
-2.85,-0.3,83
-2.85,-0.15,83
-2.85,0.0,149
-2.85,0.15,175
-2.85,0.3,178
-2.85,0.45,179
-2.85,0.6,183
-2.85,0.75,189
-2.85,0.9,182
-2.85,1.05,152
-2.85,1.2,98
-2.85,1.35,40
-2.85,1.5,14
-2.7,-1.5,63
-2.7,-1.35,85
-2.7,-1.2,124
-2.7,-1.05,163
-2.7,-0.9,194
-2.7,-0.75,210
-2.7,-0.6,207
-2.7,-0.45,185
-2.7,-0.3,168
-2.7,-0.15,184
-2.7,0.0,195
-2.7,0.15,190
-2.7,0.3,185
-2.7,0.45,181
-2.7,0.6,180
-2.7,0.75,181
-2.7,0.9,174
-2.7,1.05,152
-2.7,1.2,117
-2.7,1.35,75
-2.7,1.5,53
-2.55,-1.5,104
-2.55,-1.35,128
-2.55,-1.2,157
-2.55,-1.05,188
-2.55,-0.9,218
-2.55,-0.75,247
-2.55,-0.6,255
-2.55,-0.45,228
-2.55,-0.3,216
-2.55,-0.15,255
-2.55,0.0,241
-2.55,0.15,192
-2.55,0.3,184
-2.55,0.45,180
-2.55,0.6,178
-2.55,0.75,175
-2.55,0.9,168
-2.55,1.05,154
-2.55,1.2,127
-2.55,1.35,104
-2.55,1.5,88
-2.4,-1.5,129
-2.4,-1.35,151
-2.4,-1.2,179
-2.4,-1.05,204
-2.4,-0.9,233
-2.4,-0.75,255
-2.4,-0.6,255
-2.4,-0.45,248
-2.4,-0.3,223
-2.4,-0.15,230
-2.4,0.0,175
-2.4,0.15,156
-2.4,0.3,175
-2.4,0.45,178
-2.4,0.6,177
-2.4,0.75,174
-2.4,0.9,168
-2.4,1.05,151
-2.4,1.2,138
-2.4,1.35,120
-2.4,1.5,109
-2.25,-1.5,147
-2.25,-1.35,160
-2.25,-1.2,183
-2.25,-1.05,209
-2.25,-0.9,230
-2.25,-0.75,255
-2.25,-0.6,255
-2.25,-0.45,243
-2.25,-0.3,218
-2.25,-0.15,187
-2.25,0.0,119
-2.25,0.15,133
-2.25,0.3,169
-2.25,0.45,180
-2.25,0.6,178
-2.25,0.75,167
-2.25,0.9,161
-2.25,1.05,154
-2.25,1.2,141
-2.25,1.35,132
-2.25,1.5,124
-2.1,-1.5,156
-2.1,-1.35,167
-2.1,-1.2,190
-2.1,-1.05,202
-2.1,-0.9,220
-2.1,-0.75,237
-2.1,-0.6,242
-2.1,-0.45,236
-2.1,-0.3,225
-2.1,-0.15,205
-2.1,0.0,175
-2.1,0.15,172
-2.1,0.3,180
-2.1,0.45,177
-2.1,0.6,177
-2.1,0.75,173
-2.1,0.9,169
-2.1,1.05,164
-2.1,1.2,157
-2.1,1.35,151
-2.1,1.5,145
-1.95,-1.5,161
-1.95,-1.35,170
-1.95,-1.2,179
-1.95,-1.05,198
-1.95,-0.9,212
-1.95,-0.75,226
-1.95,-0.6,235
-1.95,-0.45,243
-1.95,-0.3,251
-1.95,-0.15,243
-1.95,0.0,211
-1.95,0.15,193
-1.95,0.3,190
-1.95,0.45,186
-1.95,0.6,177
-1.95,0.75,172
-1.95,0.9,169
-1.95,1.05,165
-1.95,1.2,160
-1.95,1.35,156
-1.95,1.5,152
-1.8,-1.5,170
-1.8,-1.35,178
-1.8,-1.2,185
-1.8,-1.05,191
-1.8,-0.9,199
-1.8,-0.75,212
-1.8,-0.6,228
-1.8,-0.45,248
-1.8,-0.3,255
-1.8,-0.15,255
-1.8,0.0,227
-1.8,0.15,196
-1.8,0.3,189
-1.8,0.45,184
-1.8,0.6,172
-1.8,0.75,169
-1.8,0.9,166
-1.8,1.05,164
-1.8,1.2,161
-1.8,1.35,158
-1.8,1.5,156
-1.65,-1.5,167
-1.65,-1.35,174
-1.65,-1.2,182
-1.65,-1.05,190
-1.65,-0.9,191
-1.65,-0.75,201
-1.65,-0.6,224
-1.65,-0.45,246
-1.65,-0.3,255
-1.65,-0.15,255
-1.65,0.0,220
-1.65,0.15,191
-1.65,0.3,187
-1.65,0.45,167
-1.65,0.6,158
-1.65,0.75,160
-1.65,0.9,161
-1.65,1.05,162
-1.65,1.2,161
-1.65,1.35,159
-1.65,1.5,147
-1.5,-1.5,155
-1.5,-1.35,162
-1.5,-1.2,172
-1.5,-1.05,184
-1.5,-0.9,186
-1.5,-0.75,186
-1.5,-0.6,206
-1.5,-0.45,248
-1.5,-0.3,255
-1.5,-0.15,237
-1.5,0.0,217
-1.5,0.15,193
-1.5,0.3,137
-1.5,0.45,125
-1.5,0.6,131
-1.5,0.75,137
-1.5,0.9,138
-1.5,1.05,138
-1.5,1.2,138
-1.5,1.35,120
-1.5,1.5,118
-1.35,-1.5,146
-1.35,-1.35,149
-1.35,-1.2,153
-1.35,-1.05,159
-1.35,-0.9,157
-1.35,-0.75,160
-1.35,-0.6,169
-1.35,-0.45,200
-1.35,-0.3,220
-1.35,-0.15,207
-1.35,0.0,237
-1.35,0.15,237
-1.35,0.3,47
-1.35,0.45,89
-1.35,0.6,115
-1.35,0.75,123
-1.35,0.9,123
-1.35,1.05,124
-1.35,1.2,124
-1.35,1.35,118
-1.35,1.5,106
-1.2,-1.5,128
-1.2,-1.35,119
-1.2,-1.2,119
-1.2,-1.05,117
-1.2,-0.9,112
-1.2,-0.75,109
-1.2,-0.6,122
-1.2,-0.45,143
-1.2,-0.3,161
-1.2,-0.15,177
-1.2,0.0,187
-1.2,0.15,154
-1.2,0.3,97
-1.2,0.45,96
-1.2,0.6,106
-1.2,0.75,112
-1.2,0.9,114
-1.2,1.05,115
-1.2,1.2,115
-1.2,1.35,115
-1.2,1.5,106
-1.05,-1.5,103
-1.05,-1.35,98
-1.05,-1.2,91
-1.05,-1.05,82
-1.05,-0.9,71
-1.05,-0.75,67
-1.05,-0.6,81
-1.05,-0.45,82
-1.05,-0.3,100
-1.05,-0.15,143
-1.05,0.0,152
-1.05,0.15,71
-1.05,0.3,71
-1.05,0.45,91
-1.05,0.6,100
-1.05,0.75,96
-1.05,0.9,103
-1.05,1.05,104
-1.05,1.2,105
-1.05,1.35,106
-1.05,1.5,106
-0.9,-1.5,92
-0.9,-1.35,83
-0.9,-1.2,64
-0.9,-1.05,56
-0.9,-0.9,49
-0.9,-0.75,45
-0.9,-0.6,60
-0.9,-0.45,49
-0.9,-0.3,58
-0.9,-0.15,79
-0.9,0.0,79
-0.9,0.15,71
-0.9,0.3,72
-0.9,0.45,83
-0.9,0.6,82
-0.9,0.75,85
-0.9,0.9,87
-0.9,1.05,88
-0.9,1.2,89
-0.9,1.35,90
-0.9,1.5,90
-0.75,-1.5,82
-0.75,-1.35,71
-0.75,-1.2,53
-0.75,-1.05,33
-0.75,-0.9,33
-0.75,-0.75,45
-0.75,-0.6,52
-0.75,-0.45,49
-0.75,-0.3,49
-0.75,-0.15,36
-0.75,0.0,18
-0.75,0.15,48
-0.75,0.3,63
-0.75,0.45,71
-0.75,0.6,76
-0.75,0.75,80
-0.75,0.9,88
-0.75,1.05,84
-0.75,1.2,85
-0.75,1.35,86
-0.75,1.5,87
-0.6,-1.5,76
-0.6,-1.35,62
-0.6,-1.2,40
-0.6,-1.05,7
-0.6,-0.9,4
-0.6,-0.75,45
-0.6,-0.6,59
-0.6,-0.45,53
-0.6,-0.3,51
-0.6,-0.15,28
-0.6,0.0,13
-0.6,0.15,41
-0.6,0.3,55
-0.6,0.45,73
-0.6,0.6,79
-0.6,0.75,76
-0.6,0.9,78
-0.6,1.05,80
-0.6,1.2,82
-0.6,1.35,83
-0.6,1.5,85
-0.45,-1.5,78
-0.45,-1.35,68
-0.45,-1.2,54
-0.45,-1.05,34
-0.45,-0.9,40
-0.45,-0.75,69
-0.45,-0.6,75
-0.45,-0.45,64
-0.45,-0.3,65
-0.45,-0.15,41
-0.45,0.0,11
-0.45,0.15,56
-0.45,0.3,75
-0.45,0.45,69
-0.45,0.6,70
-0.45,0.75,71
-0.45,0.9,72
-0.45,1.05,72
-0.45,1.2,75
-0.45,1.35,77
-0.45,1.5,78
-0.3,-1.5,84
-0.3,-1.35,81
-0.3,-1.2,73
-0.3,-1.05,80
-0.3,-0.9,94
-0.3,-0.75,112
-0.3,-0.6,106
-0.3,-0.45,55
-0.3,-0.3,68
-0.3,-0.15,71
-0.3,0.0,19
-0.3,0.15,63
-0.3,0.3,74
-0.3,0.45,76
-0.3,0.6,75
-0.3,0.75,76
-0.3,0.9,77
-0.3,1.05,79
-0.3,1.2,72
-0.3,1.35,73
-0.3,1.5,74
-0.15,-1.5,82
-0.15,-1.35,88
-0.15,-1.2,92
-0.15,-1.05,101
-0.15,-0.9,118
-0.15,-0.75,145
-0.15,-0.6,146
-0.15,-0.45,107
-0.15,-0.3,126
-0.15,-0.15,149
-0.15,0.0,165
-0.15,0.15,113
-0.15,0.3,89
-0.15,0.45,79
-0.15,0.6,75
-0.15,0.75,75
-0.15,0.9,79
-0.15,1.05,81
-0.15,1.2,81
-0.15,1.35,72
-0.15,1.5,72
0.0,-1.5,83
0.0,-1.35,91
0.0,-1.2,97
0.0,-1.05,109
0.0,-0.9,121
0.0,-0.75,108
0.0,-0.6,146
0.0,-0.45,132
0.0,-0.3,155
0.0,-0.15,178
0.0,0.0,162
0.0,0.15,129
0.0,0.3,95
0.0,0.45,62
0.0,0.6,60
0.0,0.75,74
0.0,0.9,78
0.0,1.05,80
0.0,1.2,81
0.0,1.35,74
0.0,1.5,74
0.15,-1.5,83
0.15,-1.35,87
0.15,-1.2,99
0.15,-1.05,107
0.15,-0.9,116
0.15,-0.75,134
0.15,-0.6,148
0.15,-0.45,128
0.15,-0.3,136
0.15,-0.15,167
0.15,0.0,140
0.15,0.15,108
0.15,0.3,89
0.15,0.45,58
0.15,0.6,58
0.15,0.75,75
0.15,0.9,83
0.15,1.05,85
0.15,1.2,85
0.15,1.35,77
0.15,1.5,76
0.3,-1.5,80
0.3,-1.35,80
0.3,-1.2,93
0.3,-1.05,98
0.3,-0.9,113
0.3,-0.75,119
0.3,-0.6,117
0.3,-0.45,104
0.3,-0.3,82
0.3,-0.15,105
0.3,0.0,107
0.3,0.15,78
0.3,0.3,78
0.3,0.45,92
0.3,0.6,88
0.3,0.75,84
0.3,0.9,85
0.3,1.05,81
0.3,1.2,80
0.3,1.35,77
0.3,1.5,76
0.45,-1.5,80
0.45,-1.35,80
0.45,-1.2,85
0.45,-1.05,86
0.45,-0.9,91
0.45,-0.75,99
0.45,-0.6,98
0.45,-0.45,86
0.45,-0.3,61
0.45,-0.15,91
0.45,0.0,98
0.45,0.15,91
0.45,0.3,122
0.45,0.45,130
0.45,0.6,107
0.45,0.75,96
0.45,0.9,88
0.45,1.05,85
0.45,1.2,84
0.45,1.35,83
0.45,1.5,83
0.6,-1.5,75
0.6,-1.35,72
0.6,-1.2,70
0.6,-1.05,68
0.6,-0.9,73
0.6,-0.75,82
0.6,-0.6,84
0.6,-0.45,89
0.6,-0.3,91
0.6,-0.15,88
0.6,0.0,83
0.6,0.15,100
0.6,0.3,155
0.6,0.45,139
0.6,0.6,101
0.6,0.75,86
0.6,0.9,79
0.6,1.05,76
0.6,1.2,69
0.6,1.35,70
0.6,1.5,69
0.75,-1.5,70
0.75,-1.35,64
0.75,-1.2,51
0.75,-1.05,46
0.75,-0.9,51
0.75,-0.75,61
0.75,-0.6,75
0.75,-0.45,96
0.75,-0.3,104
0.75,-0.15,85
0.75,0.0,67
0.75,0.15,79
0.75,0.3,85
0.75,0.45,85
0.75,0.6,76
0.75,0.75,70
0.75,0.9,63
0.75,1.05,60
0.75,1.2,58
0.75,1.35,57
0.75,1.5,56
0.9,-1.5,55
0.9,-1.35,52
0.9,-1.2,48
0.9,-1.05,44
0.9,-0.9,37
0.9,-0.75,19
0.9,-0.6,57
0.9,-0.45,90
0.9,-0.3,170
0.9,-0.15,76
0.9,0.0,53
0.9,0.15,71
0.9,0.3,35
0.9,0.45,37
0.9,0.6,52
0.9,0.75,56
0.9,0.9,55
0.9,1.05,54
0.9,1.2,53
0.9,1.35,53
0.9,1.5,53
1.05,-1.5,53
1.05,-1.35,45
1.05,-1.2,44
1.05,-1.05,41
1.05,-0.9,31
1.05,-0.75,7
1.05,-0.6,51
1.05,-0.45,100
1.05,-0.3,98
1.05,-0.15,52
1.05,0.0,61
1.05,0.15,89
1.05,0.3,22
1.05,0.45,27
1.05,0.6,42
1.05,0.75,45
1.05,0.9,45
1.05,1.05,47
1.05,1.2,48
1.05,1.35,49
1.05,1.5,47
1.2,-1.5,52
1.2,-1.35,50
1.2,-1.2,48
1.2,-1.05,44
1.2,-0.9,33
1.2,-0.75,32
1.2,-0.6,44
1.2,-0.45,67
1.2,-0.3,75
1.2,-0.15,48
1.2,0.0,60
1.2,0.15,78
1.2,0.3,50
1.2,0.45,37
1.2,0.6,37
1.2,0.75,33
1.2,0.9,34
1.2,1.05,39
1.2,1.2,42
1.2,1.35,42
1.2,1.5,41
1.35,-1.5,48
1.35,-1.35,52
1.35,-1.2,50
1.35,-1.05,46
1.35,-0.9,41
1.35,-0.75,31
1.35,-0.6,15
1.35,-0.45,6
1.35,-0.3,45
1.35,-0.15,62
1.35,0.0,56
1.35,0.15,55
1.35,0.3,46
1.35,0.45,37
1.35,0.6,19
1.35,0.75,9
1.35,0.9,21
1.35,1.05,30
1.35,1.2,35
1.35,1.35,36
1.35,1.5,41
1.5,-1.5,38
1.5,-1.35,40
1.5,-1.2,38
1.5,-1.05,44
1.5,-0.9,39
1.5,-0.75,25
1.5,-0.6,2
1.5,-0.45,15
1.5,-0.3,56
1.5,-0.15,77
1.5,0.0,80
1.5,0.15,10
1.5,0.3,41
1.5,0.45,37
1.5,0.6,10
1.5,0.75,0
1.5,0.9,13
1.5,1.05,19
1.5,1.2,24
1.5,1.35,29
1.5,1.5,31
1.65,-1.5,30
1.65,-1.35,31
1.65,-1.2,34
1.65,-1.05,36
1.65,-0.9,39
1.65,-0.75,34
1.65,-0.6,25
1.65,-0.45,42
1.65,-0.3,75
1.65,-0.15,97
1.65,0.0,45
1.65,0.15,43
1.65,0.3,42
1.65,0.45,37
1.65,0.6,24
1.65,0.75,13
1.65,0.9,17
1.65,1.05,22
1.65,1.2,25
1.65,1.35,27
1.65,1.5,31
1.8,-1.5,28
1.8,-1.35,29
1.8,-1.2,32
1.8,-1.05,37
1.8,-0.9,42
1.8,-0.75,42
1.8,-0.6,48
1.8,-0.45,103
1.8,-0.3,104
1.8,-0.15,9
1.8,0.0,44
1.8,0.15,44
1.8,0.3,42
1.8,0.45,39
1.8,0.6,34
1.8,0.75,29
1.8,0.9,25
1.8,1.05,26
1.8,1.2,25
1.8,1.35,26
1.8,1.5,29
1.95,-1.5,28
1.95,-1.35,32
1.95,-1.2,33
1.95,-1.05,35
1.95,-0.9,39
1.95,-0.75,39
1.95,-0.6,51
1.95,-0.45,54
1.95,-0.3,44
1.95,-0.15,41
1.95,0.0,39
1.95,0.15,41
1.95,0.3,42
1.95,0.45,42
1.95,0.6,37
1.95,0.75,33
1.95,0.9,30
1.95,1.05,29
1.95,1.2,29
1.95,1.35,30
1.95,1.5,27
2.1,-1.5,19
2.1,-1.35,19
2.1,-1.2,30
2.1,-1.05,30
2.1,-0.9,32
2.1,-0.75,33
2.1,-0.6,32
2.1,-0.45,18
2.1,-0.3,0
2.1,-0.15,40
2.1,0.0,39
2.1,0.15,43
2.1,0.3,44
2.1,0.45,44
2.1,0.6,40
2.1,0.75,34
2.1,0.9,29
2.1,1.05,29
2.1,1.2,29
2.1,1.35,30
2.1,1.5,30
2.25,-1.5,19
2.25,-1.35,20
2.25,-1.2,19
2.25,-1.05,18
2.25,-0.9,15
2.25,-0.75,12
2.25,-0.6,13
2.25,-0.45,31
2.25,-0.3,44
2.25,-0.15,57
2.25,0.0,36
2.25,0.15,42
2.25,0.3,43
2.25,0.45,49
2.25,0.6,44
2.25,0.75,27
2.25,0.9,21
2.25,1.05,24
2.25,1.2,28
2.25,1.35,29
2.25,1.5,30
2.4,-1.5,26
2.4,-1.35,25
2.4,-1.2,24
2.4,-1.05,22
2.4,-0.9,12
2.4,-0.75,8
2.4,-0.6,0
2.4,-0.45,20
2.4,-0.3,46
2.4,-0.15,2
2.4,0.0,43
2.4,0.15,40
2.4,0.3,44
2.4,0.45,76
2.4,0.6,54
2.4,0.75,2
2.4,0.9,7
2.4,1.05,20
2.4,1.2,26
2.4,1.35,29
2.4,1.5,31
2.55,-1.5,30
2.55,-1.35,30
2.55,-1.2,25
2.55,-1.05,23
2.55,-0.9,23
2.55,-0.75,19
2.55,-0.6,1
2.55,-0.45,5
2.55,-0.3,25
2.55,-0.15,43
2.55,0.0,36
2.55,0.15,32
2.55,0.3,43
2.55,0.45,71
2.55,0.6,55
2.55,0.75,16
2.55,0.9,14
2.55,1.05,24
2.55,1.2,30
2.55,1.35,30
2.55,1.5,31
2.7,-1.5,30
2.7,-1.35,29
2.7,-1.2,28
2.7,-1.05,28
2.7,-0.9,35
2.7,-0.75,42
2.7,-0.6,32
2.7,-0.45,23
2.7,-0.3,42
2.7,-0.15,43
2.7,0.0,44
2.7,0.15,17
2.7,0.3,33
2.7,0.45,49
2.7,0.6,48
2.7,0.75,37
2.7,0.9,30
2.7,1.05,28
2.7,1.2,30
2.7,1.35,31
2.7,1.5,32
2.85,-1.5,37
2.85,-1.35,29
2.85,-1.2,28
2.85,-1.05,24
2.85,-0.9,20
2.85,-0.75,43
2.85,-0.6,78
2.85,-0.45,100
2.85,-0.3,74
2.85,-0.15,38
2.85,0.0,72
2.85,0.15,48
2.85,0.3,44
2.85,0.45,49
2.85,0.6,47
2.85,0.75,44
2.85,0.9,35
2.85,1.05,34
2.85,1.2,35
2.85,1.35,35
2.85,1.5,36
3.0,-1.5,46
3.0,-1.35,44
3.0,-1.2,39
3.0,-1.05,25
3.0,-0.9,3
3.0,-0.75,38
3.0,-0.6,0
3.0,-0.45,98
3.0,-0.3,120
3.0,-0.15,49
3.0,0.0,35
3.0,0.15,47
3.0,0.3,45
3.0,0.45,43
3.0,0.6,44
3.0,0.75,44
3.0,0.9,43
3.0,1.05,40
3.0,1.2,37
3.0,1.35,37
3.0,1.5,37
3.15,-1.5,63
3.15,-1.35,61
3.15,-1.2,56
3.15,-1.05,51
3.15,-0.9,51
3.15,-0.75,55
3.15,-0.6,17
3.15,-0.45,47
3.15,-0.3,68
3.15,-0.15,19
3.15,0.0,41
3.15,0.15,44
3.15,0.3,42
3.15,0.45,44
3.15,0.6,43
3.15,0.75,42
3.15,0.9,36
3.15,1.05,39
3.15,1.2,38
3.15,1.35,37
3.15,1.5,38
3.3,-1.5,78
3.3,-1.35,68
3.3,-1.2,70
3.3,-1.05,59
3.3,-0.9,62
3.3,-0.75,84
3.3,-0.6,64
3.3,-0.45,35
3.3,-0.3,0
3.3,-0.15,45
3.3,0.0,38
3.3,0.15,30
3.3,0.3,36
3.3,0.45,43
3.3,0.6,37
3.3,0.75,35
3.3,0.9,37
3.3,1.05,36
3.3,1.2,39
3.3,1.35,39
3.3,1.5,42
3.45,-1.5,88
3.45,-1.35,89
3.45,-1.2,87
3.45,-1.05,89
3.45,-0.9,84
3.45,-0.75,64
3.45,-0.6,163
3.45,-0.45,26
3.45,-0.3,7
3.45,-0.15,39
3.45,0.0,32
3.45,0.15,18
3.45,0.3,28
3.45,0.45,15
3.45,0.6,33
3.45,0.75,37
3.45,0.9,38
3.45,1.05,48
3.45,1.2,49
3.45,1.35,39
3.45,1.5,49
3.6,-1.5,95
3.6,-1.35,96
3.6,-1.2,95
3.6,-1.05,99
3.6,-0.9,101
3.6,-0.75,110
3.6,-0.6,121
3.6,-0.45,64
3.6,-0.3,49
3.6,-0.15,158
3.6,0.0,83
3.6,0.15,9
3.6,0.3,37
3.6,0.45,53
3.6,0.6,48
3.6,0.75,49
3.6,0.9,50
3.6,1.05,62
3.6,1.2,60
3.6,1.35,61
3.6,1.5,61
3.75,-1.5,94
3.75,-1.35,95
3.75,-1.2,102
3.75,-1.05,95
3.75,-0.9,123
3.75,-0.75,146
3.75,-0.6,85
3.75,-0.45,58
3.75,-0.3,34
3.75,-0.15,83
3.75,0.0,62
3.75,0.15,31
3.75,0.3,44
3.75,0.45,63
3.75,0.6,64
3.75,0.75,62
3.75,0.9,62
3.75,1.05,62
3.75,1.2,62
3.75,1.35,62
3.75,1.5,62
3.9,-1.5,81
3.9,-1.35,81
3.9,-1.2,90
3.9,-1.05,102
3.9,-0.9,124
3.9,-0.75,167
3.9,-0.6,88
3.9,-0.45,73
3.9,-0.3,53
3.9,-0.15,95
3.9,0.0,66
3.9,0.15,31
3.9,0.3,76
3.9,0.45,71
3.9,0.6,69
3.9,0.75,67
3.9,0.9,69
3.9,1.05,65
3.9,1.2,64
3.9,1.35,64
3.9,1.5,64
4.05,-1.5,92
4.05,-1.35,93
4.05,-1.2,96
4.05,-1.05,96
4.05,-0.9,96
4.05,-0.75,98
4.05,-0.6,82
4.05,-0.45,59
4.05,-0.3,45
4.05,-0.15,42
4.05,0.0,38
4.05,0.15,74
4.05,0.3,158
4.05,0.45,82
4.05,0.6,78
4.05,0.75,76
4.05,0.9,68
4.05,1.05,66
4.05,1.2,66
4.05,1.35,69
4.05,1.5,57
4.2,-1.5,82
4.2,-1.35,87
4.2,-1.2,85
4.2,-1.05,80
4.2,-0.9,69
4.2,-0.75,57
4.2,-0.6,84
4.2,-0.45,85
4.2,-0.3,47
4.2,-0.15,53
4.2,0.0,27
4.2,0.15,51
4.2,0.3,66
4.2,0.45,71
4.2,0.6,72
4.2,0.75,77
4.2,0.9,73
4.2,1.05,73
4.2,1.2,73
4.2,1.35,57
4.2,1.5,57
4.35,-1.5,76
4.35,-1.35,67
4.35,-1.2,66
4.35,-1.05,58
4.35,-0.9,53
4.35,-0.75,55
4.35,-0.6,255
4.35,-0.45,90
4.35,-0.3,31
4.35,-0.15,111
4.35,0.0,78
4.35,0.15,46
4.35,0.3,48
4.35,0.45,52
4.35,0.6,53
4.35,0.75,53
4.35,0.9,56
4.35,1.05,56
4.35,1.2,60
4.35,1.35,60
4.35,1.5,52
4.5,-1.5,53
4.5,-1.35,53
4.5,-1.2,53
4.5,-1.05,50
4.5,-0.9,46
4.5,-0.75,35
4.5,-0.6,40
4.5,-0.45,26
4.5,-0.3,120
4.5,-0.15,39
4.5,0.0,46
4.5,0.15,37
4.5,0.3,47
4.5,0.45,41
4.5,0.6,47
4.5,0.75,46
4.5,0.9,47
4.5,1.05,47
4.5,1.2,47
4.5,1.35,50
4.5,1.5,50
4.65,-1.5,51
4.65,-1.35,50
4.65,-1.2,48
4.65,-1.05,43
4.65,-0.9,41
4.65,-0.75,31
4.65,-0.6,44
4.65,-0.45,23
4.65,-0.3,54
4.65,-0.15,79
4.65,0.0,50
4.65,0.15,44
4.65,0.3,24
4.65,0.45,34
4.65,0.6,34
4.65,0.75,33
4.65,0.9,32
4.65,1.05,32
4.65,1.2,32
4.65,1.35,50
4.65,1.5,50
4.8,-1.5,51
4.8,-1.35,51
4.8,-1.2,50
4.8,-1.05,52
4.8,-0.9,50
4.8,-0.75,45
4.8,-0.6,75
4.8,-0.45,26
4.8,-0.3,32
4.8,-0.15,178
4.8,0.0,70
4.8,0.15,18
4.8,0.3,22
4.8,0.45,34
4.8,0.6,30
4.8,0.75,26
4.8,0.9,26
4.8,1.05,43
4.8,1.2,46
4.8,1.35,50
4.8,1.5,50
4.95,-1.5,39
4.95,-1.35,35
4.95,-1.2,26
4.95,-1.05,24
4.95,-0.9,59
4.95,-0.75,64
4.95,-0.6,58
4.95,-0.45,45
4.95,-0.3,64
4.95,-0.15,55
4.95,0.0,88
4.95,0.15,12
4.95,0.3,33
4.95,0.45,24
4.95,0.6,24
4.95,0.75,33
4.95,0.9,37
4.95,1.05,40
4.95,1.2,55
4.95,1.35,57
4.95,1.5,58
5.1,-1.5,53
5.1,-1.35,47
5.1,-1.2,31
5.1,-1.05,6
5.1,-0.9,70
5.1,-0.75,57
5.1,-0.6,44
5.1,-0.45,42
5.1,-0.3,58
5.1,-0.15,27
5.1,0.0,71
5.1,0.15,54
5.1,0.3,38
5.1,0.45,24
5.1,0.6,24
5.1,0.75,33
5.1,0.9,51
5.1,1.05,56
5.1,1.2,58
5.1,1.35,59
5.1,1.5,59
5.25,-1.5,55
5.25,-1.35,55
5.25,-1.2,54
5.25,-1.05,64
5.25,-0.9,115
5.25,-0.75,81
5.25,-0.6,12
5.25,-0.45,36
5.25,-0.3,83
5.25,-0.15,38
5.25,0.0,67
5.25,0.15,66
5.25,0.3,24
5.25,0.45,24
5.25,0.6,27
5.25,0.75,67
5.25,0.9,66
5.25,1.05,67
5.25,1.2,66
5.25,1.35,64
5.25,1.5,63
5.4,-1.5,48
5.4,-1.35,50
5.4,-1.2,55
5.4,-1.05,69
5.4,-0.9,89
5.4,-0.75,92
5.4,-0.6,22
5.4,-0.45,38
5.4,-0.3,44
5.4,-0.15,101
5.4,0.0,80
5.4,0.15,94
5.4,0.3,49
5.4,0.45,88
5.4,0.6,133
5.4,0.75,105
5.4,0.9,88
5.4,1.05,79
5.4,1.2,73
5.4,1.35,69
5.4,1.5,75
5.55,-1.5,46
5.55,-1.35,49
5.55,-1.2,56
5.55,-1.05,62
5.55,-0.9,74
5.55,-0.75,130
5.55,-0.6,18
5.55,-0.45,43
5.55,-0.3,148
5.55,-0.15,14
5.55,0.0,51
5.55,0.15,37
5.55,0.3,59
5.55,0.45,175
5.55,0.6,241
5.55,0.75,141
5.55,0.9,106
5.55,1.05,95
5.55,1.2,89
5.55,1.35,84
5.55,1.5,81
5.7,-1.5,46
5.7,-1.35,47
5.7,-1.2,49
5.7,-1.05,39
5.7,-0.9,32
5.7,-0.75,5
5.7,-0.6,0
5.7,-0.45,52
5.7,-0.3,11
5.7,-0.15,78
5.7,0.0,70
5.7,0.15,27
5.7,0.3,37
5.7,0.45,151
5.7,0.6,161
5.7,0.75,133
5.7,0.9,109
5.7,1.05,96
5.7,1.2,88
5.7,1.35,84
5.7,1.5,81
5.85,-1.5,46
5.85,-1.35,47
5.85,-1.2,43
5.85,-1.05,38
5.85,-0.9,19
5.85,-0.75,0
5.85,-0.6,19
5.85,-0.45,51
5.85,-0.3,76
5.85,-0.15,46
5.85,0.0,46
5.85,0.15,50
5.85,0.3,42
5.85,0.45,101
5.85,0.6,124
5.85,0.75,109
5.85,0.9,95
5.85,1.05,88
5.85,1.2,84
5.85,1.35,81
5.85,1.5,79
6.0,-1.5,47
6.0,-1.35,39
6.0,-1.2,36
6.0,-1.05,32
6.0,-0.9,33
6.0,-0.75,52
6.0,-0.6,58
6.0,-0.45,27
6.0,-0.3,28
6.0,-0.15,74
6.0,0.0,36
6.0,0.15,45
6.0,0.3,110
6.0,0.45,67
6.0,0.6,72
6.0,0.75,74
6.0,0.9,80
6.0,1.05,80
6.0,1.2,77
6.0,1.35,70
6.0,1.5,72
6.15,-1.5,32
6.15,-1.35,39
6.15,-1.2,35
6.15,-1.05,21
6.15,-0.9,14
6.15,-0.75,62
6.15,-0.6,56
6.15,-0.45,60
6.15,-0.3,33
6.15,-0.15,44
6.15,0.0,51
6.15,0.15,50
6.15,0.3,24
6.15,0.45,38
6.15,0.6,8
6.15,0.75,38
6.15,0.9,56
6.15,1.05,64
6.15,1.2,68
6.15,1.35,70
6.15,1.5,67
6.3,-1.5,33
6.3,-1.35,32
6.3,-1.2,30
6.3,-1.05,32
6.3,-0.9,42
6.3,-0.75,99
6.3,-0.6,73
6.3,-0.45,52
6.3,-0.3,38
6.3,-0.15,53
6.3,0.0,5
6.3,0.15,38
6.3,0.3,20
6.3,0.45,22
6.3,0.6,7
6.3,0.75,24
6.3,0.9,35
6.3,1.05,54
6.3,1.2,60
6.3,1.35,63
6.3,1.5,65
6.45,-1.5,29
6.45,-1.35,28
6.45,-1.2,27
6.45,-1.05,26
6.45,-0.9,27
6.45,-0.75,35
6.45,-0.6,14
6.45,-0.45,44
6.45,-0.3,38
6.45,-0.15,65
6.45,0.0,24
6.45,0.15,21
6.45,0.3,19
6.45,0.45,18
6.45,0.6,15
6.45,0.75,15
6.45,0.9,33
6.45,1.05,29
6.45,1.2,31
6.45,1.35,32
6.45,1.5,33
6.6,-1.5,36
6.6,-1.35,36
6.6,-1.2,36
6.6,-1.05,13
6.6,-0.9,8
6.6,-0.75,10
6.6,-0.6,34
6.6,-0.45,14
6.6,-0.3,65
6.6,-0.15,98
6.6,0.0,52
6.6,0.15,29
6.6,0.3,31
6.6,0.45,18
6.6,0.6,19
6.6,0.75,21
6.6,0.9,21
6.6,1.05,21
6.6,1.2,21
6.6,1.35,22
6.6,1.5,32
6.75,-1.5,33
6.75,-1.35,33
6.75,-1.2,33
6.75,-1.05,45
6.75,-0.9,41
6.75,-0.75,29
6.75,-0.6,23
6.75,-0.45,87
6.75,-0.3,32
6.75,-0.15,34
6.75,0.0,45
6.75,0.15,31
6.75,0.3,28
6.75,0.45,18
6.75,0.6,29
6.75,0.75,29
6.75,0.9,30
6.75,1.05,21
6.75,1.2,21
6.75,1.35,21
6.75,1.5,21
6.9,-1.5,36
6.9,-1.35,40
6.9,-1.2,42
6.9,-1.05,45
6.9,-0.9,48
6.9,-0.75,71
6.9,-0.6,53
6.9,-0.45,93
6.9,-0.3,45
6.9,-0.15,42
6.9,0.0,46
6.9,0.15,28
6.9,0.3,36
6.9,0.45,35
6.9,0.6,34
6.9,0.75,35
6.9,0.9,22
6.9,1.05,21
6.9,1.2,21
6.9,1.35,21
6.9,1.5,21
7.05,-1.5,43
7.05,-1.35,49
7.05,-1.2,52
7.05,-1.05,60
7.05,-0.9,76
7.05,-0.75,189
7.05,-0.6,40
7.05,-0.45,0
7.05,-0.3,83
7.05,-0.15,61
7.05,0.0,186
7.05,0.15,68
7.05,0.3,45
7.05,0.45,44
7.05,0.6,43
7.05,0.75,31
7.05,0.9,28
7.05,1.05,27
7.05,1.2,27
7.05,1.35,23
7.05,1.5,23
7.2,-1.5,49
7.2,-1.35,50
7.2,-1.2,52
7.2,-1.05,58
7.2,-0.9,63
7.2,-0.75,52
7.2,-0.6,38
7.2,-0.45,23
7.2,-0.3,47
7.2,-0.15,70
7.2,0.0,3
7.2,0.15,60
7.2,0.3,50
7.2,0.45,41
7.2,0.6,34
7.2,0.75,34
7.2,0.9,33
7.2,1.05,26
7.2,1.2,26
7.2,1.35,23
7.2,1.5,23
7.35,-1.5,52
7.35,-1.35,52
7.35,-1.2,51
7.35,-1.05,51
7.35,-0.9,53
7.35,-0.75,46
7.35,-0.6,25
7.35,-0.45,4
7.35,-0.3,25
7.35,-0.15,65
7.35,0.0,49
7.35,0.15,53
7.35,0.3,44
7.35,0.45,39
7.35,0.6,33
7.35,0.75,27
7.35,0.9,27
7.35,1.05,28
7.35,1.2,28
7.35,1.35,28
7.35,1.5,28
7.5,-1.5,50
7.5,-1.35,52
7.5,-1.2,40
7.5,-1.05,32
7.5,-0.9,38
7.5,-0.75,70
7.5,-0.6,29
7.5,-0.45,41
7.5,-0.3,26
7.5,-0.15,47
7.5,0.0,150
7.5,0.15,71
7.5,0.3,49
7.5,0.45,16
7.5,0.6,18
7.5,0.75,26
7.5,0.9,23
7.5,1.05,25
7.5,1.2,26
7.5,1.35,26
7.5,1.5,34
7.65,-1.5,49
7.65,-1.35,46
7.65,-1.2,41
7.65,-1.05,26
7.65,-0.9,22
7.65,-0.75,57
7.65,-0.6,78
7.65,-0.45,74
7.65,-0.3,14
7.65,-0.15,52
7.65,0.0,83
7.65,0.15,71
7.65,0.3,43
7.65,0.45,20
7.65,0.6,16
7.65,0.75,23
7.65,0.9,29
7.65,1.05,36
7.65,1.2,39
7.65,1.35,42
7.65,1.5,46
7.8,-1.5,49
7.8,-1.35,49
7.8,-1.2,47
7.8,-1.05,44
7.8,-0.9,46
7.8,-0.75,40
7.8,-0.6,49
7.8,-0.45,29
7.8,-0.3,6
7.8,-0.15,34
7.8,0.0,27
7.8,0.15,16
7.8,0.3,43
7.8,0.45,36
7.8,0.6,4
7.8,0.75,23
7.8,0.9,31
7.8,1.05,36
7.8,1.2,42
7.8,1.35,44
7.8,1.5,46
7.95,-1.5,36
7.95,-1.35,37
7.95,-1.2,30
7.95,-1.05,32
7.95,-0.9,34
7.95,-0.75,41
7.95,-0.6,44
7.95,-0.45,0
7.95,-0.3,12
7.95,-0.15,25
7.95,0.0,41
7.95,0.15,82
7.95,0.3,63
7.95,0.45,0
7.95,0.6,28
7.95,0.75,39
7.95,0.9,45
7.95,1.05,49
7.95,1.2,51
7.95,1.35,56
7.95,1.5,57
8.1,-1.5,39
8.1,-1.35,36
8.1,-1.2,40
8.1,-1.05,44
8.1,-0.9,44
8.1,-0.75,39
8.1,-0.6,0
8.1,-0.45,63
8.1,-0.3,43
8.1,-0.15,40
8.1,0.0,46
8.1,0.15,63
8.1,0.3,105
8.1,0.45,58
8.1,0.6,56
8.1,0.75,57
8.1,0.9,57
8.1,1.05,58
8.1,1.2,58
8.1,1.35,58
8.1,1.5,55
8.25,-1.5,60
8.25,-1.35,71
8.25,-1.2,56
8.25,-1.05,56
8.25,-0.9,45
8.25,-0.75,49
8.25,-0.6,50
8.25,-0.45,36
8.25,-0.3,44
8.25,-0.15,66
8.25,0.0,34
8.25,0.15,56
8.25,0.3,48
8.25,0.45,96
8.25,0.6,85
8.25,0.75,65
8.25,0.9,61
8.25,1.05,56
8.25,1.2,57
8.25,1.35,56
8.25,1.5,55
8.4,-1.5,70
8.4,-1.35,81
8.4,-1.2,78
8.4,-1.05,85
8.4,-0.9,79
8.4,-0.75,70
8.4,-0.6,39
8.4,-0.45,41
8.4,-0.3,39
8.4,-0.15,0
8.4,0.0,22
8.4,0.15,22
8.4,0.3,69
8.4,0.45,168
8.4,0.6,88
8.4,0.75,70
8.4,0.9,59
8.4,1.05,58
8.4,1.2,56
8.4,1.35,55
8.4,1.5,54
8.55,-1.5,91
8.55,-1.35,96
8.55,-1.2,96
8.55,-1.05,88
8.55,-0.9,95
8.55,-0.75,113
8.55,-0.6,96
8.55,-0.45,29
8.55,-0.3,18
8.55,-0.15,34
8.55,0.0,15
8.55,0.15,17
8.55,0.3,26
8.55,0.45,52
8.55,0.6,62
8.55,0.75,53
8.55,0.9,59
8.55,1.05,54
8.55,1.2,43
8.55,1.35,43
8.55,1.5,43
8.7,-1.5,92
8.7,-1.35,91
8.7,-1.2,89
8.7,-1.05,87
8.7,-0.9,78
8.7,-0.75,182
8.7,-0.6,62
8.7,-0.45,117
8.7,-0.3,59
8.7,-0.15,26
8.7,0.0,28
8.7,0.15,15
8.7,0.3,37
8.7,0.45,41
8.7,0.6,46
8.7,0.75,42
8.7,0.9,41
8.7,1.05,43
8.7,1.2,52
8.7,1.35,55
8.7,1.5,55
8.85,-1.5,92
8.85,-1.35,87
8.85,-1.2,85
8.85,-1.05,74
8.85,-0.9,28
8.85,-0.75,68
8.85,-0.6,30
8.85,-0.45,25
8.85,-0.3,22
8.85,-0.15,21
8.85,0.0,20
8.85,0.15,34
8.85,0.3,37
8.85,0.45,40
8.85,0.6,39
8.85,0.75,39
8.85,0.9,49
8.85,1.05,50
8.85,1.2,55
8.85,1.35,55
8.85,1.5,55
9.0,-1.5,88
9.0,-1.35,82
9.0,-1.2,81
9.0,-1.05,80
9.0,-0.9,86
9.0,-0.75,255
9.0,-0.6,80
9.0,-0.45,24
9.0,-0.3,82
9.0,-0.15,42
9.0,0.0,43
9.0,0.15,44
9.0,0.3,38
9.0,0.45,39
9.0,0.6,44
9.0,0.75,41
9.0,0.9,43
9.0,1.05,56
9.0,1.2,55
9.0,1.35,55
9.0,1.5,55
9.15,-1.5,84
9.15,-1.35,84
9.15,-1.2,81
9.15,-1.05,85
9.15,-0.9,94
9.15,-0.75,103
9.15,-0.6,43
9.15,-0.45,55
9.15,-0.3,49
9.15,-0.15,41
9.15,0.0,53
9.15,0.15,53
9.15,0.3,6
9.15,0.45,28
9.15,0.6,40
9.15,0.75,47
9.15,0.9,51
9.15,1.05,47
9.15,1.2,57
9.15,1.35,57
9.15,1.5,57
9.3,-1.5,58
9.3,-1.35,60
9.3,-1.2,65
9.3,-1.05,79
9.3,-0.9,69
9.3,-0.75,46
9.3,-0.6,64
9.3,-0.45,23
9.3,-0.3,41
9.3,-0.15,105
9.3,0.0,46
9.3,0.15,30
9.3,0.3,36
9.3,0.45,7
9.3,0.6,66
9.3,0.75,65
9.3,0.9,60
9.3,1.05,57
9.3,1.2,52
9.3,1.35,52
9.3,1.5,52
9.45,-1.5,50
9.45,-1.35,51
9.45,-1.2,52
9.45,-1.05,47
9.45,-0.9,42
9.45,-0.75,30
9.45,-0.6,8
9.45,-0.45,0
9.45,-0.3,23
9.45,-0.15,63
9.45,0.0,78
9.45,0.15,39
9.45,0.3,49
9.45,0.45,132
9.45,0.6,131
9.45,0.75,83
9.45,0.9,63
9.45,1.05,57
9.45,1.2,53
9.45,1.35,52
9.45,1.5,52
9.6,-1.5,36
9.6,-1.35,36
9.6,-1.2,30
9.6,-1.05,27
9.6,-0.9,21
9.6,-0.75,11
9.6,-0.6,67
9.6,-0.45,144
9.6,-0.3,44
9.6,-0.15,60
9.6,0.0,114
9.6,0.15,68
9.6,0.3,63
9.6,0.45,85
9.6,0.6,97
9.6,0.75,77
9.6,0.9,67
9.6,1.05,54
9.6,1.2,52
9.6,1.35,52
9.6,1.5,52
9.75,-1.5,58
9.75,-1.35,39
9.75,-1.2,35
9.75,-1.05,27
9.75,-0.9,11
9.75,-0.75,23
9.75,-0.6,40
9.75,-0.45,26
9.75,-0.3,3
9.75,-0.15,47
9.75,0.0,69
9.75,0.15,57
9.75,0.3,55
9.75,0.45,62
9.75,0.6,70
9.75,0.75,55
9.75,0.9,52
9.75,1.05,52
9.75,1.2,52
9.75,1.35,62
9.75,1.5,52
9.9,-1.5,62
9.9,-1.35,60
9.9,-1.2,56
9.9,-1.05,45
9.9,-0.9,39
9.9,-0.75,46
9.9,-0.6,139
9.9,-0.45,42
9.9,-0.3,34
9.9,-0.15,25
9.9,0.0,15
9.9,0.15,27
9.9,0.3,44
9.9,0.45,58
9.9,0.6,66
9.9,0.75,64
9.9,0.9,64
9.9,1.05,62
9.9,1.2,62
9.9,1.35,62
9.9,1.5,62
10.05,-1.5,60
10.05,-1.35,68
10.05,-1.2,65
10.05,-1.05,66
10.05,-0.9,72
10.05,-0.75,101
10.05,-0.6,113
10.05,-0.45,128
10.05,-0.3,58
10.05,-0.15,44
10.05,0.0,42
10.05,0.15,54
10.05,0.3,54
10.05,0.45,52
10.05,0.6,53
10.05,0.75,60
10.05,0.9,62
10.05,1.05,62
10.05,1.2,62
10.05,1.35,62
10.05,1.5,62
10.2,-1.5,95
10.2,-1.35,92
10.2,-1.2,92
10.2,-1.05,92
10.2,-0.9,78
10.2,-0.75,103
10.2,-0.6,128
10.2,-0.45,44
10.2,-0.3,44
10.2,-0.15,48
10.2,0.0,68
10.2,0.15,93
10.2,0.3,44
10.2,0.45,32
10.2,0.6,49
10.2,0.75,61
10.2,0.9,69
10.2,1.05,71
10.2,1.2,62
10.2,1.35,62
10.2,1.5,62
10.35,-1.5,68
10.35,-1.35,70
10.35,-1.2,73
10.35,-1.05,76
10.35,-0.9,75
10.35,-0.75,68
10.35,-0.6,52
10.35,-0.45,44
10.35,-0.3,64
10.35,-0.15,59
10.35,0.0,91
10.35,0.15,193
10.35,0.3,177
10.35,0.45,60
10.35,0.6,59
10.35,0.75,65
10.35,0.9,69
10.35,1.05,71
10.35,1.2,73
10.35,1.35,74
10.35,1.5,75
10.5,-1.5,77
10.5,-1.35,79
10.5,-1.2,82
10.5,-1.05,86
10.5,-0.9,94
10.5,-0.75,76
10.5,-0.6,60
10.5,-0.45,81
10.5,-0.3,174
10.5,-0.15,74
10.5,0.0,93
10.5,0.15,128
10.5,0.3,138
10.5,0.45,92
10.5,0.6,72
10.5,0.75,67
10.5,0.9,65
10.5,1.05,72
10.5,1.2,73
10.5,1.35,73
10.5,1.5,74
10.65,-1.5,76
10.65,-1.35,77
10.65,-1.2,79
10.65,-1.05,77
10.65,-0.9,95
10.65,-0.75,199
10.65,-0.6,93
10.65,-0.45,59
10.65,-0.3,59
10.65,-0.15,58
10.65,0.0,95
10.65,0.15,24
10.65,0.3,53
10.65,0.45,72
10.65,0.6,71
10.65,0.75,70
10.65,0.9,66
10.65,1.05,65
10.65,1.2,72
10.65,1.35,70
10.65,1.5,71
10.8,-1.5,68
10.8,-1.35,66
10.8,-1.2,67
10.8,-1.05,69
10.8,-0.9,67
10.8,-0.75,69
10.8,-0.6,54
10.8,-0.45,69
10.8,-0.3,36
10.8,-0.15,40
10.8,0.0,127
10.8,0.15,103
10.8,0.3,50
10.8,0.45,57
10.8,0.6,62
10.8,0.75,63
10.8,0.9,62
10.8,1.05,62
10.8,1.2,61
10.8,1.35,60
10.8,1.5,69
10.95,-1.5,66
10.95,-1.35,66
10.95,-1.2,64
10.95,-1.05,59
10.95,-0.9,54
10.95,-0.75,54
10.95,-0.6,60
10.95,-0.45,62
10.95,-0.3,57
10.95,-0.15,57
10.95,0.0,62
10.95,0.15,17
10.95,0.3,26
10.95,0.45,45
10.95,0.6,54
10.95,0.75,58
10.95,0.9,59
10.95,1.05,59
10.95,1.2,60
10.95,1.35,60
10.95,1.5,60
11.1,-1.5,61
11.1,-1.35,60
11.1,-1.2,58
11.1,-1.05,55
11.1,-0.9,54
11.1,-0.75,54
11.1,-0.6,62
11.1,-0.45,127
11.1,-0.3,96
11.1,-0.15,80
11.1,0.0,64
11.1,0.15,41
11.1,0.3,40
11.1,0.45,45
11.1,0.6,49
11.1,0.75,53
11.1,0.9,55
11.1,1.05,57
11.1,1.2,57
11.1,1.35,58
11.1,1.5,58
11.25,-1.5,57
11.25,-1.35,57
11.25,-1.2,60
11.25,-1.05,54
11.25,-0.9,59
11.25,-0.75,59
11.25,-0.6,55
11.25,-0.45,84
11.25,-0.3,160
11.25,-0.15,93
11.25,0.0,68
11.25,0.15,50
11.25,0.3,46
11.25,0.45,48
11.25,0.6,56
11.25,0.75,56
11.25,0.9,53
11.25,1.05,53
11.25,1.2,53
11.25,1.35,53
11.25,1.5,54
11.4,-1.5,57
11.4,-1.35,57
11.4,-1.2,59
11.4,-1.05,58
11.4,-0.9,54
11.4,-0.75,54
11.4,-0.6,46
11.4,-0.45,14
11.4,-0.3,11
11.4,-0.15,81
11.4,0.0,69
11.4,0.15,58
11.4,0.3,44
11.4,0.45,46
11.4,0.6,41
11.4,0.75,57
11.4,0.9,59
11.4,1.05,59
11.4,1.2,53
11.4,1.35,53
11.4,1.5,53
11.55,-1.5,57
11.55,-1.35,57
11.55,-1.2,57
11.55,-1.05,55
11.55,-0.9,63
11.55,-0.75,56
11.55,-0.6,72
11.55,-0.45,179
11.55,-0.3,91
11.55,-0.15,77
11.55,0.0,62
11.55,0.15,30
11.55,0.3,24
11.55,0.45,33
11.55,0.6,43
11.55,0.75,41
11.55,0.9,51
11.55,1.05,68
11.55,1.2,53
11.55,1.35,53
11.55,1.5,53
11.7,-1.5,61
11.7,-1.35,57
11.7,-1.2,57
11.7,-1.05,63
11.7,-0.9,51
11.7,-0.75,39
11.7,-0.6,46
11.7,-0.45,79
11.7,-0.3,84
11.7,-0.15,70
11.7,0.0,55
11.7,0.15,12
11.7,0.3,3
11.7,0.45,38
11.7,0.6,55
11.7,0.75,55
11.7,0.9,60
11.7,1.05,39
11.7,1.2,39
11.7,1.35,39
11.7,1.5,51
11.85,-1.5,81
11.85,-1.35,81
11.85,-1.2,81
11.85,-1.05,81
11.85,-0.9,73
11.85,-0.75,45
11.85,-0.6,38
11.85,-0.45,139
11.85,-0.3,83
11.85,-0.15,69
11.85,0.0,64
11.85,0.15,43
11.85,0.3,34
11.85,0.45,37
11.85,0.6,43
11.85,0.75,46
11.85,0.9,39
11.85,1.05,39
11.85,1.2,45
11.85,1.35,45
11.85,1.5,44
12.0,-1.5,75
12.0,-1.35,77
12.0,-1.2,81
12.0,-1.05,81
12.0,-0.9,81
12.0,-0.75,82
12.0,-0.6,67
12.0,-0.45,3
12.0,-0.3,51
12.0,-0.15,72
12.0,0.0,82
12.0,0.15,78
12.0,0.3,54
12.0,0.45,52
12.0,0.6,53
12.0,0.75,53
12.0,0.9,42
12.0,1.05,41
12.0,1.2,39
12.0,1.35,38
12.0,1.5,37
12.15,-1.5,71
12.15,-1.35,74
12.15,-1.2,80
12.15,-1.05,83
12.15,-0.9,89
12.15,-0.75,103
12.15,-0.6,144
12.15,-0.45,114
12.15,-0.3,85
12.15,-0.15,95
12.15,0.0,106
12.15,0.15,84
12.15,0.3,76
12.15,0.45,69
12.15,0.6,64
12.15,0.75,55
12.15,0.9,53
12.15,1.05,51
12.15,1.2,38
12.15,1.35,37
12.15,1.5,37
12.3,-1.5,54
12.3,-1.35,59
12.3,-1.2,64
12.3,-1.05,83
12.3,-0.9,89
12.3,-0.75,108
12.3,-0.6,125
12.3,-0.45,129
12.3,-0.3,116
12.3,-0.15,115
12.3,0.0,116
12.3,0.15,103
12.3,0.3,85
12.3,0.45,69
12.3,0.6,61
12.3,0.75,58
12.3,0.9,50
12.3,1.05,48
12.3,1.2,45
12.3,1.35,42
12.3,1.5,37
12.45,-1.5,47
12.45,-1.35,55
12.45,-1.2,70
12.45,-1.05,79
12.45,-0.9,91
12.45,-0.75,91
12.45,-0.6,84
12.45,-0.45,58
12.45,-0.3,149
12.45,-0.15,124
12.45,0.0,149
12.45,0.15,141
12.45,0.3,83
12.45,0.45,51
12.45,0.6,41
12.45,0.75,43
12.45,0.9,44
12.45,1.05,42
12.45,1.2,40
12.45,1.35,36
12.45,1.5,32
12.6,-1.5,45
12.6,-1.35,55
12.6,-1.2,63
12.6,-1.05,68
12.6,-0.9,70
12.6,-0.75,66
12.6,-0.6,56
12.6,-0.45,53
12.6,-0.3,124
12.6,-0.15,115
12.6,0.0,141
12.6,0.15,118
12.6,0.3,51
12.6,0.45,9
12.6,0.6,21
12.6,0.75,35
12.6,0.9,39
12.6,1.05,38
12.6,1.2,32
12.6,1.35,25
12.6,1.5,21
12.75,-1.5,25
12.75,-1.35,36
12.75,-1.2,51
12.75,-1.05,59
12.75,-0.9,57
12.75,-0.75,52
12.75,-0.6,42
12.75,-0.45,42
12.75,-0.3,75
12.75,-0.15,79
12.75,0.0,48
12.75,0.15,0
12.75,0.3,29
12.75,0.45,3
12.75,0.6,17
12.75,0.75,31
12.75,0.9,37
12.75,1.05,33
12.75,1.2,24
12.75,1.35,13
12.75,1.5,8
12.9,-1.5,1
12.9,-1.35,16
12.9,-1.2,40
12.9,-1.05,52
12.9,-0.9,58
12.9,-0.75,47
12.9,-0.6,25
12.9,-0.45,28
12.9,-0.3,56
12.9,-0.15,62
12.9,0.0,47
12.9,0.15,30
12.9,0.3,36
12.9,0.45,27
12.9,0.6,29
12.9,0.75,33
12.9,0.9,34
12.9,1.05,28
12.9,1.2,16
12.9,1.35,3
12.9,1.5,0
13.05,-1.5,0
13.05,-1.35,10
13.05,-1.2,34
13.05,-1.05,53
13.05,-0.9,56
13.05,-0.75,45
13.05,-0.6,43
13.05,-0.45,44
13.05,-0.3,50
13.05,-0.15,57
13.05,0.0,54
13.05,0.15,49
13.05,0.3,46
13.05,0.45,39
13.05,0.6,38
13.05,0.75,38
13.05,0.9,35
13.05,1.05,27
13.05,1.2,14
13.05,1.35,1
13.05,1.5,0
