-3.0,-1.5,0
-3.0,-1.35,10
-3.0,-1.2,47
-3.0,-1.05,86
-3.0,-0.9,120
-3.0,-0.75,152
-3.0,-0.6,183
-3.0,-0.45,193
-3.0,-0.3,178
-3.0,-0.15,164
-3.0,0.0,151
-3.0,0.15,137
-3.0,0.3,118
-3.0,0.45,90
-3.0,0.6,56
-3.0,0.75,20
-3.0,0.9,1
-3.0,1.05,5
-3.0,1.2,13
-3.0,1.35,3
-3.0,1.5,0
-2.85,-1.5,8
-2.85,-1.35,23
-2.85,-1.2,56
-2.85,-1.05,88
-2.85,-0.9,115
-2.85,-0.75,148
-2.85,-0.6,192
-2.85,-0.45,206
-2.85,-0.3,185
-2.85,-0.15,173
-2.85,0.0,163
-2.85,0.15,152
-2.85,0.3,129
-2.85,0.45,99
-2.85,0.6,62
-2.85,0.75,23
-2.85,0.9,0
-2.85,1.05,5
-2.85,1.2,15
-2.85,1.35,10
-2.85,1.5,3
-2.7,-1.5,35
-2.7,-1.35,48
-2.7,-1.2,69
-2.7,-1.05,86
-2.7,-0.9,96
-2.7,-0.75,110
-2.7,-0.6,147
-2.7,-0.45,175
-2.7,-0.3,177
-2.7,-0.15,184
-2.7,0.0,183
-2.7,0.15,168
-2.7,0.3,142
-2.7,0.45,113
-2.7,0.6,79
-2.7,0.75,46
-2.7,0.9,25
-2.7,1.05,23
-2.7,1.2,26
-2.7,1.35,23
-2.7,1.5,21
-2.55,-1.5,60
-2.55,-1.35,68
-2.55,-1.2,77
-2.55,-1.05,80
-2.55,-0.9,68
-2.55,-0.75,43
-2.55,-0.6,60
-2.55,-0.45,130
-2.55,-0.3,184
-2.55,-0.15,216
-2.55,0.0,215
-2.55,0.15,187
-2.55,0.3,153
-2.55,0.45,125
-2.55,0.6,98
-2.55,0.75,72
-2.55,0.9,53
-2.55,1.05,45
-2.55,1.2,41
-2.55,1.35,42
-2.55,1.5,39
-2.4,-1.5,75
-2.4,-1.35,80
-2.4,-1.2,83
-2.4,-1.05,77
-2.4,-0.9,54
-2.4,-0.75,9
-2.4,-0.6,16
-2.4,-0.45,120
-2.4,-0.3,213
-2.4,-0.15,255
-2.4,0.0,255
-2.4,0.15,195
-2.4,0.3,153
-2.4,0.45,128
-2.4,0.6,108
-2.4,0.75,89
-2.4,0.9,77
-2.4,1.05,66
-2.4,1.2,62
-2.4,1.35,58
-2.4,1.5,52
-2.25,-1.5,85
-2.25,-1.35,88
-2.25,-1.2,88
-2.25,-1.05,83
-2.25,-0.9,68
-2.25,-0.75,50
-2.25,-0.6,68
-2.25,-0.45,142
-2.25,-0.3,226
-2.25,-0.15,255
-2.25,0.0,255
-2.25,0.15,135
-2.25,0.3,122
-2.25,0.45,122
-2.25,0.6,113
-2.25,0.75,100
-2.25,0.9,88
-2.25,1.05,78
-2.25,1.2,71
-2.25,1.35,66
-2.25,1.5,63
-2.1,-1.5,92
-2.1,-1.35,93
-2.1,-1.2,94
-2.1,-1.05,93
-2.1,-0.9,90
-2.1,-0.75,93
-2.1,-0.6,111
-2.1,-0.45,149
-2.1,-0.3,194
-2.1,-0.15,221
-2.1,0.0,131
-2.1,0.15,12
-2.1,0.3,91
-2.1,0.45,110
-2.1,0.6,109
-2.1,0.75,101
-2.1,0.9,92
-2.1,1.05,84
-2.1,1.2,78
-2.1,1.35,74
-2.1,1.5,71
-1.95,-1.5,88
-1.95,-1.35,97
-1.95,-1.2,99
-1.95,-1.05,101
-1.95,-0.9,103
-1.95,-0.75,110
-1.95,-0.6,120
-1.95,-0.45,134
-1.95,-0.3,149
-1.95,-0.15,152
-1.95,0.0,120
-1.95,0.15,86
-1.95,0.3,105
-1.95,0.45,114
-1.95,0.6,105
-1.95,0.75,98
-1.95,0.9,90
-1.95,1.05,84
-1.95,1.2,80
-1.95,1.35,77
-1.95,1.5,76
-1.8,-1.5,88
-1.8,-1.35,90
-1.8,-1.2,93
-1.8,-1.05,104
-1.8,-0.9,109
-1.8,-0.75,111
-1.8,-0.6,113
-1.8,-0.45,112
-1.8,-0.3,111
-1.8,-0.15,112
-1.8,0.0,113
-1.8,0.15,122
-1.8,0.3,122
-1.8,0.45,115
-1.8,0.6,99
-1.8,0.75,89
-1.8,0.9,82
-1.8,1.05,79
-1.8,1.2,78
-1.8,1.35,77
-1.8,1.5,77
-1.65,-1.5,87
-1.65,-1.35,101
-1.65,-1.2,92
-1.65,-1.05,95
-1.65,-0.9,98
-1.65,-0.75,100
-1.65,-0.6,100
-1.65,-0.45,89
-1.65,-0.3,71
-1.65,-0.15,74
-1.65,0.0,107
-1.65,0.15,155
-1.65,0.3,142
-1.65,0.45,114
-1.65,0.6,90
-1.65,0.75,74
-1.65,0.9,66
-1.65,1.05,67
-1.65,1.2,67
-1.65,1.35,70
-1.65,1.5,77
-1.5,-1.5,84
-1.5,-1.35,86
-1.5,-1.2,91
-1.5,-1.05,95
-1.5,-0.9,97
-1.5,-0.75,101
-1.5,-0.6,100
-1.5,-0.45,85
-1.5,-0.3,37
-1.5,-0.15,26
-1.5,0.0,81
-1.5,0.15,197
-1.5,0.3,142
-1.5,0.45,96
-1.5,0.6,72
-1.5,0.75,38
-1.5,0.9,38
-1.5,1.05,50
-1.5,1.2,59
-1.5,1.35,65
-1.5,1.5,70
-1.35,-1.5,56
-1.35,-1.35,67
-1.35,-1.2,70
-1.35,-1.05,76
-1.35,-0.9,75
-1.35,-0.75,89
-1.35,-0.6,105
-1.35,-0.45,110
-1.35,-0.3,70
-1.35,-0.15,62
-1.35,0.0,71
-1.35,0.15,99
-1.35,0.3,68
-1.35,0.45,68
-1.35,0.6,49
-1.35,0.75,5
-1.35,0.9,10
-1.35,1.05,38
-1.35,1.2,58
-1.35,1.35,69
-1.35,1.5,76
-1.2,-1.5,48
-1.2,-1.35,57
-1.2,-1.2,58
-1.2,-1.05,64
-1.2,-0.9,79
-1.2,-0.75,100
-1.2,-0.6,137
-1.2,-0.45,194
-1.2,-0.3,123
-1.2,-0.15,99
-1.2,0.0,81
-1.2,0.15,78
-1.2,0.3,68
-1.2,0.45,73
-1.2,0.6,61
-1.2,0.75,19
-1.2,0.9,20
-1.2,1.05,45
-1.2,1.2,63
-1.2,1.35,73
-1.2,1.5,80
-1.05,-1.5,53
-1.05,-1.35,48
-1.05,-1.2,45
-1.05,-1.05,53
-1.05,-0.9,69
-1.05,-0.75,93
-1.05,-0.6,123
-1.05,-0.45,159
-1.05,-0.3,119
-1.05,-0.15,80
-1.05,0.0,66
-1.05,0.15,78
-1.05,0.3,105
-1.05,0.45,107
-1.05,0.6,89
-1.05,0.75,66
-1.05,0.9,59
-1.05,1.05,66
-1.05,1.2,75
-1.05,1.35,81
-1.05,1.5,85
-0.9,-1.5,48
-0.9,-1.35,39
-0.9,-1.2,26
-0.9,-1.05,19
-0.9,-0.9,38
-0.9,-0.75,74
-0.9,-0.6,91
-0.9,-0.45,92
-0.9,-0.3,74
-0.9,-0.15,47
-0.9,0.0,8
-0.9,0.15,76
-0.9,0.3,186
-0.9,0.45,159
-0.9,0.6,118
-0.9,0.75,100
-0.9,0.9,91
-0.9,1.05,88
-0.9,1.2,89
-0.9,1.35,91
-0.9,1.5,92
-0.75,-1.5,45
-0.75,-1.35,33
-0.75,-1.2,14
-0.75,-1.05,0
-0.75,-0.9,19
-0.75,-0.75,57
-0.75,-0.6,72
-0.75,-0.45,59
-0.75,-0.3,59
-0.75,-0.15,43
-0.75,0.0,45
-0.75,0.15,68
-0.75,0.3,155
-0.75,0.45,156
-0.75,0.6,138
-0.75,0.75,129
-0.75,0.9,121
-0.75,1.05,115
-0.75,1.2,103
-0.75,1.35,100
-0.75,1.5,99
-0.6,-1.5,46
-0.6,-1.35,41
-0.6,-1.2,25
-0.6,-1.05,14
-0.6,-0.9,34
-0.6,-0.75,64
-0.6,-0.6,72
-0.6,-0.45,61
-0.6,-0.3,68
-0.6,-0.15,55
-0.6,0.0,2
-0.6,0.15,61
-0.6,0.3,118
-0.6,0.45,143
-0.6,0.6,153
-0.6,0.75,150
-0.6,0.9,138
-0.6,1.05,128
-0.6,1.2,120
-0.6,1.35,115
-0.6,1.5,112
-0.45,-1.5,54
-0.45,-1.35,49
-0.45,-1.2,43
-0.45,-1.05,47
-0.45,-0.9,61
-0.45,-0.75,78
-0.45,-0.6,90
-0.45,-0.45,97
-0.45,-0.3,115
-0.45,-0.15,110
-0.45,0.0,80
-0.45,0.15,102
-0.45,0.3,142
-0.45,0.45,181
-0.45,0.6,193
-0.45,0.75,176
-0.45,0.9,159
-0.45,1.05,146
-0.45,1.2,137
-0.45,1.35,126
-0.45,1.5,122
-0.3,-1.5,58
-0.3,-1.35,56
-0.3,-1.2,56
-0.3,-1.05,61
-0.3,-0.9,72
-0.3,-0.75,89
-0.3,-0.6,103
-0.3,-0.45,141
-0.3,-0.3,177
-0.3,-0.15,194
-0.3,0.0,144
-0.3,0.15,138
-0.3,0.3,169
-0.3,0.45,207
-0.3,0.6,205
-0.3,0.75,186
-0.3,0.9,166
-0.3,1.05,152
-0.3,1.2,142
-0.3,1.35,136
-0.3,1.5,126
-0.15,-1.5,64
-0.15,-1.35,64
-0.15,-1.2,64
-0.15,-1.05,64
-0.15,-0.9,75
-0.15,-0.75,97
-0.15,-0.6,127
-0.15,-0.45,173
-0.15,-0.3,202
-0.15,-0.15,182
-0.15,0.0,152
-0.15,0.15,146
-0.15,0.3,162
-0.15,0.45,185
-0.15,0.6,187
-0.15,0.75,180
-0.15,0.9,163
-0.15,1.05,153
-0.15,1.2,148
-0.15,1.35,133
-0.15,1.5,131
0.0,-1.5,44
0.0,-1.35,57
0.0,-1.2,54
0.0,-1.05,52
0.0,-0.9,56
0.0,-0.75,78
0.0,-0.6,121
0.0,-0.45,158
0.0,-0.3,182
0.0,-0.15,162
0.0,0.0,134
0.0,0.15,119
0.0,0.3,138
0.0,0.45,157
0.0,0.6,171
0.0,0.75,166
0.0,0.9,150
0.0,1.05,146
0.0,1.2,153
0.0,1.35,147
0.0,1.5,130
0.15,-1.5,41
0.15,-1.35,38
0.15,-1.2,44
0.15,-1.05,30
0.15,-0.9,20
0.15,-0.75,49
0.15,-0.6,93
0.15,-0.45,120
0.15,-0.3,145
0.15,-0.15,185
0.15,0.0,101
0.15,0.15,50
0.15,0.3,114
0.15,0.45,138
0.15,0.6,140
0.15,0.75,137
0.15,0.9,137
0.15,1.05,134
0.15,1.2,122
0.15,1.35,120
0.15,1.5,128
0.3,-1.5,39
0.3,-1.35,35
0.3,-1.2,28
0.3,-1.05,23
0.3,-0.9,0
0.3,-0.75,30
0.3,-0.6,65
0.3,-0.45,76
0.3,-0.3,102
0.3,-0.15,177
0.3,0.0,205
0.3,0.15,97
0.3,0.3,103
0.3,0.45,120
0.3,0.6,129
0.3,0.75,107
0.3,0.9,110
0.3,1.05,114
0.3,1.2,113
0.3,1.35,113
0.3,1.5,112
0.45,-1.5,38
0.45,-1.35,35
0.45,-1.2,35
0.45,-1.05,29
0.45,-0.9,31
0.45,-0.75,47
0.45,-0.6,54
0.45,-0.45,48
0.45,-0.3,28
0.45,-0.15,124
0.45,0.0,160
0.45,0.15,113
0.45,0.3,96
0.45,0.45,96
0.45,0.6,95
0.45,0.75,85
0.45,0.9,81
0.45,1.05,84
0.45,1.2,86
0.45,1.35,86
0.45,1.5,87
0.6,-1.5,30
0.6,-1.35,28
0.6,-1.2,18
0.6,-1.05,25
0.6,-0.9,26
0.6,-0.75,41
0.6,-0.6,33
0.6,-0.45,37
0.6,-0.3,38
0.6,-0.15,82
0.6,0.0,57
0.6,0.15,74
0.6,0.3,80
0.6,0.45,82
0.6,0.6,82
0.6,0.75,68
0.6,0.9,68
0.6,1.05,69
0.6,1.2,80
0.6,1.35,81
0.6,1.5,82
0.75,-1.5,19
0.75,-1.35,19
0.75,-1.2,21
0.75,-1.05,18
0.75,-0.9,20
0.75,-0.75,20
0.75,-0.6,27
0.75,-0.45,15
0.75,-0.3,42
0.75,-0.15,49
0.75,0.0,49
0.75,0.15,58
0.75,0.3,71
0.75,0.45,71
0.75,0.6,73
0.75,0.75,70
0.75,0.9,69
0.75,1.05,57
0.75,1.2,67
0.75,1.35,77
0.75,1.5,92
0.9,-1.5,8
0.9,-1.35,18
0.9,-1.2,18
0.9,-1.05,21
0.9,-0.9,19
0.9,-0.75,18
0.9,-0.6,7
0.9,-0.45,20
0.9,-0.3,90
0.9,-0.15,65
0.9,0.0,56
0.9,0.15,109
0.9,0.3,56
0.9,0.45,72
0.9,0.6,73
0.9,0.75,68
0.9,0.9,69
0.9,1.05,68
0.9,1.2,68
0.9,1.35,65
0.9,1.5,65
1.05,-1.5,9
1.05,-1.35,8
1.05,-1.2,8
1.05,-1.05,16
1.05,-0.9,17
1.05,-0.75,19
1.05,-0.6,14
1.05,-0.45,27
1.05,-0.3,47
1.05,-0.15,31
1.05,0.0,50
1.05,0.15,56
1.05,0.3,57
1.05,0.45,92
1.05,0.6,80
1.05,0.75,73
1.05,0.9,67
1.05,1.05,66
1.05,1.2,65
1.05,1.35,65
1.05,1.5,65
1.2,-1.5,11
1.2,-1.35,8
1.2,-1.2,6
1.2,-1.05,8
1.2,-0.9,6
1.2,-0.75,17
1.2,-0.6,21
1.2,-0.45,22
1.2,-0.3,21
1.2,-0.15,31
1.2,0.0,73
1.2,0.15,55
1.2,0.3,53
1.2,0.45,54
1.2,0.6,67
1.2,0.75,65
1.2,0.9,65
1.2,1.05,65
1.2,1.2,65
1.2,1.35,65
1.2,1.5,61
1.35,-1.5,11
1.35,-1.35,11
1.35,-1.2,6
1.35,-1.05,1
1.35,-0.9,0
1.35,-0.75,11
1.35,-0.6,16
1.35,-0.45,14
1.35,-0.3,23
1.35,-0.15,35
1.35,0.0,50
1.35,0.15,46
1.35,0.3,34
1.35,0.45,39
1.35,0.6,56
1.35,0.75,62
1.35,0.9,62
1.35,1.05,62
1.35,1.2,62
1.35,1.35,61
1.35,1.5,61
1.5,-1.5,11
1.5,-1.35,10
1.5,-1.2,10
1.5,-1.05,6
1.5,-0.9,9
1.5,-0.75,20
1.5,-0.6,31
1.5,-0.45,5
1.5,-0.3,35
1.5,-0.15,31
1.5,0.0,34
1.5,0.15,33
1.5,0.3,21
1.5,0.45,21
1.5,0.6,53
1.5,0.75,63
1.5,0.9,62
1.5,1.05,62
1.5,1.2,61
1.5,1.35,60
1.5,1.5,60
1.65,-1.5,15
1.65,-1.35,14
1.65,-1.2,14
1.65,-1.05,16
1.65,-0.9,14
1.65,-0.75,26
1.65,-0.6,37
1.65,-0.45,24
1.65,-0.3,35
1.65,-0.15,34
1.65,0.0,48
1.65,0.15,4
1.65,0.3,39
1.65,0.45,136
1.65,0.6,92
1.65,0.75,70
1.65,0.9,60
1.65,1.05,59
1.65,1.2,59
1.65,1.35,59
1.65,1.5,59
1.8,-1.5,16
1.8,-1.35,14
1.8,-1.2,11
1.8,-1.05,11
1.8,-0.9,16
1.8,-0.75,23
1.8,-0.6,37
1.8,-0.45,24
1.8,-0.3,2
1.8,-0.15,33
1.8,0.0,38
1.8,0.15,29
1.8,0.3,1
1.8,0.45,132
1.8,0.6,92
1.8,0.75,68
1.8,0.9,62
1.8,1.05,59
1.8,1.2,59
1.8,1.35,59
1.8,1.5,59
1.95,-1.5,16
1.95,-1.35,14
1.95,-1.2,7
1.95,-1.05,0
1.95,-0.9,15
1.95,-0.75,31
1.95,-0.6,35
1.95,-0.45,37
1.95,-0.3,42
1.95,-0.15,42
1.95,0.0,36
1.95,0.15,24
1.95,0.3,37
1.95,0.45,43
1.95,0.6,54
1.95,0.75,52
1.95,0.9,52
1.95,1.05,60
1.95,1.2,59
1.95,1.35,59
1.95,1.5,59
2.1,-1.5,37
2.1,-1.35,33
2.1,-1.2,26
2.1,-1.05,15
2.1,-0.9,29
2.1,-0.75,41
2.1,-0.6,40
2.1,-0.45,41
2.1,-0.3,146
2.1,-0.15,17
2.1,0.0,0
2.1,0.15,52
2.1,0.3,38
2.1,0.45,1
2.1,0.6,35
2.1,0.75,53
2.1,0.9,57
2.1,1.05,59
2.1,1.2,59
2.1,1.35,59
2.1,1.5,59
2.25,-1.5,41
2.25,-1.35,41
2.25,-1.2,48
2.25,-1.05,57
2.25,-0.9,56
2.25,-0.75,48
2.25,-0.6,47
2.25,-0.45,30
2.25,-0.3,17
2.25,-0.15,13
2.25,0.0,48
2.25,0.15,59
2.25,0.3,51
2.25,0.45,33
2.25,0.6,49
2.25,0.75,55
2.25,0.9,59
2.25,1.05,59
2.25,1.2,59
2.25,1.35,59
2.25,1.5,59
2.4,-1.5,44
2.4,-1.35,45
2.4,-1.2,54
2.4,-1.05,65
2.4,-0.9,59
2.4,-0.75,42
2.4,-0.6,30
2.4,-0.45,105
2.4,-0.3,94
2.4,-0.15,87
2.4,0.0,59
2.4,0.15,53
2.4,0.3,47
2.4,0.45,48
2.4,0.6,52
2.4,0.75,53
2.4,0.9,53
2.4,1.05,59
2.4,1.2,59
2.4,1.35,59
2.4,1.5,59
2.55,-1.5,76
2.55,-1.35,72
2.55,-1.2,65
2.55,-1.05,45
2.55,-0.9,31
2.55,-0.75,67
2.55,-0.6,70
2.55,-0.45,105
2.55,-0.3,41
2.55,-0.15,29
2.55,0.0,51
2.55,0.15,44
2.55,0.3,2
2.55,0.45,55
2.55,0.6,67
2.55,0.75,61
2.55,0.9,58
2.55,1.05,57
2.55,1.2,56
2.55,1.35,51
2.55,1.5,51
2.7,-1.5,81
2.7,-1.35,81
2.7,-1.2,83
2.7,-1.05,77
2.7,-0.9,91
2.7,-0.75,119
2.7,-0.6,150
2.7,-0.45,206
2.7,-0.3,36
2.7,-0.15,17
2.7,0.0,24
2.7,0.15,53
2.7,0.3,72
2.7,0.45,166
2.7,0.6,78
2.7,0.75,57
2.7,0.9,52
2.7,1.05,51
2.7,1.2,51
2.7,1.35,51
2.7,1.5,51
2.85,-1.5,76
2.85,-1.35,76
2.85,-1.2,79
2.85,-1.05,90
2.85,-0.9,99
2.85,-0.75,119
2.85,-0.6,148
2.85,-0.45,202
2.85,-0.3,137
2.85,-0.15,1
2.85,0.0,26
2.85,0.15,52
2.85,0.3,72
2.85,0.45,80
2.85,0.6,17
2.85,0.75,42
2.85,0.9,49
2.85,1.05,61
2.85,1.2,62
2.85,1.35,64
2.85,1.5,64
3.0,-1.5,68
3.0,-1.35,82
3.0,-1.2,83
3.0,-1.05,89
3.0,-0.9,95
3.0,-0.75,93
3.0,-0.6,60
3.0,-0.45,172
3.0,-0.3,142
3.0,-0.15,40
3.0,0.0,47
3.0,0.15,58
3.0,0.3,61
3.0,0.45,49
3.0,0.6,29
3.0,0.75,51
3.0,0.9,64
3.0,1.05,70
3.0,1.2,73
3.0,1.35,75
3.0,1.5,80
3.15,-1.5,43
3.15,-1.35,43
3.15,-1.2,58
3.15,-1.05,67
3.15,-0.9,67
3.15,-0.75,63
3.15,-0.6,57
3.15,-0.45,51
3.15,-0.3,27
3.15,-0.15,45
3.15,0.0,43
3.15,0.15,45
3.15,0.3,43
3.15,0.45,46
3.15,0.6,62
3.15,0.75,70
3.15,0.9,76
3.15,1.05,79
3.15,1.2,82
3.15,1.35,83
3.15,1.5,85
3.3,-1.5,41
3.3,-1.35,35
3.3,-1.2,48
3.3,-1.05,49
3.3,-0.9,50
3.3,-0.75,42
3.3,-0.6,39
3.3,-0.45,16
3.3,-0.3,105
3.3,-0.15,66
3.3,0.0,13
3.3,0.15,21
3.3,0.3,69
3.3,0.45,59
3.3,0.6,73
3.3,0.75,70
3.3,0.9,79
3.3,1.05,77
3.3,1.2,77
3.3,1.35,78
3.3,1.5,74
3.45,-1.5,48
3.45,-1.35,48
3.45,-1.2,48
3.45,-1.05,48
3.45,-0.9,49
3.45,-0.75,49
3.45,-0.6,47
3.45,-0.45,36
3.45,-0.3,49
3.45,-0.15,20
3.45,0.0,24
3.45,0.15,6
3.45,0.3,166
3.45,0.45,119
3.45,0.6,87
3.45,0.75,72
3.45,0.9,70
3.45,1.05,67
3.45,1.2,61
3.45,1.35,59
3.45,1.5,54
3.6,-1.5,78
3.6,-1.35,54
3.6,-1.2,53
3.6,-1.05,54
3.6,-0.9,54
3.6,-0.75,58
3.6,-0.6,61
3.6,-0.45,68
3.6,-0.3,32
3.6,-0.15,19
3.6,0.0,55
3.6,0.15,65
3.6,0.3,95
3.6,0.45,87
3.6,0.6,80
3.6,0.75,72
3.6,0.9,65
3.6,1.05,58
3.6,1.2,55
3.6,1.35,50
3.6,1.5,49
3.75,-1.5,66
3.75,-1.35,60
3.75,-1.2,52
3.75,-1.05,51
3.75,-0.9,60
3.75,-0.75,65
3.75,-0.6,111
3.75,-0.45,174
3.75,-0.3,48
3.75,-0.15,7
3.75,0.0,53
3.75,0.15,36
3.75,0.3,4
3.75,0.45,45
3.75,0.6,58
3.75,0.75,56
3.75,0.9,52
3.75,1.05,51
3.75,1.2,51
3.75,1.35,47
3.75,1.5,47
3.9,-1.5,66
3.9,-1.35,57
3.9,-1.2,36
3.9,-1.05,7
3.9,-0.9,57
3.9,-0.75,0
3.9,-0.6,85
3.9,-0.45,70
3.9,-0.3,18
3.9,-0.15,0
3.9,0.0,40
3.9,0.15,47
3.9,0.3,23
3.9,0.45,23
3.9,0.6,21
3.9,0.75,32
3.9,0.9,34
3.9,1.05,46
3.9,1.2,45
3.9,1.35,46
3.9,1.5,47
4.05,-1.5,76
4.05,-1.35,68
4.05,-1.2,51
4.05,-1.05,36
4.05,-0.9,96
4.05,-0.75,206
4.05,-0.6,97
4.05,-0.45,8
4.05,-0.3,69
4.05,-0.15,126
4.05,0.0,128
4.05,0.15,43
4.05,0.3,27
4.05,0.45,11
4.05,0.6,12
4.05,0.75,13
4.05,0.9,13
4.05,1.05,15
4.05,1.2,17
4.05,1.35,38
4.05,1.5,40
4.2,-1.5,68
4.2,-1.35,76
4.2,-1.2,73
4.2,-1.05,81
4.2,-0.9,101
4.2,-0.75,134
4.2,-0.6,177
4.2,-0.45,124
4.2,-0.3,49
4.2,-0.15,42
4.2,0.0,25
4.2,0.15,20
4.2,0.3,10
4.2,0.45,7
4.2,0.6,7
4.2,0.75,7
4.2,0.9,13
4.2,1.05,15
4.2,1.2,17
4.2,1.35,18
4.2,1.5,19
4.35,-1.5,70
4.35,-1.35,71
4.35,-1.2,84
4.35,-1.05,88
4.35,-0.9,80
4.35,-0.75,68
4.35,-0.6,123
4.35,-0.45,72
4.35,-0.3,93
4.35,-0.15,49
4.35,0.0,16
4.35,0.15,0
4.35,0.3,7
4.35,0.45,7
4.35,0.6,7
4.35,0.75,12
4.35,0.9,20
4.35,1.05,25
4.35,1.2,28
4.35,1.35,28
4.35,1.5,18
4.5,-1.5,59
4.5,-1.35,73
4.5,-1.2,75
4.5,-1.05,91
4.5,-0.9,107
4.5,-0.75,108
4.5,-0.6,37
4.5,-0.45,91
4.5,-0.3,26
4.5,-0.15,44
4.5,0.0,44
4.5,0.15,24
4.5,0.3,32
4.5,0.45,31
4.5,0.6,25
4.5,0.75,24
4.5,0.9,25
4.5,1.05,26
4.5,1.2,27
4.5,1.35,27
4.5,1.5,28
4.65,-1.5,69
4.65,-1.35,69
4.65,-1.2,59
4.65,-1.05,72
4.65,-0.9,81
4.65,-0.75,103
4.65,-0.6,138
4.65,-0.45,158
4.65,-0.3,13
4.65,-0.15,75
4.65,0.0,11
4.65,0.15,2
4.65,0.3,46
4.65,0.45,26
4.65,0.6,26
4.65,0.75,30
4.65,0.9,29
4.65,1.05,28
4.65,1.2,28
4.65,1.35,28
4.65,1.5,14
4.8,-1.5,51
4.8,-1.35,50
4.8,-1.2,50
4.8,-1.05,52
4.8,-0.9,64
4.8,-0.75,20
4.8,-0.6,174
4.8,-0.45,125
4.8,-0.3,64
4.8,-0.15,197
4.8,0.0,59
4.8,0.15,255
4.8,0.3,41
4.8,0.45,41
4.8,0.6,45
4.8,0.75,47
4.8,0.9,49
4.8,1.05,53
4.8,1.2,40
4.8,1.35,41
4.8,1.5,41
4.95,-1.5,48
4.95,-1.35,45
4.95,-1.2,40
4.95,-1.05,36
4.95,-0.9,47
4.95,-0.75,35
4.95,-0.6,58
4.95,-0.45,55
4.95,-0.3,74
4.95,-0.15,15
4.95,0.0,116
4.95,0.15,52
4.95,0.3,9
4.95,0.45,52
4.95,0.6,50
4.95,0.75,61
4.95,0.9,51
4.95,1.05,60
4.95,1.2,61
4.95,1.35,61
4.95,1.5,61
5.1,-1.5,35
5.1,-1.35,32
5.1,-1.2,25
5.1,-1.05,1
5.1,-0.9,33
5.1,-0.75,52
5.1,-0.6,60
5.1,-0.45,140
5.1,-0.3,15
5.1,-0.15,116
5.1,0.0,38
5.1,0.15,61
5.1,0.3,87
5.1,0.45,75
5.1,0.6,79
5.1,0.75,70
5.1,0.9,69
5.1,1.05,68
5.1,1.2,64
5.1,1.35,48
5.1,1.5,48
5.25,-1.5,35
5.25,-1.35,33
5.25,-1.2,28
5.25,-1.05,31
5.25,-0.9,39
5.25,-0.75,41
5.25,-0.6,24
5.25,-0.45,53
5.25,-0.3,0
5.25,-0.15,44
5.25,0.0,44
5.25,0.15,75
5.25,0.3,113
5.25,0.45,85
5.25,0.6,78
5.25,0.75,65
5.25,0.9,58
5.25,1.05,70
5.25,1.2,69
5.25,1.35,65
5.25,1.5,65
5.4,-1.5,41
5.4,-1.35,44
5.4,-1.2,44
5.4,-1.05,46
5.4,-0.9,56
5.4,-0.75,76
5.4,-0.6,56
5.4,-0.45,106
5.4,-0.3,1
5.4,-0.15,15
5.4,0.0,70
5.4,0.15,33
5.4,0.3,61
5.4,0.45,75
5.4,0.6,79
5.4,0.75,71
5.4,0.9,70
5.4,1.05,70
5.4,1.2,69
5.4,1.35,69
5.4,1.5,69
5.55,-1.5,47
5.55,-1.35,48
5.55,-1.2,50
5.55,-1.05,54
5.55,-0.9,61
5.55,-0.75,93
5.55,-0.6,120
5.55,-0.45,30
5.55,-0.3,149
5.55,-0.15,37
5.55,0.0,49
5.55,0.15,29
5.55,0.3,57
5.55,0.45,44
5.55,0.6,49
5.55,0.75,45
5.55,0.9,66
5.55,1.05,64
5.55,1.2,65
5.55,1.35,65
5.55,1.5,66
5.7,-1.5,79
5.7,-1.35,73
5.7,-1.2,53
5.7,-1.05,53
5.7,-0.9,52
5.7,-0.75,59
5.7,-0.6,59
5.7,-0.45,49
5.7,-0.3,29
5.7,-0.15,36
5.7,0.0,17
5.7,0.15,48
5.7,0.3,57
5.7,0.45,26
5.7,0.6,27
5.7,0.75,30
5.7,0.9,31
5.7,1.05,32
5.7,1.2,32
5.7,1.35,33
5.7,1.5,33
5.85,-1.5,83
5.85,-1.35,81
5.85,-1.2,80
5.85,-1.05,71
5.85,-0.9,52
5.85,-0.75,43
5.85,-0.6,9
5.85,-0.45,57
5.85,-0.3,80
5.85,-0.15,15
5.85,0.0,95
5.85,0.15,20
5.85,0.3,24
5.85,0.45,5
5.85,0.6,19
5.85,0.75,25
5.85,0.9,31
5.85,1.05,32
5.85,1.2,31
5.85,1.35,31
5.85,1.5,28
6.0,-1.5,92
6.0,-1.35,93
6.0,-1.2,92
6.0,-1.05,99
6.0,-0.9,93
6.0,-0.75,70
6.0,-0.6,66
6.0,-0.45,145
6.0,-0.3,38
6.0,-0.15,54
6.0,0.0,24
6.0,0.15,41
6.0,0.3,33
6.0,0.45,17
6.0,0.6,13
6.0,0.75,16
6.0,0.9,17
6.0,1.05,17
6.0,1.2,17
6.0,1.35,17
6.0,1.5,17
6.15,-1.5,108
6.15,-1.35,111
6.15,-1.2,120
6.15,-1.05,141
6.15,-0.9,133
6.15,-0.75,105
6.15,-0.6,95
6.15,-0.45,116
6.15,-0.3,42
6.15,-0.15,3
6.15,0.0,66
6.15,0.15,61
6.15,0.3,37
6.15,0.45,0
6.15,0.6,26
6.15,0.75,33
6.15,0.9,35
6.15,1.05,37
6.15,1.2,38
6.15,1.35,39
6.15,1.5,39
6.3,-1.5,110
6.3,-1.35,135
6.3,-1.2,151
6.3,-1.05,193
6.3,-0.9,220
6.3,-0.75,124
6.3,-0.6,99
6.3,-0.45,0
6.3,-0.3,242
6.3,-0.15,75
6.3,0.0,41
6.3,0.15,5
6.3,0.3,54
6.3,0.45,44
6.3,0.6,42
6.3,0.75,42
6.3,0.9,42
6.3,1.05,39
6.3,1.2,40
6.3,1.35,40
6.3,1.5,41
6.45,-1.5,119
6.45,-1.35,128
6.45,-1.2,139
6.45,-1.05,192
6.45,-0.9,255
6.45,-0.75,98
6.45,-0.6,96
6.45,-0.45,34
6.45,-0.3,53
6.45,-0.15,41
6.45,0.0,143
6.45,0.15,50
6.45,0.3,255
6.45,0.45,39
6.45,0.6,41
6.45,0.75,42
6.45,0.9,42
6.45,1.05,42
6.45,1.2,42
6.45,1.35,42
6.45,1.5,42
6.6,-1.5,111
6.6,-1.35,98
6.6,-1.2,107
6.6,-1.05,111
6.6,-0.9,96
6.6,-0.75,51
6.6,-0.6,20
6.6,-0.45,96
6.6,-0.3,75
6.6,-0.15,46
6.6,0.0,174
6.6,0.15,48
6.6,0.3,63
6.6,0.45,9
6.6,0.6,30
6.6,0.75,42
6.6,0.9,42
6.6,1.05,42
6.6,1.2,42
6.6,1.35,42
6.6,1.5,42
6.75,-1.5,110
6.75,-1.35,110
6.75,-1.2,108
6.75,-1.05,96
6.75,-0.9,74
6.75,-0.75,53
6.75,-0.6,73
6.75,-0.45,45
6.75,-0.3,37
6.75,-0.15,57
6.75,0.0,49
6.75,0.15,43
6.75,0.3,28
6.75,0.45,38
6.75,0.6,35
6.75,0.75,40
6.75,0.9,42
6.75,1.05,42
6.75,1.2,42
6.75,1.35,42
6.75,1.5,42
6.9,-1.5,105
6.9,-1.35,104
6.9,-1.2,101
6.9,-1.05,77
6.9,-0.9,67
6.9,-0.75,62
6.9,-0.6,68
6.9,-0.45,23
6.9,-0.3,20
6.9,-0.15,43
6.9,0.0,39
6.9,0.15,32
6.9,0.3,22
6.9,0.45,22
6.9,0.6,17
6.9,0.75,33
6.9,0.9,34
6.9,1.05,36
6.9,1.2,37
6.9,1.35,37
6.9,1.5,38
7.05,-1.5,105
7.05,-1.35,100
7.05,-1.2,82
7.05,-1.05,77
7.05,-0.9,82
7.05,-0.75,76
7.05,-0.6,44
7.05,-0.45,100
7.05,-0.3,28
7.05,-0.15,202
7.05,0.0,62
7.05,0.15,25
7.05,0.3,36
7.05,0.45,29
7.05,0.6,29
7.05,0.75,17
7.05,0.9,20
7.05,1.05,17
7.05,1.2,17
7.05,1.35,17
7.05,1.5,17
7.2,-1.5,95
7.2,-1.35,96
7.2,-1.2,95
7.2,-1.05,99
7.2,-0.9,111
7.2,-0.75,255
7.2,-0.6,41
7.2,-0.45,16
7.2,-0.3,37
7.2,-0.15,43
7.2,0.0,146
7.2,0.15,37
7.2,0.3,35
7.2,0.45,27
7.2,0.6,23
7.2,0.75,10
7.2,0.9,13
7.2,1.05,13
7.2,1.2,13
7.2,1.35,17
7.2,1.5,17
7.35,-1.5,96
7.35,-1.35,95
7.35,-1.2,98
7.35,-1.05,100
7.35,-0.9,102
7.35,-0.75,81
7.35,-0.6,40
7.35,-0.45,30
7.35,-0.3,74
7.35,-0.15,41
7.35,0.0,55
7.35,0.15,16
7.35,0.3,28
7.35,0.45,19
7.35,0.6,18
7.35,0.75,13
7.35,0.9,23
7.35,1.05,13
7.35,1.2,13
7.35,1.35,13
7.35,1.5,17
7.5,-1.5,95
7.5,-1.35,95
7.5,-1.2,95
7.5,-1.05,115
7.5,-0.9,111
7.5,-0.75,130
7.5,-0.6,99
7.5,-0.45,42
7.5,-0.3,30
7.5,-0.15,111
7.5,0.0,15
7.5,0.15,36
7.5,0.3,36
7.5,0.45,27
7.5,0.6,39
7.5,0.75,41
7.5,0.9,47
7.5,1.05,49
7.5,1.2,50
7.5,1.35,51
7.5,1.5,52
7.65,-1.5,118
7.65,-1.35,121
7.65,-1.2,108
7.65,-1.05,107
7.65,-0.9,141
7.65,-0.75,88
7.65,-0.6,71
7.65,-0.45,81
7.65,-0.3,38
7.65,-0.15,35
7.65,0.0,26
7.65,0.15,153
7.65,0.3,51
7.65,0.45,9
7.65,0.6,37
7.65,0.75,45
7.65,0.9,48
7.65,1.05,50
7.65,1.2,52
7.65,1.35,53
7.65,1.5,54
7.8,-1.5,103
7.8,-1.35,103
7.8,-1.2,103
7.8,-1.05,104
7.8,-0.9,103
7.8,-0.75,77
7.8,-0.6,96
7.8,-0.45,79
7.8,-0.3,81
7.8,-0.15,20
7.8,0.0,8
7.8,0.15,80
7.8,0.3,30
7.8,0.45,36
7.8,0.6,48
7.8,0.75,55
7.8,0.9,49
7.8,1.05,54
7.8,1.2,55
7.8,1.35,55
7.8,1.5,56
7.95,-1.5,104
7.95,-1.35,105
7.95,-1.2,107
7.95,-1.05,103
7.95,-0.9,107
7.95,-0.75,101
7.95,-0.6,20
7.95,-0.45,4
7.95,-0.3,71
7.95,-0.15,1
7.95,0.0,162
7.95,0.15,79
7.95,0.3,35
7.95,0.45,69
7.95,0.6,73
7.95,0.75,76
7.95,0.9,76
7.95,1.05,76
7.95,1.2,73
7.95,1.35,73
7.95,1.5,72
8.1,-1.5,85
8.1,-1.35,91
8.1,-1.2,108
8.1,-1.05,116
8.1,-0.9,116
8.1,-0.75,182
8.1,-0.6,83
8.1,-0.45,68
8.1,-0.3,24
8.1,-0.15,22
8.1,0.0,105
8.1,0.15,14
8.1,0.3,91
8.1,0.45,98
8.1,0.6,84
8.1,0.75,72
8.1,0.9,69
8.1,1.05,52
8.1,1.2,51
8.1,1.35,50
8.1,1.5,49
8.25,-1.5,67
8.25,-1.35,69
8.25,-1.2,60
8.25,-1.05,86
8.25,-0.9,93
8.25,-0.75,96
8.25,-0.6,56
8.25,-0.45,9
8.25,-0.3,84
8.25,-0.15,165
8.25,0.0,56
8.25,0.15,80
8.25,0.3,110
8.25,0.45,113
8.25,0.6,90
8.25,0.75,79
8.25,0.9,71
8.25,1.05,52
8.25,1.2,50
8.25,1.35,49
8.25,1.5,48
8.4,-1.5,48
8.4,-1.35,48
8.4,-1.2,49
8.4,-1.05,51
8.4,-0.9,53
8.4,-0.75,61
8.4,-0.6,55
8.4,-0.45,77
8.4,-0.3,120
8.4,-0.15,179
8.4,0.0,139
8.4,0.15,98
8.4,0.3,63
8.4,0.45,76
8.4,0.6,83
8.4,0.75,79
8.4,0.9,79
8.4,1.05,60
8.4,1.2,60
8.4,1.35,59
8.4,1.5,59
8.55,-1.5,44
8.55,-1.35,41
8.55,-1.2,26
8.55,-1.05,22
8.55,-0.9,11
8.55,-0.75,17
8.55,-0.6,66
8.55,-0.45,119
8.55,-0.3,49
8.55,-0.15,34
8.55,0.0,52
8.55,0.15,31
8.55,0.3,31
8.55,0.45,41
8.55,0.6,46
8.55,0.75,51
8.55,0.9,53
8.55,1.05,58
8.55,1.2,59
8.55,1.35,60
8.55,1.5,60
8.7,-1.5,26
8.7,-1.35,23
8.7,-1.2,19
8.7,-1.05,12
8.7,-0.9,5
8.7,-0.75,3
8.7,-0.6,51
8.7,-0.45,50
8.7,-0.3,9
8.7,-0.15,58
8.7,0.0,44
8.7,0.15,51
8.7,0.3,100
8.7,0.45,4
8.7,0.6,18
8.7,0.75,23
8.7,0.9,34
8.7,1.05,37
8.7,1.2,52
8.7,1.35,54
8.7,1.5,59
8.85,-1.5,12
8.85,-1.35,11
8.85,-1.2,4
8.85,-1.05,2
8.85,-0.9,1
8.85,-0.75,13
8.85,-0.6,47
8.85,-0.45,152
8.85,-0.3,255
8.85,-0.15,152
8.85,0.0,49
8.85,0.15,24
8.85,0.3,34
8.85,0.45,15
8.85,0.6,11
8.85,0.75,25
8.85,0.9,32
8.85,1.05,36
8.85,1.2,41
8.85,1.35,43
8.85,1.5,44
9.0,-1.5,15
9.0,-1.35,13
9.0,-1.2,2
9.0,-1.05,9
9.0,-0.9,9
9.0,-0.75,13
9.0,-0.6,83
9.0,-0.45,8
9.0,-0.3,80
9.0,-0.15,15
9.0,0.0,14
9.0,0.15,25
9.0,0.3,35
9.0,0.45,22
9.0,0.6,11
9.0,0.75,19
9.0,0.9,34
9.0,1.05,38
9.0,1.2,39
9.0,1.35,40
9.0,1.5,41
9.15,-1.5,17
9.15,-1.35,16
9.15,-1.2,15
9.15,-1.05,29
9.15,-0.9,22
9.15,-0.75,10
9.15,-0.6,24
9.15,-0.45,208
9.15,-0.3,192
9.15,-0.15,42
9.15,0.0,25
9.15,0.15,16
9.15,0.3,48
9.15,0.45,58
9.15,0.6,34
9.15,0.75,29
9.15,0.9,31
9.15,1.05,31
9.15,1.2,31
9.15,1.35,31
9.15,1.5,31
9.3,-1.5,20
9.3,-1.35,20
9.3,-1.2,35
9.3,-1.05,40
9.3,-0.9,43
9.3,-0.75,20
9.3,-0.6,56
9.3,-0.45,85
9.3,-0.3,71
9.3,-0.15,35
9.3,0.0,39
9.3,0.15,99
9.3,0.3,119
9.3,0.45,91
9.3,0.6,62
9.3,0.75,53
9.3,0.9,45
9.3,1.05,43
9.3,1.2,42
9.3,1.35,31
9.3,1.5,31
9.45,-1.5,45
9.45,-1.35,45
9.45,-1.2,51
9.45,-1.05,38
9.45,-0.9,51
9.45,-0.75,57
9.45,-0.6,188
9.45,-0.45,92
9.45,-0.3,76
9.45,-0.15,65
9.45,0.0,98
9.45,0.15,80
9.45,0.3,63
9.45,0.45,62
9.45,0.6,57
9.45,0.75,52
9.45,0.9,49
9.45,1.05,44
9.45,1.2,43
9.45,1.35,31
9.45,1.5,31
9.6,-1.5,66
9.6,-1.35,81
9.6,-1.2,81
9.6,-1.05,79
9.6,-0.9,74
9.6,-0.75,73
9.6,-0.6,86
9.6,-0.45,59
9.6,-0.3,33
9.6,-0.15,26
9.6,0.0,201
9.6,0.15,73
9.6,0.3,68
9.6,0.45,67
9.6,0.6,53
9.6,0.75,57
9.6,0.9,61
9.6,1.05,63
9.6,1.2,64
9.6,1.35,53
9.6,1.5,39
9.75,-1.5,87
9.75,-1.35,92
9.75,-1.2,94
9.75,-1.05,109
9.75,-0.9,109
9.75,-0.75,93
9.75,-0.6,12
9.75,-0.45,151
9.75,-0.3,61
9.75,-0.15,58
9.75,0.0,112
9.75,0.15,91
9.75,0.3,39
9.75,0.45,27
9.75,0.6,24
9.75,0.75,47
9.75,0.9,56
9.75,1.05,53
9.75,1.2,63
9.75,1.35,64
9.75,1.5,65
9.9,-1.5,99
9.9,-1.35,101
9.9,-1.2,103
9.9,-1.05,108
9.9,-0.9,117
9.9,-0.75,141
9.9,-0.6,113
9.9,-0.45,86
9.9,-0.3,184
9.9,-0.15,136
9.9,0.0,147
9.9,0.15,49
9.9,0.3,74
9.9,0.45,32
9.9,0.6,27
9.9,0.75,44
9.9,0.9,53
9.9,1.05,57
9.9,1.2,59
9.9,1.35,60
9.9,1.5,76
10.05,-1.5,83
10.05,-1.35,85
10.05,-1.2,90
10.05,-1.05,118
10.05,-0.9,133
10.05,-0.75,187
10.05,-0.6,169
10.05,-0.45,130
10.05,-0.3,78
10.05,-0.15,127
10.05,0.0,181
10.05,0.15,113
10.05,0.3,83
10.05,0.45,57
10.05,0.6,51
10.05,0.75,51
10.05,0.9,53
10.05,1.05,55
10.05,1.2,51
10.05,1.35,51
10.05,1.5,51
10.2,-1.5,111
10.2,-1.35,112
10.2,-1.2,114
10.2,-1.05,118
10.2,-0.9,127
10.2,-0.75,137
10.2,-0.6,130
10.2,-0.45,144
10.2,-0.3,105
10.2,-0.15,107
10.2,0.0,106
10.2,0.15,59
10.2,0.3,59
10.2,0.45,61
10.2,0.6,61
10.2,0.75,51
10.2,0.9,51
10.2,1.05,51
10.2,1.2,51
10.2,1.35,51
10.2,1.5,51
10.35,-1.5,123
10.35,-1.35,123
10.35,-1.2,123
10.35,-1.05,123
10.35,-0.9,118
10.35,-0.75,108
10.35,-0.6,51
10.35,-0.45,89
10.35,-0.3,59
10.35,-0.15,141
10.35,0.0,116
10.35,0.15,100
10.35,0.3,73
10.35,0.45,57
10.35,0.6,59
10.35,0.75,55
10.35,0.9,55
10.35,1.05,51
10.35,1.2,51
10.35,1.35,51
10.35,1.5,51
10.5,-1.5,123
10.5,-1.35,123
10.5,-1.2,117
10.5,-1.05,112
10.5,-0.9,97
10.5,-0.75,97
10.5,-0.6,134
10.5,-0.45,162
10.5,-0.3,199
10.5,-0.15,172
10.5,0.0,99
10.5,0.15,101
10.5,0.3,68
10.5,0.45,55
10.5,0.6,54
10.5,0.75,54
10.5,0.9,53
10.5,1.05,52
10.5,1.2,52
10.5,1.35,51
10.5,1.5,51
10.65,-1.5,110
10.65,-1.35,106
10.65,-1.2,99
10.65,-1.05,81
10.65,-0.9,46
10.65,-0.75,15
10.65,-0.6,164
10.65,-0.45,207
10.65,-0.3,209
10.65,-0.15,192
10.65,0.0,108
10.65,0.15,42
10.65,0.3,51
10.65,0.45,52
10.65,0.6,52
10.65,0.75,53
10.65,0.9,51
10.65,1.05,51
10.65,1.2,51
10.65,1.35,51
10.65,1.5,51
10.8,-1.5,107
10.8,-1.35,104
10.8,-1.2,99
10.8,-1.05,104
10.8,-0.9,89
10.8,-0.75,83
10.8,-0.6,135
10.8,-0.45,118
10.8,-0.3,202
10.8,-0.15,108
10.8,0.0,97
10.8,0.15,56
10.8,0.3,42
10.8,0.45,47
10.8,0.6,51
10.8,0.75,55
10.8,0.9,59
10.8,1.05,61
10.8,1.2,63
10.8,1.35,64
10.8,1.5,51
10.95,-1.5,106
10.95,-1.35,104
10.95,-1.2,103
10.95,-1.05,113
10.95,-0.9,119
10.95,-0.75,116
10.95,-0.6,128
10.95,-0.45,155
10.95,-0.3,147
10.95,-0.15,187
10.95,0.0,123
10.95,0.15,30
10.95,0.3,11
10.95,0.45,47
10.95,0.6,57
10.95,0.75,55
10.95,0.9,59
10.95,1.05,61
10.95,1.2,63
10.95,1.35,64
10.95,1.5,64
11.1,-1.5,123
11.1,-1.35,122
11.1,-1.2,118
11.1,-1.05,104
11.1,-0.9,110
11.1,-0.75,122
11.1,-0.6,152
11.1,-0.45,131
11.1,-0.3,180
11.1,-0.15,177
11.1,0.0,171
11.1,0.15,92
11.1,0.3,45
11.1,0.45,60
11.1,0.6,60
11.1,0.75,56
11.1,0.9,61
11.1,1.05,64
11.1,1.2,64
11.1,1.35,64
11.1,1.5,64
11.25,-1.5,123
11.25,-1.35,124
11.25,-1.2,125
11.25,-1.05,127
11.25,-0.9,139
11.25,-0.75,139
11.25,-0.6,177
11.25,-0.45,247
11.25,-0.3,188
11.25,-0.15,231
11.25,0.0,255
11.25,0.15,191
11.25,0.3,148
11.25,0.45,103
11.25,0.6,90
11.25,0.75,79
11.25,0.9,77
11.25,1.05,61
11.25,1.2,61
11.25,1.35,61
11.25,1.5,63
11.4,-1.5,123
11.4,-1.35,123
11.4,-1.2,123
11.4,-1.05,133
11.4,-0.9,135
11.4,-0.75,139
11.4,-0.6,22
11.4,-0.45,163
11.4,-0.3,151
11.4,-0.15,233
11.4,0.0,214
11.4,0.15,188
11.4,0.3,163
11.4,0.45,119
11.4,0.6,100
11.4,0.75,93
11.4,0.9,92
11.4,1.05,91
11.4,1.2,78
11.4,1.35,78
11.4,1.5,61
11.55,-1.5,139
11.55,-1.35,140
11.55,-1.2,140
11.55,-1.05,140
11.55,-0.9,142
11.55,-0.75,153
11.55,-0.6,60
11.55,-0.45,6
11.55,-0.3,104
11.55,-0.15,183
11.55,0.0,30
11.55,0.15,118
11.55,0.3,117
11.55,0.45,98
11.55,0.6,92
11.55,0.75,89
11.55,0.9,91
11.55,1.05,90
11.55,1.2,91
11.55,1.35,79
11.55,1.5,77
11.7,-1.5,141
11.7,-1.35,142
11.7,-1.2,144
11.7,-1.05,155
11.7,-0.9,148
11.7,-0.75,163
11.7,-0.6,255
11.7,-0.45,105
11.7,-0.3,114
11.7,-0.15,109
11.7,0.0,98
11.7,0.15,80
11.7,0.3,53
11.7,0.45,71
11.7,0.6,78
11.7,0.75,83
11.7,0.9,85
11.7,1.05,86
11.7,1.2,86
11.7,1.35,85
11.7,1.5,85
11.85,-1.5,141
11.85,-1.35,144
11.85,-1.2,160
11.85,-1.05,162
11.85,-0.9,166
11.85,-0.75,172
11.85,-0.6,181
11.85,-0.45,178
11.85,-0.3,132
11.85,-0.15,44
11.85,0.0,80
11.85,0.15,57
11.85,0.3,1
11.85,0.45,50
11.85,0.6,78
11.85,0.75,85
11.85,0.9,82
11.85,1.05,84
11.85,1.2,62
11.85,1.35,61
11.85,1.5,60
12.0,-1.5,105
12.0,-1.35,111
12.0,-1.2,134
12.0,-1.05,141
12.0,-0.9,152
12.0,-0.75,168
12.0,-0.6,202
12.0,-0.45,255
12.0,-0.3,212
12.0,-0.15,118
12.0,0.0,75
12.0,0.15,69
12.0,0.3,54
12.0,0.45,62
12.0,0.6,63
12.0,0.75,70
12.0,0.9,74
12.0,1.05,38
12.0,1.2,38
12.0,1.35,37
12.0,1.5,35
12.15,-1.5,104
12.15,-1.35,104
12.15,-1.2,128
12.15,-1.05,134
12.15,-0.9,140
12.15,-0.75,147
12.15,-0.6,153
12.15,-0.45,165
12.15,-0.3,161
12.15,-0.15,75
12.15,0.0,56
12.15,0.15,62
12.15,0.3,59
12.15,0.45,59
12.15,0.6,63
12.15,0.75,67
12.15,0.9,52
12.15,1.05,51
12.15,1.2,50
12.15,1.35,29
12.15,1.5,31
12.3,-1.5,104
12.3,-1.35,109
12.3,-1.2,111
12.3,-1.05,126
12.3,-0.9,124
12.3,-0.75,109
12.3,-0.6,105
12.3,-0.45,97
12.3,-0.3,62
12.3,-0.15,6
12.3,0.0,31
12.3,0.15,53
12.3,0.3,49
12.3,0.45,49
12.3,0.6,49
12.3,0.75,49
12.3,0.9,48
12.3,1.05,47
12.3,1.2,45
12.3,1.35,42
12.3,1.5,40
12.45,-1.5,95
12.45,-1.35,100
12.45,-1.2,93
12.45,-1.05,112
12.45,-0.9,104
12.45,-0.75,70
12.45,-0.6,47
12.45,-0.45,55
12.45,-0.3,66
12.45,-0.15,35
12.45,0.0,19
12.45,0.15,51
12.45,0.3,58
12.45,0.45,61
12.45,0.6,63
12.45,0.75,47
12.45,0.9,46
12.45,1.05,43
12.45,1.2,39
12.45,1.35,44
12.45,1.5,30
12.6,-1.5,70
12.6,-1.35,69
12.6,-1.2,78
12.6,-1.05,94
12.6,-0.9,65
12.6,-0.75,43
12.6,-0.6,8
12.6,-0.45,18
12.6,-0.3,107
12.6,-0.15,115
12.6,0.0,68
12.6,0.15,49
12.6,0.3,43
12.6,0.45,55
12.6,0.6,51
12.6,0.75,51
12.6,0.9,49
12.6,1.05,49
12.6,1.2,45
12.6,1.35,36
12.6,1.5,30
12.75,-1.5,32
12.75,-1.35,44
12.75,-1.2,65
12.75,-1.05,65
12.75,-0.9,62
12.75,-0.75,50
12.75,-0.6,33
12.75,-0.45,64
12.75,-0.3,162
12.75,-0.15,164
12.75,0.0,80
12.75,0.15,20
12.75,0.3,18
12.75,0.45,37
12.75,0.6,48
12.75,0.75,50
12.75,0.9,47
12.75,1.05,40
12.75,1.2,28
12.75,1.35,16
12.75,1.5,8
12.9,-1.5,3
12.9,-1.35,20
12.9,-1.2,51
12.9,-1.05,61
12.9,-0.9,67
12.9,-0.75,67
12.9,-0.6,71
12.9,-0.45,117
12.9,-0.3,255
12.9,-0.15,51
12.9,0.0,64
12.9,0.15,17
12.9,0.3,16
12.9,0.45,37
12.9,0.6,35
12.9,0.75,50
12.9,0.9,46
12.9,1.05,36
12.9,1.2,20
12.9,1.35,5
12.9,1.5,0
13.05,-1.5,0
13.05,-1.35,14
13.05,-1.2,40
13.05,-1.05,60
13.05,-0.9,70
13.05,-0.75,76
13.05,-0.6,78
13.05,-0.45,78
13.05,-0.3,32
13.05,-0.15,45
13.05,0.0,60
13.05,0.15,48
13.05,0.3,41
13.05,0.45,41
13.05,0.6,37
13.05,0.75,35
13.05,0.9,35
13.05,1.05,35
13.05,1.2,19
13.05,1.35,3
13.05,1.5,0
