-3.0,-1.5,0
-3.0,-1.35,6
-3.0,-1.2,27
-3.0,-1.05,54
-3.0,-0.9,71
-3.0,-0.75,82
-3.0,-0.6,87
-3.0,-0.45,90
-3.0,-0.3,96
-3.0,-0.15,101
-3.0,0.0,107
-3.0,0.15,117
-3.0,0.3,133
-3.0,0.45,181
-3.0,0.6,189
-3.0,0.75,139
-3.0,0.9,102
-3.0,1.05,68
-3.0,1.2,41
-3.0,1.35,15
-3.0,1.5,0
-2.85,-1.5,4
-2.85,-1.35,14
-2.85,-1.2,35
-2.85,-1.05,55
-2.85,-0.9,70
-2.85,-0.75,82
-2.85,-0.6,85
-2.85,-0.45,85
-2.85,-0.3,88
-2.85,-0.15,95
-2.85,0.0,99
-2.85,0.15,105
-2.85,0.3,105
-2.85,0.45,126
-2.85,0.6,142
-2.85,0.75,135
-2.85,0.9,103
-2.85,1.05,49
-2.85,1.2,27
-2.85,1.35,21
-2.85,1.5,12
-2.7,-1.5,18
-2.7,-1.35,30
-2.7,-1.2,49
-2.7,-1.05,64
-2.7,-0.9,75
-2.7,-0.75,80
-2.7,-0.6,82
-2.7,-0.45,75
-2.7,-0.3,75
-2.7,-0.15,84
-2.7,0.0,92
-2.7,0.15,94
-2.7,0.3,73
-2.7,0.45,22
-2.7,0.6,82
-2.7,0.75,183
-2.7,0.9,122
-2.7,1.05,23
-2.7,1.2,3
-2.7,1.35,17
-2.7,1.5,24
-2.55,-1.5,34
-2.55,-1.35,40
-2.55,-1.2,58
-2.55,-1.05,69
-2.55,-0.9,82
-2.55,-0.75,84
-2.55,-0.6,78
-2.55,-0.45,61
-2.55,-0.3,56
-2.55,-0.15,74
-2.55,0.0,83
-2.55,0.15,91
-2.55,0.3,87
-2.55,0.45,50
-2.55,0.6,96
-2.55,0.75,170
-2.55,0.9,122
-2.55,1.05,45
-2.55,1.2,8
-2.55,1.35,4
-2.55,1.5,25
-2.4,-1.5,55
-2.4,-1.35,61
-2.4,-1.2,69
-2.4,-1.05,78
-2.4,-0.9,84
-2.4,-0.75,89
-2.4,-0.6,84
-2.4,-0.45,68
-2.4,-0.3,58
-2.4,-0.15,73
-2.4,0.0,64
-2.4,0.15,81
-2.4,0.3,122
-2.4,0.45,152
-2.4,0.6,147
-2.4,0.75,138
-2.4,0.9,111
-2.4,1.05,66
-2.4,1.2,28
-2.4,1.35,20
-2.4,1.5,33
-2.25,-1.5,60
-2.25,-1.35,64
-2.25,-1.2,65
-2.25,-1.05,83
-2.25,-0.9,93
-2.25,-0.75,104
-2.25,-0.6,113
-2.25,-0.45,109
-2.25,-0.3,94
-2.25,-0.15,80
-2.25,0.0,56
-2.25,0.15,79
-2.25,0.3,156
-2.25,0.45,255
-2.25,0.6,209
-2.25,0.75,148
-2.25,0.9,119
-2.25,1.05,87
-2.25,1.2,60
-2.25,1.35,47
-2.25,1.5,45
-2.1,-1.5,64
-2.1,-1.35,67
-2.1,-1.2,71
-2.1,-1.05,79
-2.1,-0.9,87
-2.1,-0.75,110
-2.1,-0.6,152
-2.1,-0.45,190
-2.1,-0.3,151
-2.1,-0.15,80
-2.1,0.0,70
-2.1,0.15,73
-2.1,0.3,124
-2.1,0.45,213
-2.1,0.6,169
-2.1,0.75,151
-2.1,0.9,130
-2.1,1.05,110
-2.1,1.2,70
-2.1,1.35,58
-2.1,1.5,49
-1.95,-1.5,64
-1.95,-1.35,65
-1.95,-1.2,67
-1.95,-1.05,71
-1.95,-0.9,82
-1.95,-0.75,112
-1.95,-0.6,172
-1.95,-0.45,255
-1.95,-0.3,219
-1.95,-0.15,63
-1.95,0.0,60
-1.95,0.15,53
-1.95,0.3,91
-1.95,0.45,110
-1.95,0.6,58
-1.95,0.75,172
-1.95,0.9,178
-1.95,1.05,123
-1.95,1.2,71
-1.95,1.35,44
-1.95,1.5,37
-1.8,-1.5,63
-1.8,-1.35,61
-1.8,-1.2,58
-1.8,-1.05,53
-1.8,-0.9,54
-1.8,-0.75,79
-1.8,-0.6,132
-1.8,-0.45,184
-1.8,-0.3,148
-1.8,-0.15,79
-1.8,0.0,60
-1.8,0.15,83
-1.8,0.3,94
-1.8,0.45,105
-1.8,0.6,126
-1.8,0.75,255
-1.8,0.9,221
-1.8,1.05,119
-1.8,1.2,40
-1.8,1.35,13
-1.8,1.5,12
-1.65,-1.5,59
-1.65,-1.35,55
-1.65,-1.2,47
-1.65,-1.05,32
-1.65,-0.9,12
-1.65,-0.75,31
-1.65,-0.6,83
-1.65,-0.45,108
-1.65,-0.3,105
-1.65,-0.15,85
-1.65,0.0,80
-1.65,0.15,96
-1.65,0.3,63
-1.65,0.45,112
-1.65,0.6,148
-1.65,0.75,197
-1.65,0.9,183
-1.65,1.05,104
-1.65,1.2,24
-1.65,1.35,2
-1.65,1.5,0
-1.5,-1.5,65
-1.5,-1.35,59
-1.5,-1.2,45
-1.5,-1.05,27
-1.5,-0.9,4
-1.5,-0.75,20
-1.5,-0.6,61
-1.5,-0.45,86
-1.5,-0.3,80
-1.5,-0.15,66
-1.5,0.0,84
-1.5,0.15,107
-1.5,0.3,144
-1.5,0.45,61
-1.5,0.6,150
-1.5,0.75,158
-1.5,0.9,149
-1.5,1.05,117
-1.5,1.2,64
-1.5,1.35,31
-1.5,1.5,23
-1.35,-1.5,66
-1.35,-1.35,68
-1.35,-1.2,55
-1.35,-1.05,44
-1.35,-0.9,36
-1.35,-0.75,44
-1.35,-0.6,60
-1.35,-0.45,72
-1.35,-0.3,72
-1.35,-0.15,52
-1.35,0.0,82
-1.35,0.15,120
-1.35,0.3,154
-1.35,0.45,162
-1.35,0.6,155
-1.35,0.75,152
-1.35,0.9,143
-1.35,1.05,121
-1.35,1.2,92
-1.35,1.35,70
-1.35,1.5,62
-1.2,-1.5,78
-1.2,-1.35,73
-1.2,-1.2,68
-1.2,-1.05,58
-1.2,-0.9,56
-1.2,-0.75,59
-1.2,-0.6,61
-1.2,-0.45,59
-1.2,-0.3,72
-1.2,-0.15,96
-1.2,0.0,113
-1.2,0.15,134
-1.2,0.3,158
-1.2,0.45,167
-1.2,0.6,158
-1.2,0.75,152
-1.2,0.9,146
-1.2,1.05,134
-1.2,1.2,117
-1.2,1.35,108
-1.2,1.5,98
-1.05,-1.5,81
-1.05,-1.35,78
-1.05,-1.2,75
-1.05,-1.05,71
-1.05,-0.9,68
-1.05,-0.75,64
-1.05,-0.6,59
-1.05,-0.45,59
-1.05,-0.3,82
-1.05,-0.15,157
-1.05,0.0,143
-1.05,0.15,148
-1.05,0.3,173
-1.05,0.45,182
-1.05,0.6,139
-1.05,0.75,145
-1.05,0.9,151
-1.05,1.05,154
-1.05,1.2,150
-1.05,1.35,139
-1.05,1.5,130
-0.9,-1.5,82
-0.9,-1.35,83
-0.9,-1.2,80
-0.9,-1.05,77
-0.9,-0.9,74
-0.9,-0.75,62
-0.9,-0.6,59
-0.9,-0.45,61
-0.9,-0.3,111
-0.9,-0.15,187
-0.9,0.0,137
-0.9,0.15,140
-0.9,0.3,202
-0.9,0.45,255
-0.9,0.6,73
-0.9,0.75,145
-0.9,0.9,171
-0.9,1.05,172
-0.9,1.2,149
-0.9,1.35,150
-0.9,1.5,142
-0.75,-1.5,85
-0.75,-1.35,72
-0.75,-1.2,72
-0.75,-1.05,72
-0.75,-0.9,71
-0.75,-0.75,70
-0.75,-0.6,65
-0.75,-0.45,64
-0.75,-0.3,74
-0.75,-0.15,97
-0.75,0.0,86
-0.75,0.15,90
-0.75,0.3,152
-0.75,0.45,193
-0.75,0.6,157
-0.75,0.75,179
-0.75,0.9,200
-0.75,1.05,183
-0.75,1.2,158
-0.75,1.35,160
-0.75,1.5,154
-0.6,-1.5,91
-0.6,-1.35,91
-0.6,-1.2,91
-0.6,-1.05,92
-0.6,-0.9,91
-0.6,-0.75,90
-0.6,-0.6,78
-0.6,-0.45,44
-0.6,-0.3,21
-0.6,-0.15,57
-0.6,0.0,56
-0.6,0.15,54
-0.6,0.3,95
-0.6,0.45,129
-0.6,0.6,152
-0.6,0.75,217
-0.6,0.9,255
-0.6,1.05,176
-0.6,1.2,172
-0.6,1.35,173
-0.6,1.5,172
-0.45,-1.5,95
-0.45,-1.35,96
-0.45,-1.2,98
-0.45,-1.05,101
-0.45,-0.9,105
-0.45,-0.75,107
-0.45,-0.6,103
-0.45,-0.45,67
-0.45,-0.3,37
-0.45,-0.15,54
-0.45,0.0,49
-0.45,0.15,50
-0.45,0.3,32
-0.45,0.45,81
-0.45,0.6,141
-0.45,0.75,153
-0.45,0.9,61
-0.45,1.05,146
-0.45,1.2,169
-0.45,1.35,181
-0.45,1.5,183
-0.3,-1.5,108
-0.3,-1.35,101
-0.3,-1.2,114
-0.3,-1.05,110
-0.3,-0.9,116
-0.3,-0.75,122
-0.3,-0.6,146
-0.3,-0.45,160
-0.3,-0.3,97
-0.3,-0.15,62
-0.3,0.0,53
-0.3,0.15,48
-0.3,0.3,18
-0.3,0.45,79
-0.3,0.6,130
-0.3,0.75,155
-0.3,0.9,158
-0.3,1.05,173
-0.3,1.2,178
-0.3,1.35,185
-0.3,1.5,186
-0.15,-1.5,112
-0.15,-1.35,114
-0.15,-1.2,116
-0.15,-1.05,122
-0.15,-0.9,121
-0.15,-0.75,134
-0.15,-0.6,163
-0.15,-0.45,183
-0.15,-0.3,141
-0.15,-0.15,66
-0.15,0.0,68
-0.15,0.15,50
-0.15,0.3,87
-0.15,0.45,133
-0.15,0.6,91
-0.15,0.75,195
-0.15,0.9,184
-0.15,1.05,198
-0.15,1.2,197
-0.15,1.35,190
-0.15,1.5,189
0.0,-1.5,110
0.0,-1.35,112
0.0,-1.2,115
0.0,-1.05,118
0.0,-0.9,131
0.0,-0.75,135
0.0,-0.6,138
0.0,-0.45,156
0.0,-0.3,149
0.0,-0.15,120
0.0,0.0,85
0.0,0.15,79
0.0,0.3,171
0.0,0.45,185
0.0,0.6,198
0.0,0.75,199
0.0,0.9,198
0.0,1.05,195
0.0,1.2,194
0.0,1.35,186
0.0,1.5,183
0.15,-1.5,110
0.15,-1.35,112
0.15,-1.2,122
0.15,-1.05,123
0.15,-0.9,124
0.15,-0.75,122
0.15,-0.6,111
0.15,-0.45,55
0.15,-0.3,140
0.15,-0.15,206
0.15,0.0,87
0.15,0.15,145
0.15,0.3,134
0.15,0.45,188
0.15,0.6,235
0.15,0.75,234
0.15,0.9,201
0.15,1.05,189
0.15,1.2,185
0.15,1.35,171
0.15,1.5,171
0.3,-1.5,109
0.3,-1.35,110
0.3,-1.2,111
0.3,-1.05,123
0.3,-0.9,122
0.3,-0.75,118
0.3,-0.6,105
0.3,-0.45,71
0.3,-0.3,95
0.3,-0.15,112
0.3,0.0,51
0.3,0.15,9
0.3,0.3,88
0.3,0.45,162
0.3,0.6,190
0.3,0.75,198
0.3,0.9,200
0.3,1.05,188
0.3,1.2,172
0.3,1.35,166
0.3,1.5,162
0.45,-1.5,110
0.45,-1.35,107
0.45,-1.2,107
0.45,-1.05,107
0.45,-0.9,114
0.45,-0.75,113
0.45,-0.6,103
0.45,-0.45,99
0.45,-0.3,129
0.45,-0.15,108
0.45,0.0,187
0.45,0.15,57
0.45,0.3,13
0.45,0.45,96
0.45,0.6,130
0.45,0.75,253
0.45,0.9,183
0.45,1.05,175
0.45,1.2,169
0.45,1.35,157
0.45,1.5,155
0.6,-1.5,110
0.6,-1.35,110
0.6,-1.2,110
0.6,-1.05,110
0.6,-0.9,101
0.6,-0.75,95
0.6,-0.6,112
0.6,-0.45,116
0.6,-0.3,81
0.6,-0.15,50
0.6,0.0,0
0.6,0.15,72
0.6,0.3,143
0.6,0.45,96
0.6,0.6,84
0.6,0.75,73
0.6,0.9,123
0.6,1.05,122
0.6,1.2,112
0.6,1.35,104
0.6,1.5,102
0.75,-1.5,110
0.75,-1.35,108
0.75,-1.2,98
0.75,-1.05,86
0.75,-0.9,87
0.75,-0.75,81
0.75,-0.6,106
0.75,-0.45,192
0.75,-0.3,95
0.75,-0.15,27
0.75,0.0,30
0.75,0.15,76
0.75,0.3,109
0.75,0.45,96
0.75,0.6,85
0.75,0.75,79
0.75,0.9,63
0.75,1.05,72
0.75,1.2,79
0.75,1.35,81
0.75,1.5,82
0.9,-1.5,86
0.9,-1.35,85
0.9,-1.2,72
0.9,-1.05,74
0.9,-0.9,74
0.9,-0.75,73
0.9,-0.6,61
0.9,-0.45,30
0.9,-0.3,73
0.9,-0.15,62
0.9,0.0,68
0.9,0.15,90
0.9,0.3,9
0.9,0.45,94
0.9,0.6,79
0.9,0.75,99
0.9,0.9,13
0.9,1.05,55
0.9,1.2,64
0.9,1.35,69
0.9,1.5,73
1.05,-1.5,86
1.05,-1.35,86
1.05,-1.2,86
1.05,-1.05,72
1.05,-0.9,68
1.05,-0.75,64
1.05,-0.6,51
1.05,-0.45,39
1.05,-0.3,83
1.05,-0.15,83
1.05,0.0,29
1.05,0.15,196
1.05,0.3,45
1.05,0.45,169
1.05,0.6,101
1.05,0.75,197
1.05,0.9,60
1.05,1.05,47
1.05,1.2,53
1.05,1.35,56
1.05,1.5,62
1.2,-1.5,81
1.2,-1.35,80
1.2,-1.2,80
1.2,-1.05,78
1.2,-0.9,80
1.2,-0.75,73
1.2,-0.6,57
1.2,-0.45,59
1.2,-0.3,55
1.2,-0.15,83
1.2,0.0,71
1.2,0.15,138
1.2,0.3,87
1.2,0.45,84
1.2,0.6,58
1.2,0.75,38
1.2,0.9,7
1.2,1.05,16
1.2,1.2,31
1.2,1.35,32
1.2,1.5,35
1.35,-1.5,77
1.35,-1.35,77
1.35,-1.2,80
1.35,-1.05,80
1.35,-0.9,78
1.35,-0.75,75
1.35,-0.6,62
1.35,-0.45,47
1.35,-0.3,43
1.35,-0.15,21
1.35,0.0,38
1.35,0.15,50
1.35,0.3,58
1.35,0.45,24
1.35,0.6,64
1.35,0.75,51
1.35,0.9,22
1.35,1.05,7
1.35,1.2,26
1.35,1.35,35
1.35,1.5,35
1.5,-1.5,76
1.5,-1.35,77
1.5,-1.2,77
1.5,-1.05,78
1.5,-0.9,67
1.5,-0.75,72
1.5,-0.6,70
1.5,-0.45,59
1.5,-0.3,30
1.5,-0.15,15
1.5,0.0,13
1.5,0.15,83
1.5,0.3,76
1.5,0.45,60
1.5,0.6,70
1.5,0.75,51
1.5,0.9,37
1.5,1.05,30
1.5,1.2,30
1.5,1.35,34
1.5,1.5,35
1.65,-1.5,61
1.65,-1.35,66
1.65,-1.2,68
1.65,-1.05,70
1.65,-0.9,63
1.65,-0.75,69
1.65,-0.6,78
1.65,-0.45,74
1.65,-0.3,47
1.65,-0.15,37
1.65,0.0,32
1.65,0.15,66
1.65,0.3,177
1.65,0.45,176
1.65,0.6,106
1.65,0.75,52
1.65,0.9,20
1.65,1.05,20
1.65,1.2,17
1.65,1.35,16
1.65,1.5,31
1.8,-1.5,48
1.8,-1.35,49
1.8,-1.2,52
1.8,-1.05,59
1.8,-0.9,68
1.8,-0.75,81
1.8,-0.6,112
1.8,-0.45,183
1.8,-0.3,80
1.8,-0.15,35
1.8,0.0,35
1.8,0.15,97
1.8,0.3,117
1.8,0.45,79
1.8,0.6,130
1.8,0.75,55
1.8,0.9,24
1.8,1.05,19
1.8,1.2,13
1.8,1.35,13
1.8,1.5,12
1.95,-1.5,48
1.95,-1.35,50
1.95,-1.2,55
1.95,-1.05,57
1.95,-0.9,62
1.95,-0.75,71
1.95,-0.6,90
1.95,-0.45,55
1.95,-0.3,72
1.95,-0.15,32
1.95,0.0,37
1.95,0.15,43
1.95,0.3,35
1.95,0.45,35
1.95,0.6,17
1.95,0.75,22
1.95,0.9,18
1.95,1.05,13
1.95,1.2,2
1.95,1.35,8
1.95,1.5,10
2.1,-1.5,42
2.1,-1.35,43
2.1,-1.2,44
2.1,-1.05,45
2.1,-0.9,48
2.1,-0.75,48
2.1,-0.6,43
2.1,-0.45,30
2.1,-0.3,14
2.1,-0.15,33
2.1,0.0,18
2.1,0.15,35
2.1,0.3,45
2.1,0.45,64
2.1,0.6,17
2.1,0.75,2
2.1,0.9,9
2.1,1.05,16
2.1,1.2,3
2.1,1.35,12
2.1,1.5,18
2.25,-1.5,29
2.25,-1.35,29
2.25,-1.2,35
2.25,-1.05,38
2.25,-0.9,36
2.25,-0.75,31
2.25,-0.6,18
2.25,-0.45,6
2.25,-0.3,33
2.25,-0.15,52
2.25,0.0,18
2.25,0.15,37
2.25,0.3,27
2.25,0.45,45
2.25,0.6,37
2.25,0.75,24
2.25,0.9,34
2.25,1.05,40
2.25,1.2,31
2.25,1.35,35
2.25,1.5,43
2.4,-1.5,26
2.4,-1.35,25
2.4,-1.2,24
2.4,-1.05,22
2.4,-0.9,20
2.4,-0.75,18
2.4,-0.6,6
2.4,-0.45,7
2.4,-0.3,15
2.4,-0.15,24
2.4,0.0,2
2.4,0.15,1
2.4,0.3,6
2.4,0.45,23
2.4,0.6,63
2.4,0.75,42
2.4,0.9,63
2.4,1.05,66
2.4,1.2,57
2.4,1.35,46
2.4,1.5,47
2.55,-1.5,23
2.55,-1.35,21
2.55,-1.2,4
2.55,-1.05,0
2.55,-0.9,3
2.55,-0.75,3
2.55,-0.6,3
2.55,-0.45,3
2.55,-0.3,10
2.55,-0.15,22
2.55,0.0,18
2.55,0.15,53
2.55,0.3,32
2.55,0.45,83
2.55,0.6,170
2.55,0.75,31
2.55,0.9,76
2.55,1.05,84
2.55,1.2,78
2.55,1.35,89
2.55,1.5,87
2.7,-1.5,1
2.7,-1.35,1
2.7,-1.2,1
2.7,-1.05,0
2.7,-0.9,4
2.7,-0.75,4
2.7,-0.6,3
2.7,-0.45,3
2.7,-0.3,9
2.7,-0.15,41
2.7,0.0,8
2.7,0.15,170
2.7,0.3,176
2.7,0.45,108
2.7,0.6,180
2.7,0.75,62
2.7,0.9,102
2.7,1.05,114
2.7,1.2,112
2.7,1.35,107
2.7,1.5,91
2.85,-1.5,1
2.85,-1.35,1
2.85,-1.2,1
2.85,-1.05,0
2.85,-0.9,3
2.85,-0.75,3
2.85,-0.6,4
2.85,-0.45,3
2.85,-0.3,3
2.85,-0.15,46
2.85,0.0,48
2.85,0.15,147
2.85,0.3,227
2.85,0.45,200
2.85,0.6,171
2.85,0.75,72
2.85,0.9,117
2.85,1.05,151
2.85,1.2,116
2.85,1.35,104
2.85,1.5,80
3.0,-1.5,1
3.0,-1.35,15
3.0,-1.2,14
3.0,-1.05,14
3.0,-0.9,13
3.0,-0.75,12
3.0,-0.6,12
3.0,-0.45,8
3.0,-0.3,11
3.0,-0.15,42
3.0,0.0,62
3.0,0.15,74
3.0,0.3,124
3.0,0.45,133
3.0,0.6,97
3.0,0.75,68
3.0,0.9,83
3.0,1.05,147
3.0,1.2,111
3.0,1.35,90
3.0,1.5,85
3.15,-1.5,5
3.15,-1.35,5
3.15,-1.2,19
3.15,-1.05,19
3.15,-0.9,22
3.15,-0.75,19
3.15,-0.6,23
3.15,-0.45,41
3.15,-0.3,68
3.15,-0.15,83
3.15,0.0,171
3.15,0.15,102
3.15,0.3,143
3.15,0.45,61
3.15,0.6,60
3.15,0.75,205
3.15,0.9,53
3.15,1.05,88
3.15,1.2,101
3.15,1.35,102
3.15,1.5,99
3.3,-1.5,5
3.3,-1.35,5
3.3,-1.2,5
3.3,-1.05,19
3.3,-0.9,22
3.3,-0.75,33
3.3,-0.6,33
3.3,-0.45,40
3.3,-0.3,108
3.3,-0.15,42
3.3,0.0,126
3.3,0.15,147
3.3,0.3,131
3.3,0.45,202
3.3,0.6,106
3.3,0.75,52
3.3,0.9,88
3.3,1.05,101
3.3,1.2,100
3.3,1.35,99
3.3,1.5,99
3.45,-1.5,5
3.45,-1.35,5
3.45,-1.2,5
3.45,-1.05,7
3.45,-0.9,10
3.45,-0.75,10
3.45,-0.6,24
3.45,-0.45,17
3.45,-0.3,82
3.45,-0.15,144
3.45,0.0,109
3.45,0.15,147
3.45,0.3,122
3.45,0.45,128
3.45,0.6,161
3.45,0.75,151
3.45,0.9,119
3.45,1.05,121
3.45,1.2,118
3.45,1.35,111
3.45,1.5,111
3.6,-1.5,8
3.6,-1.35,5
3.6,-1.2,5
3.6,-1.05,5
3.6,-0.9,5
3.6,-0.75,5
3.6,-0.6,8
3.6,-0.45,41
3.6,-0.3,26
3.6,-0.15,59
3.6,0.0,26
3.6,0.15,77
3.6,0.3,57
3.6,0.45,107
3.6,0.6,154
3.6,0.75,235
3.6,0.9,198
3.6,1.05,129
3.6,1.2,121
3.6,1.35,118
3.6,1.5,117
3.75,-1.5,8
3.75,-1.35,8
3.75,-1.2,7
3.75,-1.05,7
3.75,-0.9,5
3.75,-0.75,5
3.75,-0.6,8
3.75,-0.45,30
3.75,-0.3,24
3.75,-0.15,78
3.75,0.0,50
3.75,0.15,122
3.75,0.3,125
3.75,0.45,119
3.75,0.6,187
3.75,0.75,200
3.75,0.9,120
3.75,1.05,107
3.75,1.2,133
3.75,1.35,136
3.75,1.5,125
3.9,-1.5,18
3.9,-1.35,17
3.9,-1.2,16
3.9,-1.05,15
3.9,-0.9,5
3.9,-0.75,7
3.9,-0.6,5
3.9,-0.45,9
3.9,-0.3,29
3.9,-0.15,154
3.9,0.0,50
3.9,0.15,217
3.9,0.3,204
3.9,0.45,216
3.9,0.6,217
3.9,0.75,167
3.9,0.9,22
3.9,1.05,105
3.9,1.2,167
3.9,1.35,173
3.9,1.5,180
4.05,-1.5,19
4.05,-1.35,18
4.05,-1.2,30
4.05,-1.05,28
4.05,-0.9,25
4.05,-0.75,20
4.05,-0.6,12
4.05,-0.45,14
4.05,-0.3,30
4.05,-0.15,113
4.05,0.0,60
4.05,0.15,178
4.05,0.3,181
4.05,0.45,230
4.05,0.6,226
4.05,0.75,211
4.05,0.9,189
4.05,1.05,183
4.05,1.2,191
4.05,1.35,199
4.05,1.5,196
4.2,-1.5,22
4.2,-1.35,22
4.2,-1.2,32
4.2,-1.05,32
4.2,-0.9,33
4.2,-0.75,52
4.2,-0.6,61
4.2,-0.45,79
4.2,-0.3,131
4.2,-0.15,71
4.2,0.0,83
4.2,0.15,211
4.2,0.3,160
4.2,0.45,205
4.2,0.6,230
4.2,0.75,239
4.2,0.9,222
4.2,1.05,209
4.2,1.2,184
4.2,1.35,175
4.2,1.5,170
4.35,-1.5,33
4.35,-1.35,33
4.35,-1.2,36
4.35,-1.05,36
4.35,-0.9,39
4.35,-0.75,65
4.35,-0.6,81
4.35,-0.45,110
4.35,-0.3,102
4.35,-0.15,69
4.35,0.0,255
4.35,0.15,249
4.35,0.3,183
4.35,0.45,99
4.35,0.6,236
4.35,0.75,255
4.35,0.9,255
4.35,1.05,216
4.35,1.2,180
4.35,1.35,151
4.35,1.5,131
4.5,-1.5,22
4.5,-1.35,42
4.5,-1.2,40
4.5,-1.05,47
4.5,-0.9,47
4.5,-0.75,59
4.5,-0.6,72
4.5,-0.45,75
4.5,-0.3,69
4.5,-0.15,174
4.5,0.0,70
4.5,0.15,88
4.5,0.3,93
4.5,0.45,67
4.5,0.6,171
4.5,0.75,247
4.5,0.9,255
4.5,1.05,190
4.5,1.2,134
4.5,1.35,123
4.5,1.5,124
4.65,-1.5,33
4.65,-1.35,35
4.65,-1.2,42
4.65,-1.05,41
4.65,-0.9,23
4.65,-0.75,4
4.65,-0.6,26
4.65,-0.45,51
4.65,-0.3,89
4.65,-0.15,100
4.65,0.0,139
4.65,0.15,43
4.65,0.3,26
4.65,0.45,26
4.65,0.6,170
4.65,0.75,133
4.65,0.9,128
4.65,1.05,75
4.65,1.2,40
4.65,1.35,70
4.65,1.5,77
4.8,-1.5,42
4.8,-1.35,42
4.8,-1.2,42
4.8,-1.05,39
4.8,-0.9,30
4.8,-0.75,21
4.8,-0.6,38
4.8,-0.45,71
4.8,-0.3,81
4.8,-0.15,30
4.8,0.0,112
4.8,0.15,21
4.8,0.3,255
4.8,0.45,145
4.8,0.6,122
4.8,0.75,12
4.8,0.9,40
4.8,1.05,40
4.8,1.2,12
4.8,1.35,42
4.8,1.5,48
4.95,-1.5,37
4.95,-1.35,35
4.95,-1.2,34
4.95,-1.05,32
4.95,-0.9,39
4.95,-0.75,39
4.95,-0.6,62
4.95,-0.45,147
4.95,-0.3,74
4.95,-0.15,24
4.95,0.0,90
4.95,0.15,44
4.95,0.3,80
4.95,0.45,129
4.95,0.6,57
4.95,0.75,0
4.95,0.9,35
4.95,1.05,28
4.95,1.2,26
4.95,1.35,34
4.95,1.5,43
5.1,-1.5,39
5.1,-1.35,39
5.1,-1.2,39
5.1,-1.05,39
5.1,-0.9,34
5.1,-0.75,25
5.1,-0.6,32
5.1,-0.45,29
5.1,-0.3,74
5.1,-0.15,54
5.1,0.0,35
5.1,0.15,193
5.1,0.3,93
5.1,0.45,232
5.1,0.6,111
5.1,0.75,86
5.1,0.9,60
5.1,1.05,33
5.1,1.2,0
5.1,1.35,32
5.1,1.5,48
5.25,-1.5,37
5.25,-1.35,37
5.25,-1.2,39
5.25,-1.05,39
5.25,-0.9,35
5.25,-0.75,25
5.25,-0.6,29
5.25,-0.45,47
5.25,-0.3,122
5.25,-0.15,157
5.25,0.0,58
5.25,0.15,66
5.25,0.3,29
5.25,0.45,38
5.25,0.6,127
5.25,0.75,96
5.25,0.9,36
5.25,1.05,63
5.25,1.2,43
5.25,1.35,48
5.25,1.5,53
5.4,-1.5,33
5.4,-1.35,36
5.4,-1.2,35
5.4,-1.05,33
5.4,-0.9,31
5.4,-0.75,19
5.4,-0.6,15
5.4,-0.45,14
5.4,-0.3,49
5.4,-0.15,60
5.4,0.0,59
5.4,0.15,57
5.4,0.3,20
5.4,0.45,24
5.4,0.6,103
5.4,0.75,66
5.4,0.9,99
5.4,1.05,73
5.4,1.2,73
5.4,1.35,73
5.4,1.5,58
5.55,-1.5,5
5.55,-1.35,5
5.55,-1.2,14
5.55,-1.05,14
5.55,-0.9,14
5.55,-0.75,16
5.55,-0.6,14
5.55,-0.45,14
5.55,-0.3,10
5.55,-0.15,28
5.55,0.0,15
5.55,0.15,63
5.55,0.3,69
5.55,0.45,90
5.55,0.6,138
5.55,0.75,105
5.55,0.9,54
5.55,1.05,65
5.55,1.2,67
5.55,1.35,66
5.55,1.5,64
5.7,-1.5,5
5.7,-1.35,5
5.7,-1.2,5
5.7,-1.05,5
5.7,-0.9,5
5.7,-0.75,5
5.7,-0.6,6
5.7,-0.45,10
5.7,-0.3,20
5.7,-0.15,34
5.7,0.0,37
5.7,0.15,18
5.7,0.3,69
5.7,0.45,25
5.7,0.6,158
5.7,0.75,87
5.7,0.9,30
5.7,1.05,78
5.7,1.2,84
5.7,1.35,72
5.7,1.5,81
5.85,-1.5,8
5.85,-1.35,8
5.85,-1.2,4
5.85,-1.05,4
5.85,-0.9,4
5.85,-0.75,3
5.85,-0.6,1
5.85,-0.45,14
5.85,-0.3,13
5.85,-0.15,56
5.85,0.0,236
5.85,0.15,54
5.85,0.3,36
5.85,0.45,191
5.85,0.6,255
5.85,0.75,119
5.85,0.9,103
5.85,1.05,138
5.85,1.2,115
5.85,1.35,111
5.85,1.5,94
6.0,-1.5,9
6.0,-1.35,9
6.0,-1.2,8
6.0,-1.05,7
6.0,-0.9,6
6.0,-0.75,4
6.0,-0.6,2
6.0,-0.45,1
6.0,-0.3,12
6.0,-0.15,30
6.0,0.0,40
6.0,0.15,16
6.0,0.3,8
6.0,0.45,24
6.0,0.6,90
6.0,0.75,85
6.0,0.9,47
6.0,1.05,97
6.0,1.2,115
6.0,1.35,115
6.0,1.5,115
6.15,-1.5,17
6.15,-1.35,17
6.15,-1.2,16
6.15,-1.05,21
6.15,-0.9,18
6.15,-0.75,12
6.15,-0.6,0
6.15,-0.45,11
6.15,-0.3,8
6.15,-0.15,23
6.15,0.0,138
6.15,0.15,8
6.15,0.3,14
6.15,0.45,33
6.15,0.6,49
6.15,0.75,65
6.15,0.9,132
6.15,1.05,114
6.15,1.2,112
6.15,1.35,109
6.15,1.5,107
6.3,-1.5,19
6.3,-1.35,19
6.3,-1.2,18
6.3,-1.05,18
6.3,-0.9,29
6.3,-0.75,20
6.3,-0.6,22
6.3,-0.45,35
6.3,-0.3,82
6.3,-0.15,16
6.3,0.0,29
6.3,0.15,6
6.3,0.3,1
6.3,0.45,158
6.3,0.6,54
6.3,0.75,93
6.3,0.9,169
6.3,1.05,130
6.3,1.2,106
6.3,1.35,99
6.3,1.5,98
6.45,-1.5,23
6.45,-1.35,23
6.45,-1.2,27
6.45,-1.05,28
6.45,-0.9,32
6.45,-0.75,33
6.45,-0.6,31
6.45,-0.45,3
6.45,-0.3,31
6.45,-0.15,12
6.45,0.0,6
6.45,0.15,118
6.45,0.3,59
6.45,0.45,53
6.45,0.6,83
6.45,0.75,109
6.45,0.9,147
6.45,1.05,129
6.45,1.2,113
6.45,1.35,103
6.45,1.5,98
6.6,-1.5,31
6.6,-1.35,31
6.6,-1.2,32
6.6,-1.05,33
6.6,-0.9,35
6.6,-0.75,39
6.6,-0.6,43
6.6,-0.45,40
6.6,-0.3,51
6.6,-0.15,39
6.6,0.0,38
6.6,0.15,59
6.6,0.3,60
6.6,0.45,55
6.6,0.6,109
6.6,0.75,95
6.6,0.9,188
6.6,1.05,127
6.6,1.2,110
6.6,1.35,100
6.6,1.5,98
6.75,-1.5,27
6.75,-1.35,27
6.75,-1.2,28
6.75,-1.05,32
6.75,-0.9,33
6.75,-0.75,39
6.75,-0.6,43
6.75,-0.45,9
6.75,-0.3,32
6.75,-0.15,59
6.75,0.0,0
6.75,0.15,33
6.75,0.3,8
6.75,0.45,46
6.75,0.6,34
6.75,0.75,32
6.75,0.9,61
6.75,1.05,88
6.75,1.2,89
6.75,1.35,86
6.75,1.5,93
6.9,-1.5,25
6.9,-1.35,26
6.9,-1.2,26
6.9,-1.05,35
6.9,-0.9,37
6.9,-0.75,33
6.9,-0.6,36
6.9,-0.45,74
6.9,-0.3,34
6.9,-0.15,8
6.9,0.0,58
6.9,0.15,35
6.9,0.3,46
6.9,0.45,33
6.9,0.6,32
6.9,0.75,30
6.9,0.9,33
6.9,1.05,62
6.9,1.2,71
6.9,1.35,71
6.9,1.5,72
7.05,-1.5,20
7.05,-1.35,20
7.05,-1.2,20
7.05,-1.05,19
7.05,-0.9,19
7.05,-0.75,27
7.05,-0.6,2
7.05,-0.45,51
7.05,-0.3,61
7.05,-0.15,44
7.05,0.0,33
7.05,0.15,16
7.05,0.3,25
7.05,0.45,26
7.05,0.6,38
7.05,0.75,30
7.05,0.9,30
7.05,1.05,43
7.05,1.2,53
7.05,1.35,67
7.05,1.5,70
7.2,-1.5,12
7.2,-1.35,9
7.2,-1.2,9
7.2,-1.05,23
7.2,-0.9,23
7.2,-0.75,37
7.2,-0.6,37
7.2,-0.45,32
7.2,-0.3,67
7.2,-0.15,53
7.2,0.0,21
7.2,0.15,11
7.2,0.3,23
7.2,0.45,23
7.2,0.6,53
7.2,0.75,30
7.2,0.9,30
7.2,1.05,38
7.2,1.2,52
7.2,1.35,55
7.2,1.5,54
7.35,-1.5,9
7.35,-1.35,9
7.35,-1.2,9
7.35,-1.05,9
7.35,-0.9,9
7.35,-0.75,11
7.35,-0.6,36
7.35,-0.45,44
7.35,-0.3,30
7.35,-0.15,88
7.35,0.0,15
7.35,0.15,32
7.35,0.3,34
7.35,0.45,54
7.35,0.6,30
7.35,0.75,40
7.35,0.9,37
7.35,1.05,39
7.35,1.2,40
7.35,1.35,53
7.35,1.5,55
7.5,-1.5,9
7.5,-1.35,9
7.5,-1.2,9
7.5,-1.05,12
7.5,-0.9,9
7.5,-0.75,25
7.5,-0.6,29
7.5,-0.45,19
7.5,-0.3,66
7.5,-0.15,53
7.5,0.0,64
7.5,0.15,190
7.5,0.3,8
7.5,0.45,50
7.5,0.6,55
7.5,0.75,31
7.5,0.9,40
7.5,1.05,41
7.5,1.2,41
7.5,1.35,40
7.5,1.5,40
7.65,-1.5,19
7.65,-1.35,18
7.65,-1.2,15
7.65,-1.05,9
7.65,-0.9,0
7.65,-0.75,20
7.65,-0.6,22
7.65,-0.45,37
7.65,-0.3,10
7.65,-0.15,14
7.65,0.0,142
7.65,0.15,92
7.65,0.3,175
7.65,0.45,55
7.65,0.6,28
7.65,0.75,31
7.65,0.9,38
7.65,1.05,39
7.65,1.2,40
7.65,1.35,40
7.65,1.5,40
7.8,-1.5,19
7.8,-1.35,17
7.8,-1.2,15
7.8,-1.05,13
7.8,-0.9,14
7.8,-0.75,20
7.8,-0.6,28
7.8,-0.45,40
7.8,-0.3,30
7.8,-0.15,1
7.8,0.0,51
7.8,0.15,13
7.8,0.3,33
7.8,0.45,18
7.8,0.6,35
7.8,0.75,41
7.8,0.9,31
7.8,1.05,31
7.8,1.2,34
7.8,1.35,35
7.8,1.5,35
7.95,-1.5,27
7.95,-1.35,25
7.95,-1.2,22
7.95,-1.05,19
7.95,-0.9,9
7.95,-0.75,20
7.95,-0.6,42
7.95,-0.45,53
7.95,-0.3,179
7.95,-0.15,6
7.95,0.0,46
7.95,0.15,112
7.95,0.3,176
7.95,0.45,135
7.95,0.6,10
7.95,0.75,51
7.95,0.9,54
7.95,1.05,57
7.95,1.2,61
7.95,1.35,64
7.95,1.5,46
8.1,-1.5,14
8.1,-1.35,13
8.1,-1.2,13
8.1,-1.05,13
8.1,-0.9,4
8.1,-0.75,0
8.1,-0.6,22
8.1,-0.45,39
8.1,-0.3,14
8.1,-0.15,10
8.1,0.0,51
8.1,0.15,33
8.1,0.3,9
8.1,0.45,232
8.1,0.6,50
8.1,0.75,40
8.1,0.9,46
8.1,1.05,48
8.1,1.2,52
8.1,1.35,54
8.1,1.5,68
8.25,-1.5,24
8.25,-1.35,23
8.25,-1.2,21
8.25,-1.05,16
8.25,-0.9,12
8.25,-0.75,9
8.25,-0.6,10
8.25,-0.45,27
8.25,-0.3,10
8.25,-0.15,30
8.25,0.0,118
8.25,0.15,29
8.25,0.3,47
8.25,0.45,47
8.25,0.6,42
8.25,0.75,18
8.25,0.9,40
8.25,1.05,53
8.25,1.2,58
8.25,1.35,60
8.25,1.5,60
8.4,-1.5,24
8.4,-1.35,24
8.4,-1.2,29
8.4,-1.05,27
8.4,-0.9,27
8.4,-0.75,25
8.4,-0.6,40
8.4,-0.45,51
8.4,-0.3,24
8.4,-0.15,46
8.4,0.0,51
8.4,0.15,80
8.4,0.3,51
8.4,0.45,28
8.4,0.6,64
8.4,0.75,78
8.4,0.9,54
8.4,1.05,47
8.4,1.2,47
8.4,1.35,47
8.4,1.5,47
8.55,-1.5,26
8.55,-1.35,26
8.55,-1.2,30
8.55,-1.05,30
8.55,-0.9,32
8.55,-0.75,35
8.55,-0.6,28
8.55,-0.45,29
8.55,-0.3,33
8.55,-0.15,56
8.55,0.0,67
8.55,0.15,23
8.55,0.3,0
8.55,0.45,29
8.55,0.6,94
8.55,0.75,125
8.55,0.9,58
8.55,1.05,50
8.55,1.2,62
8.55,1.35,61
8.55,1.5,62
8.7,-1.5,44
8.7,-1.35,44
8.7,-1.2,32
8.7,-1.05,34
8.7,-0.9,38
8.7,-0.75,42
8.7,-0.6,9
8.7,-0.45,27
8.7,-0.3,40
8.7,-0.15,2
8.7,0.0,27
8.7,0.15,133
8.7,0.3,23
8.7,0.45,22
8.7,0.6,36
8.7,0.75,59
8.7,0.9,62
8.7,1.05,67
8.7,1.2,68
8.7,1.35,68
8.7,1.5,68
8.85,-1.5,48
8.85,-1.35,52
8.85,-1.2,62
8.85,-1.05,62
8.85,-0.9,66
8.85,-0.75,73
8.85,-0.6,78
8.85,-0.45,28
8.85,-0.3,20
8.85,-0.15,50
8.85,0.0,12
8.85,0.15,36
8.85,0.3,230
8.85,0.45,68
8.85,0.6,5
8.85,0.75,3
8.85,0.9,47
8.85,1.05,62
8.85,1.2,68
8.85,1.35,68
8.85,1.5,68
9.0,-1.5,59
9.0,-1.35,60
9.0,-1.2,60
9.0,-1.05,61
9.0,-0.9,73
9.0,-0.75,83
9.0,-0.6,96
9.0,-0.45,148
9.0,-0.3,80
9.0,-0.15,21
9.0,0.0,14
9.0,0.15,12
9.0,0.3,38
9.0,0.45,151
9.0,0.6,110
9.0,0.75,67
9.0,0.9,64
9.0,1.05,66
9.0,1.2,68
9.0,1.35,68
9.0,1.5,68
9.15,-1.5,71
9.15,-1.35,70
9.15,-1.2,64
9.15,-1.05,55
9.15,-0.9,55
9.15,-0.75,57
9.15,-0.6,58
9.15,-0.45,6
9.15,-0.3,6
9.15,-0.15,4
9.15,0.0,20
9.15,0.15,111
9.15,0.3,61
9.15,0.45,81
9.15,0.6,255
9.15,0.75,94
9.15,0.9,70
9.15,1.05,70
9.15,1.2,68
9.15,1.35,68
9.15,1.5,67
9.3,-1.5,78
9.3,-1.35,77
9.3,-1.2,76
9.3,-1.05,73
9.3,-0.9,63
9.3,-0.75,55
9.3,-0.6,52
9.3,-0.45,57
9.3,-0.3,75
9.3,-0.15,23
9.3,0.0,2
9.3,0.15,20
9.3,0.3,8
9.3,0.45,38
9.3,0.6,43
9.3,0.75,59
9.3,0.9,61
9.3,1.05,57
9.3,1.2,55
9.3,1.35,53
9.3,1.5,52
9.45,-1.5,87
9.45,-1.35,93
9.45,-1.2,91
9.45,-1.05,81
9.45,-0.9,74
9.45,-0.75,63
9.45,-0.6,47
9.45,-0.45,36
9.45,-0.3,51
9.45,-0.15,200
9.45,0.0,32
9.45,0.15,47
9.45,0.3,32
9.45,0.45,5
9.45,0.6,23
9.45,0.75,43
9.45,0.9,50
9.45,1.05,50
9.45,1.2,46
9.45,1.35,46
9.45,1.5,46
9.6,-1.5,92
9.6,-1.35,90
9.6,-1.2,99
9.6,-1.05,99
9.6,-0.9,92
9.6,-0.75,65
9.6,-0.6,61
9.6,-0.45,36
9.6,-0.3,19
9.6,-0.15,159
9.6,0.0,139
9.6,0.15,116
9.6,0.3,28
9.6,0.45,5
9.6,0.6,8
9.6,0.75,20
9.6,0.9,28
9.6,1.05,32
9.6,1.2,34
9.6,1.35,45
9.6,1.5,44
9.75,-1.5,105
9.75,-1.35,108
9.75,-1.2,111
9.75,-1.05,116
9.75,-0.9,127
9.75,-0.75,173
9.75,-0.6,202
9.75,-0.45,107
9.75,-0.3,136
9.75,-0.15,57
9.75,0.0,117
9.75,0.15,94
9.75,0.3,7
9.75,0.45,10
9.75,0.6,5
9.75,0.75,13
9.75,0.9,19
9.75,1.05,39
9.75,1.2,43
9.75,1.35,45
9.75,1.5,44
9.9,-1.5,131
9.9,-1.35,132
9.9,-1.2,135
9.9,-1.05,126
9.9,-0.9,151
9.9,-0.75,183
9.9,-0.6,192
9.9,-0.45,129
9.9,-0.3,50
9.9,-0.15,62
9.9,0.0,76
9.9,0.15,58
9.9,0.3,41
9.9,0.45,67
9.9,0.6,22
9.9,0.75,18
9.9,0.9,20
9.9,1.05,28
9.9,1.2,33
9.9,1.35,38
9.9,1.5,57
10.05,-1.5,133
10.05,-1.35,132
10.05,-1.2,135
10.05,-1.05,140
10.05,-0.9,147
10.05,-0.75,158
10.05,-0.6,127
10.05,-0.45,55
10.05,-0.3,36
10.05,-0.15,198
10.05,0.0,112
10.05,0.15,47
10.05,0.3,78
10.05,0.45,75
10.05,0.6,6
10.05,0.75,24
10.05,0.9,37
10.05,1.05,41
10.05,1.2,43
10.05,1.35,44
10.05,1.5,42
10.2,-1.5,151
10.2,-1.35,153
10.2,-1.2,155
10.2,-1.05,167
10.2,-0.9,161
10.2,-0.75,130
10.2,-0.6,96
10.2,-0.45,36
10.2,-0.3,27
10.2,-0.15,168
10.2,0.0,99
10.2,0.15,31
10.2,0.3,86
10.2,0.45,58
10.2,0.6,50
10.2,0.75,45
10.2,0.9,48
10.2,1.05,50
10.2,1.2,50
10.2,1.35,50
10.2,1.5,50
10.35,-1.5,135
10.35,-1.35,133
10.35,-1.2,135
10.35,-1.05,140
10.35,-0.9,124
10.35,-0.75,132
10.35,-0.6,155
10.35,-0.45,117
10.35,-0.3,71
10.35,-0.15,75
10.35,0.0,25
10.35,0.15,47
10.35,0.3,12
10.35,0.45,50
10.35,0.6,47
10.35,0.75,61
10.35,0.9,64
10.35,1.05,53
10.35,1.2,52
10.35,1.35,50
10.35,1.5,50
10.5,-1.5,131
10.5,-1.35,130
10.5,-1.2,130
10.5,-1.05,119
10.5,-0.9,126
10.5,-0.75,134
10.5,-0.6,173
10.5,-0.45,137
10.5,-0.3,78
10.5,-0.15,204
10.5,0.0,140
10.5,0.15,3
10.5,0.3,59
10.5,0.45,83
10.5,0.6,112
10.5,0.75,67
10.5,0.9,56
10.5,1.05,52
10.5,1.2,50
10.5,1.35,50
10.5,1.5,52
10.65,-1.5,109
10.65,-1.35,108
10.65,-1.2,107
10.65,-1.05,96
10.65,-0.9,98
10.65,-0.75,114
10.65,-0.6,173
10.65,-0.45,95
10.65,-0.3,60
10.65,-0.15,89
10.65,0.0,150
10.65,0.15,79
10.65,0.3,172
10.65,0.45,56
10.65,0.6,73
10.65,0.75,61
10.65,0.9,56
10.65,1.05,54
10.65,1.2,53
10.65,1.35,52
10.65,1.5,52
10.8,-1.5,93
10.8,-1.35,92
10.8,-1.2,107
10.8,-1.05,91
10.8,-0.9,79
10.8,-0.75,66
10.8,-0.6,103
10.8,-0.45,78
10.8,-0.3,94
10.8,-0.15,8
10.8,0.0,50
10.8,0.15,70
10.8,0.3,66
10.8,0.45,38
10.8,0.6,32
10.8,0.75,53
10.8,0.9,60
10.8,1.05,63
10.8,1.2,65
10.8,1.35,66
10.8,1.5,67
10.95,-1.5,86
10.95,-1.35,86
10.95,-1.2,87
10.95,-1.05,68
10.95,-0.9,75
10.95,-0.75,66
10.95,-0.6,86
10.95,-0.45,80
10.95,-0.3,248
10.95,-0.15,50
10.95,0.0,44
10.95,0.15,36
10.95,0.3,46
10.95,0.45,38
10.95,0.6,45
10.95,0.75,57
10.95,0.9,59
10.95,1.05,62
10.95,1.2,82
10.95,1.35,85
10.95,1.5,86
11.1,-1.5,62
11.1,-1.35,62
11.1,-1.2,61
11.1,-1.05,57
11.1,-0.9,56
11.1,-0.75,65
11.1,-0.6,67
11.1,-0.45,46
11.1,-0.3,46
11.1,-0.15,135
11.1,0.0,73
11.1,0.15,58
11.1,0.3,58
11.1,0.45,99
11.1,0.6,75
11.1,0.75,73
11.1,0.9,85
11.1,1.05,87
11.1,1.2,89
11.1,1.35,90
11.1,1.5,90
11.25,-1.5,57
11.25,-1.35,57
11.25,-1.2,53
11.25,-1.05,53
11.25,-0.9,34
11.25,-0.75,49
11.25,-0.6,64
11.25,-0.45,58
11.25,-0.3,9
11.25,-0.15,109
11.25,0.0,127
11.25,0.15,71
11.25,0.3,57
11.25,0.45,176
11.25,0.6,118
11.25,0.75,99
11.25,0.9,92
11.25,1.05,88
11.25,1.2,87
11.25,1.35,87
11.25,1.5,97
11.4,-1.5,54
11.4,-1.35,54
11.4,-1.2,54
11.4,-1.05,54
11.4,-0.9,50
11.4,-0.75,49
11.4,-0.6,53
11.4,-0.45,36
11.4,-0.3,57
11.4,-0.15,48
11.4,0.0,33
11.4,0.15,57
11.4,0.3,78
11.4,0.45,132
11.4,0.6,154
11.4,0.75,136
11.4,0.9,123
11.4,1.05,116
11.4,1.2,115
11.4,1.35,113
11.4,1.5,111
11.55,-1.5,54
11.55,-1.35,54
11.55,-1.2,54
11.55,-1.05,52
11.55,-0.9,69
11.55,-0.75,67
11.55,-0.6,36
11.55,-0.45,57
11.55,-0.3,67
11.55,-0.15,31
11.55,0.0,31
11.55,0.15,51
11.55,0.3,67
11.55,0.45,188
11.55,0.6,215
11.55,0.75,150
11.55,0.9,133
11.55,1.05,124
11.55,1.2,118
11.55,1.35,111
11.55,1.5,109
11.7,-1.5,52
11.7,-1.35,52
11.7,-1.2,53
11.7,-1.05,54
11.7,-0.9,70
11.7,-0.75,79
11.7,-0.6,100
11.7,-0.45,122
11.7,-0.3,66
11.7,-0.15,60
11.7,0.0,51
11.7,0.15,73
11.7,0.3,118
11.7,0.45,109
11.7,0.6,147
11.7,0.75,130
11.7,0.9,118
11.7,1.05,113
11.7,1.2,110
11.7,1.35,108
11.7,1.5,91
11.85,-1.5,40
11.85,-1.35,40
11.85,-1.2,41
11.85,-1.05,42
11.85,-0.9,43
11.85,-0.75,46
11.85,-0.6,58
11.85,-0.45,47
11.85,-0.3,48
11.85,-0.15,101
11.85,0.0,78
11.85,0.15,87
11.85,0.3,117
11.85,0.45,106
11.85,0.6,93
11.85,0.75,82
11.85,0.9,78
11.85,1.05,75
11.85,1.2,89
11.85,1.35,100
11.85,1.5,85
12.0,-1.5,34
12.0,-1.35,38
12.0,-1.2,46
12.0,-1.05,46
12.0,-0.9,46
12.0,-0.75,46
12.0,-0.6,11
12.0,-0.45,25
12.0,-0.3,28
12.0,-0.15,76
12.0,0.0,101
12.0,0.15,93
12.0,0.3,53
12.0,0.45,21
12.0,0.6,54
12.0,0.75,64
12.0,0.9,74
12.0,1.05,79
12.0,1.2,83
12.0,1.35,81
12.0,1.5,80
12.15,-1.5,17
12.15,-1.35,29
12.15,-1.2,30
12.15,-1.05,31
12.15,-0.9,33
12.15,-0.75,30
12.15,-0.6,25
12.15,-0.45,46
12.15,-0.3,46
12.15,-0.15,51
12.15,0.0,183
12.15,0.15,34
12.15,0.3,38
12.15,0.45,31
12.15,0.6,45
12.15,0.75,53
12.15,0.9,64
12.15,1.05,71
12.15,1.2,74
12.15,1.35,75
12.15,1.5,75
12.3,-1.5,17
12.3,-1.35,17
12.3,-1.2,23
12.3,-1.05,24
12.3,-0.9,24
12.3,-0.75,25
12.3,-0.6,32
12.3,-0.45,23
12.3,-0.3,5
12.3,-0.15,41
12.3,0.0,54
12.3,0.15,23
12.3,0.3,42
12.3,0.45,20
12.3,0.6,35
12.3,0.75,48
12.3,0.9,54
12.3,1.05,56
12.3,1.2,56
12.3,1.35,54
12.3,1.5,52
12.45,-1.5,17
12.45,-1.35,17
12.45,-1.2,18
12.45,-1.05,25
12.45,-0.9,25
12.45,-0.75,23
12.45,-0.6,40
12.45,-0.45,74
12.45,-0.3,255
12.45,-0.15,15
12.45,0.0,24
12.45,0.15,17
12.45,0.3,48
12.45,0.45,71
12.45,0.6,6
12.45,0.75,57
12.45,0.9,51
12.45,1.05,47
12.45,1.2,54
12.45,1.35,50
12.45,1.5,46
12.6,-1.5,17
12.6,-1.35,20
12.6,-1.2,22
12.6,-1.05,24
12.6,-0.9,25
12.6,-0.75,22
12.6,-0.6,22
12.6,-0.45,49
12.6,-0.3,57
12.6,-0.15,17
12.6,0.0,14
12.6,0.15,16
12.6,0.3,15
12.6,0.45,105
12.6,0.6,126
12.6,0.75,72
12.6,0.9,57
12.6,1.05,48
12.6,1.2,40
12.6,1.35,32
12.6,1.5,36
12.75,-1.5,11
12.75,-1.35,15
12.75,-1.2,24
12.75,-1.05,24
12.75,-0.9,23
12.75,-0.75,22
12.75,-0.6,34
12.75,-0.45,46
12.75,-0.3,31
12.75,-0.15,2
12.75,0.0,2
12.75,0.15,15
12.75,0.3,19
12.75,0.45,57
12.75,0.6,78
12.75,0.75,68
12.75,0.9,57
12.75,1.05,46
12.75,1.2,35
12.75,1.35,22
12.75,1.5,14
12.9,-1.5,0
12.9,-1.35,7
12.9,-1.2,17
12.9,-1.05,19
12.9,-0.9,17
12.9,-0.75,5
12.9,-0.6,24
12.9,-0.45,24
12.9,-0.3,0
12.9,-0.15,1
12.9,0.0,3
12.9,0.15,16
12.9,0.3,27
12.9,0.45,43
12.9,0.6,56
12.9,0.75,58
12.9,0.9,51
12.9,1.05,42
12.9,1.2,27
12.9,1.35,9
12.9,1.5,1
13.05,-1.5,0
13.05,-1.35,4
13.05,-1.2,14
13.05,-1.05,18
13.05,-0.9,15
13.05,-0.75,12
13.05,-0.6,16
13.05,-0.45,14
13.05,-0.3,5
13.05,-0.15,5
13.05,0.0,4
13.05,0.15,17
13.05,0.3,25
13.05,0.45,36
13.05,0.6,43
13.05,0.75,47
13.05,0.9,46
13.05,1.05,37
13.05,1.2,23
13.05,1.35,6
13.05,1.5,0
