-3.0,-1.5,0
-3.0,-1.35,13
-3.0,-1.2,55
-3.0,-1.05,104
-3.0,-0.9,133
-3.0,-0.75,150
-3.0,-0.6,155
-3.0,-0.45,161
-3.0,-0.3,161
-3.0,-0.15,158
-3.0,0.0,152
-3.0,0.15,134
-3.0,0.3,106
-3.0,0.45,108
-3.0,0.6,120
-3.0,0.75,128
-3.0,0.9,126
-3.0,1.05,104
-3.0,1.2,68
-3.0,1.35,18
-3.0,1.5,0
-2.85,-1.5,14
-2.85,-1.35,33
-2.85,-1.2,73
-2.85,-1.05,108
-2.85,-0.9,143
-2.85,-0.75,157
-2.85,-0.6,162
-2.85,-0.45,167
-2.85,-0.3,170
-2.85,-0.15,163
-2.85,0.0,154
-2.85,0.15,121
-2.85,0.3,74
-2.85,0.45,73
-2.85,0.6,117
-2.85,0.75,135
-2.85,0.9,134
-2.85,1.05,124
-2.85,1.2,93
-2.85,1.35,45
-2.85,1.5,18
-2.7,-1.5,57
-2.7,-1.35,81
-2.7,-1.2,111
-2.7,-1.05,128
-2.7,-0.9,143
-2.7,-0.75,165
-2.7,-0.6,173
-2.7,-0.45,174
-2.7,-0.3,178
-2.7,-0.15,174
-2.7,0.0,161
-2.7,0.15,133
-2.7,0.3,59
-2.7,0.45,59
-2.7,0.6,140
-2.7,0.75,148
-2.7,0.9,152
-2.7,1.05,153
-2.7,1.2,131
-2.7,1.35,94
-2.7,1.5,66
-2.55,-1.5,98
-2.55,-1.35,112
-2.55,-1.2,138
-2.55,-1.05,154
-2.55,-0.9,163
-2.55,-0.75,170
-2.55,-0.6,177
-2.55,-0.45,179
-2.55,-0.3,188
-2.55,-0.15,191
-2.55,0.0,183
-2.55,0.15,169
-2.55,0.3,199
-2.55,0.45,255
-2.55,0.6,180
-2.55,0.75,154
-2.55,0.9,172
-2.55,1.05,185
-2.55,1.2,162
-2.55,1.35,129
-2.55,1.5,103
-2.4,-1.5,124
-2.4,-1.35,135
-2.4,-1.2,149
-2.4,-1.05,164
-2.4,-0.9,168
-2.4,-0.75,170
-2.4,-0.6,179
-2.4,-0.45,192
-2.4,-0.3,198
-2.4,-0.15,221
-2.4,0.0,214
-2.4,0.15,188
-2.4,0.3,187
-2.4,0.45,185
-2.4,0.6,144
-2.4,0.75,139
-2.4,0.9,170
-2.4,1.05,188
-2.4,1.2,167
-2.4,1.35,138
-2.4,1.5,121
-2.25,-1.5,139
-2.25,-1.35,148
-2.25,-1.2,159
-2.25,-1.05,165
-2.25,-0.9,169
-2.25,-0.75,168
-2.25,-0.6,174
-2.25,-0.45,188
-2.25,-0.3,210
-2.25,-0.15,255
-2.25,0.0,255
-2.25,0.15,203
-2.25,0.3,176
-2.25,0.45,123
-2.25,0.6,61
-2.25,0.75,103
-2.25,0.9,142
-2.25,1.05,159
-2.25,1.2,153
-2.25,1.35,139
-2.25,1.5,127
-2.1,-1.5,136
-2.1,-1.35,145
-2.1,-1.2,164
-2.1,-1.05,170
-2.1,-0.9,177
-2.1,-0.75,168
-2.1,-0.6,177
-2.1,-0.45,190
-2.1,-0.3,192
-2.1,-0.15,220
-2.1,0.0,217
-2.1,0.15,229
-2.1,0.3,188
-2.1,0.45,124
-2.1,0.6,73
-2.1,0.75,100
-2.1,0.9,122
-2.1,1.05,138
-2.1,1.2,139
-2.1,1.35,133
-2.1,1.5,127
-1.95,-1.5,135
-1.95,-1.35,148
-1.95,-1.2,158
-1.95,-1.05,172
-1.95,-0.9,177
-1.95,-0.75,177
-1.95,-0.6,190
-1.95,-0.45,205
-1.95,-0.3,177
-1.95,-0.15,120
-1.95,0.0,144
-1.95,0.15,200
-1.95,0.3,149
-1.95,0.45,133
-1.95,0.6,118
-1.95,0.75,117
-1.95,0.9,124
-1.95,1.05,128
-1.95,1.2,129
-1.95,1.35,127
-1.95,1.5,124
-1.8,-1.5,132
-1.8,-1.35,147
-1.8,-1.2,161
-1.8,-1.05,171
-1.8,-0.9,177
-1.8,-0.75,176
-1.8,-0.6,194
-1.8,-0.45,255
-1.8,-0.3,106
-1.8,-0.15,63
-1.8,0.0,100
-1.8,0.15,145
-1.8,0.3,149
-1.8,0.45,137
-1.8,0.6,126
-1.8,0.75,119
-1.8,0.9,119
-1.8,1.05,122
-1.8,1.2,123
-1.8,1.35,122
-1.8,1.5,120
-1.65,-1.5,124
-1.65,-1.35,139
-1.65,-1.2,159
-1.65,-1.05,184
-1.65,-0.9,188
-1.65,-0.75,164
-1.65,-0.6,160
-1.65,-0.45,153
-1.65,-0.3,114
-1.65,-0.15,108
-1.65,0.0,111
-1.65,0.15,124
-1.65,0.3,118
-1.65,0.45,113
-1.65,0.6,106
-1.65,0.75,112
-1.65,0.9,113
-1.65,1.05,113
-1.65,1.2,102
-1.65,1.35,102
-1.65,1.5,102
-1.5,-1.5,106
-1.5,-1.35,121
-1.5,-1.2,138
-1.5,-1.05,169
-1.5,-0.9,170
-1.5,-0.75,147
-1.5,-0.6,129
-1.5,-0.45,127
-1.5,-0.3,148
-1.5,-0.15,111
-1.5,0.0,89
-1.5,0.15,95
-1.5,0.3,87
-1.5,0.45,84
-1.5,0.6,80
-1.5,0.75,76
-1.5,0.9,90
-1.5,1.05,104
-1.5,1.2,96
-1.5,1.35,96
-1.5,1.5,97
-1.35,-1.5,72
-1.35,-1.35,84
-1.35,-1.2,114
-1.35,-1.05,125
-1.35,-0.9,128
-1.35,-0.75,106
-1.35,-0.6,92
-1.35,-0.45,91
-1.35,-0.3,85
-1.35,-0.15,66
-1.35,0.0,48
-1.35,0.15,66
-1.35,0.3,65
-1.35,0.45,68
-1.35,0.6,55
-1.35,0.75,60
-1.35,0.9,70
-1.35,1.05,75
-1.35,1.2,89
-1.35,1.35,94
-1.35,1.5,94
-1.2,-1.5,36
-1.2,-1.35,46
-1.2,-1.2,66
-1.2,-1.05,77
-1.2,-0.9,82
-1.2,-0.75,72
-1.2,-0.6,52
-1.2,-0.45,61
-1.2,-0.3,47
-1.2,-0.15,35
-1.2,0.0,6
-1.2,0.15,51
-1.2,0.3,75
-1.2,0.45,64
-1.2,0.6,49
-1.2,0.75,58
-1.2,0.9,65
-1.2,1.05,76
-1.2,1.2,85
-1.2,1.35,102
-1.2,1.5,107
-1.05,-1.5,9
-1.05,-1.35,12
-1.05,-1.2,41
-1.05,-1.05,54
-1.05,-0.9,61
-1.05,-0.75,68
-1.05,-0.6,52
-1.05,-0.45,52
-1.05,-0.3,47
-1.05,-0.15,46
-1.05,0.0,46
-1.05,0.15,79
-1.05,0.3,129
-1.05,0.45,114
-1.05,0.6,61
-1.05,0.75,49
-1.05,0.9,59
-1.05,1.05,68
-1.05,1.2,92
-1.05,1.35,100
-1.05,1.5,100
-0.9,-1.5,4
-0.9,-1.35,5
-0.9,-1.2,35
-0.9,-1.05,58
-0.9,-0.9,66
-0.9,-0.75,74
-0.9,-0.6,75
-0.9,-0.45,63
-0.9,-0.3,55
-0.9,-0.15,52
-0.9,0.0,69
-0.9,0.15,102
-0.9,0.3,169
-0.9,0.45,157
-0.9,0.6,19
-0.9,0.75,17
-0.9,0.9,54
-0.9,1.05,72
-0.9,1.2,77
-0.9,1.35,92
-0.9,1.5,96
-0.75,-1.5,11
-0.75,-1.35,1
-0.75,-1.2,34
-0.75,-1.05,54
-0.75,-0.9,59
-0.75,-0.75,99
-0.75,-0.6,98
-0.75,-0.45,98
-0.75,-0.3,98
-0.75,-0.15,92
-0.75,0.0,104
-0.75,0.15,117
-0.75,0.3,130
-0.75,0.45,111
-0.75,0.6,46
-0.75,0.75,37
-0.75,0.9,61
-0.75,1.05,81
-0.75,1.2,90
-0.75,1.35,95
-0.75,1.5,98
-0.6,-1.5,18
-0.6,-1.35,9
-0.6,-1.2,42
-0.6,-1.05,57
-0.6,-0.9,57
-0.6,-0.75,164
-0.6,-0.6,79
-0.6,-0.45,130
-0.6,-0.3,128
-0.6,-0.15,95
-0.6,0.0,126
-0.6,0.15,145
-0.6,0.3,133
-0.6,0.45,117
-0.6,0.6,93
-0.6,0.75,79
-0.6,0.9,85
-0.6,1.05,91
-0.6,1.2,95
-0.6,1.35,113
-0.6,1.5,115
-0.45,-1.5,40
-0.45,-1.35,43
-0.45,-1.2,59
-0.45,-1.05,76
-0.45,-0.9,78
-0.45,-0.75,92
-0.45,-0.6,143
-0.45,-0.45,202
-0.45,-0.3,130
-0.45,-0.15,68
-0.45,0.0,184
-0.45,0.15,171
-0.45,0.3,138
-0.45,0.45,121
-0.45,0.6,105
-0.45,0.75,104
-0.45,0.9,100
-0.45,1.05,100
-0.45,1.2,115
-0.45,1.35,115
-0.45,1.5,90
-0.3,-1.5,57
-0.3,-1.35,63
-0.3,-1.2,73
-0.3,-1.05,94
-0.3,-0.9,96
-0.3,-0.75,103
-0.3,-0.6,150
-0.3,-0.45,189
-0.3,-0.3,255
-0.3,-0.15,118
-0.3,0.0,133
-0.3,0.15,168
-0.3,0.3,135
-0.3,0.45,114
-0.3,0.6,104
-0.3,0.75,107
-0.3,0.9,106
-0.3,1.05,120
-0.3,1.2,105
-0.3,1.35,93
-0.3,1.5,93
-0.15,-1.5,61
-0.15,-1.35,68
-0.15,-1.2,93
-0.15,-1.05,100
-0.15,-0.9,104
-0.15,-0.75,62
-0.15,-0.6,63
-0.15,-0.45,109
-0.15,-0.3,82
-0.15,-0.15,53
-0.15,0.0,49
-0.15,0.15,127
-0.15,0.3,143
-0.15,0.45,83
-0.15,0.6,105
-0.15,0.75,111
-0.15,0.9,127
-0.15,1.05,111
-0.15,1.2,111
-0.15,1.35,111
-0.15,1.5,111
0.0,-1.5,81
0.0,-1.35,82
0.0,-1.2,99
0.0,-1.05,130
0.0,-0.9,139
0.0,-0.75,109
0.0,-0.6,95
0.0,-0.45,84
0.0,-0.3,14
0.0,-0.15,33
0.0,0.0,58
0.0,0.15,60
0.0,0.3,185
0.0,0.45,88
0.0,0.6,103
0.0,0.75,113
0.0,0.9,116
0.0,1.05,115
0.0,1.2,115
0.0,1.35,114
0.0,1.5,114
0.15,-1.5,57
0.15,-1.35,67
0.15,-1.2,106
0.15,-1.05,143
0.15,-0.9,202
0.15,-0.75,255
0.15,-0.6,146
0.15,-0.45,100
0.15,-0.3,128
0.15,-0.15,41
0.15,0.0,51
0.15,0.15,70
0.15,0.3,101
0.15,0.45,88
0.15,0.6,104
0.15,0.75,114
0.15,0.9,119
0.15,1.05,121
0.15,1.2,119
0.15,1.35,110
0.15,1.5,108
0.3,-1.5,23
0.3,-1.35,22
0.3,-1.2,87
0.3,-1.05,135
0.3,-0.9,170
0.3,-0.75,199
0.3,-0.6,178
0.3,-0.45,149
0.3,-0.3,147
0.3,-0.15,52
0.3,0.0,65
0.3,0.15,137
0.3,0.3,161
0.3,0.45,111
0.3,0.6,109
0.3,0.75,115
0.3,0.9,120
0.3,1.05,122
0.3,1.2,117
0.3,1.35,112
0.3,1.5,104
0.45,-1.5,15
0.45,-1.35,9
0.45,-1.2,77
0.45,-1.05,118
0.45,-0.9,148
0.45,-0.75,180
0.45,-0.6,146
0.45,-0.45,65
0.45,-0.3,108
0.45,-0.15,113
0.45,0.0,113
0.45,0.15,182
0.45,0.3,255
0.45,0.45,149
0.45,0.6,115
0.45,0.75,120
0.45,0.9,140
0.45,1.05,131
0.45,1.2,117
0.45,1.35,108
0.45,1.5,102
0.6,-1.5,49
0.6,-1.35,58
0.6,-1.2,88
0.6,-1.05,108
0.6,-0.9,101
0.6,-0.75,108
0.6,-0.6,101
0.6,-0.45,191
0.6,-0.3,84
0.6,-0.15,127
0.6,0.0,112
0.6,0.15,119
0.6,0.3,135
0.6,0.45,118
0.6,0.6,100
0.6,0.75,125
0.6,0.9,224
0.6,1.05,145
0.6,1.2,110
0.6,1.35,99
0.6,1.5,92
0.75,-1.5,68
0.75,-1.35,78
0.75,-1.2,103
0.75,-1.05,151
0.75,-0.9,65
0.75,-0.75,4
0.75,-0.6,51
0.75,-0.45,115
0.75,-0.3,147
0.75,-0.15,144
0.75,0.0,86
0.75,0.15,62
0.75,0.3,68
0.75,0.45,82
0.75,0.6,71
0.75,0.75,21
0.75,0.9,81
0.75,1.05,112
0.75,1.2,101
0.75,1.35,95
0.75,1.5,91
0.9,-1.5,50
0.9,-1.35,55
0.9,-1.2,72
0.9,-1.05,164
0.9,-0.9,107
0.9,-0.75,42
0.9,-0.6,56
0.9,-0.45,131
0.9,-0.3,165
0.9,-0.15,173
0.9,0.0,60
0.9,0.15,48
0.9,0.3,42
0.9,0.45,41
0.9,0.6,56
0.9,0.75,36
0.9,0.9,43
0.9,1.05,74
0.9,1.2,75
0.9,1.35,74
0.9,1.5,72
1.05,-1.5,38
1.05,-1.35,33
1.05,-1.2,7
1.05,-1.05,22
1.05,-0.9,22
1.05,-0.75,42
1.05,-0.6,49
1.05,-0.45,102
1.05,-0.3,163
1.05,-0.15,17
1.05,0.0,45
1.05,0.15,50
1.05,0.3,109
1.05,0.45,28
1.05,0.6,46
1.05,0.75,45
1.05,0.9,49
1.05,1.05,61
1.05,1.2,65
1.05,1.35,67
1.05,1.5,68
1.2,-1.5,33
1.2,-1.35,28
1.2,-1.2,19
1.2,-1.05,23
1.2,-0.9,27
1.2,-0.75,38
1.2,-0.6,42
1.2,-0.45,71
1.2,-0.3,128
1.2,-0.15,58
1.2,0.0,80
1.2,0.15,45
1.2,0.3,47
1.2,0.45,64
1.2,0.6,49
1.2,0.75,38
1.2,0.9,49
1.2,1.05,51
1.2,1.2,56
1.2,1.35,60
1.2,1.5,63
1.35,-1.5,32
1.35,-1.35,28
1.35,-1.2,25
1.35,-1.05,21
1.35,-0.9,15
1.35,-0.75,38
1.35,-0.6,13
1.35,-0.45,147
1.35,-0.3,56
1.35,-0.15,50
1.35,0.0,47
1.35,0.15,45
1.35,0.3,45
1.35,0.45,47
1.35,0.6,46
1.35,0.75,22
1.35,0.9,38
1.35,1.05,44
1.35,1.2,46
1.35,1.35,50
1.35,1.5,53
1.5,-1.5,29
1.5,-1.35,24
1.5,-1.2,12
1.5,-1.05,6
1.5,-0.9,0
1.5,-0.75,33
1.5,-0.6,43
1.5,-0.45,51
1.5,-0.3,51
1.5,-0.15,51
1.5,0.0,49
1.5,0.15,54
1.5,0.3,93
1.5,0.45,77
1.5,0.6,40
1.5,0.75,0
1.5,0.9,26
1.5,1.05,39
1.5,1.2,44
1.5,1.35,47
1.5,1.5,50
1.65,-1.5,28
1.65,-1.35,24
1.65,-1.2,19
1.65,-1.05,5
1.65,-0.9,30
1.65,-0.75,40
1.65,-0.6,51
1.65,-0.45,37
1.65,-0.3,49
1.65,-0.15,24
1.65,0.0,96
1.65,0.15,96
1.65,0.3,87
1.65,0.45,74
1.65,0.6,52
1.65,0.75,37
1.65,0.9,36
1.65,1.05,42
1.65,1.2,39
1.65,1.35,39
1.65,1.5,50
1.8,-1.5,30
1.8,-1.35,31
1.8,-1.2,33
1.8,-1.05,35
1.8,-0.9,46
1.8,-0.75,50
1.8,-0.6,44
1.8,-0.45,36
1.8,-0.3,42
1.8,-0.15,10
1.8,0.0,16
1.8,0.15,114
1.8,0.3,69
1.8,0.45,35
1.8,0.6,40
1.8,0.75,41
1.8,0.9,41
1.8,1.05,42
1.8,1.2,42
1.8,1.35,39
1.8,1.5,39
1.95,-1.5,43
1.95,-1.35,49
1.95,-1.2,46
1.95,-1.05,58
1.95,-0.9,66
1.95,-0.75,85
1.95,-0.6,61
1.95,-0.45,26
1.95,-0.3,62
1.95,-0.15,44
1.95,0.0,24
1.95,0.15,47
1.95,0.3,41
1.95,0.45,20
1.95,0.6,43
1.95,0.75,43
1.95,0.9,41
1.95,1.05,41
1.95,1.2,42
1.95,1.35,42
1.95,1.5,39
2.1,-1.5,30
2.1,-1.35,36
2.1,-1.2,58
2.1,-1.05,76
2.1,-0.9,97
2.1,-0.75,110
2.1,-0.6,48
2.1,-0.45,64
2.1,-0.3,73
2.1,-0.15,64
2.1,0.0,71
2.1,0.15,69
2.1,0.3,46
2.1,0.45,51
2.1,0.6,53
2.1,0.75,57
2.1,0.9,57
2.1,1.05,47
2.1,1.2,48
2.1,1.35,42
2.1,1.5,43
2.25,-1.5,10
2.25,-1.35,5
2.25,-1.2,48
2.25,-1.05,75
2.25,-0.9,86
2.25,-0.75,80
2.25,-0.6,44
2.25,-0.45,38
2.25,-0.3,49
2.25,-0.15,58
2.25,0.0,96
2.25,0.15,232
2.25,0.3,87
2.25,0.45,55
2.25,0.6,62
2.25,0.75,56
2.25,0.9,50
2.25,1.05,47
2.25,1.2,50
2.25,1.35,53
2.25,1.5,55
2.4,-1.5,13
2.4,-1.35,11
2.4,-1.2,50
2.4,-1.05,79
2.4,-0.9,103
2.4,-0.75,76
2.4,-0.6,57
2.4,-0.45,50
2.4,-0.3,84
2.4,-0.15,53
2.4,0.0,56
2.4,0.15,60
2.4,0.3,102
2.4,0.45,98
2.4,0.6,83
2.4,0.75,41
2.4,0.9,25
2.4,1.05,43
2.4,1.2,39
2.4,1.35,41
2.4,1.5,43
2.55,-1.5,33
2.55,-1.35,39
2.55,-1.2,54
2.55,-1.05,73
2.55,-0.9,120
2.55,-0.75,108
2.55,-0.6,67
2.55,-0.45,7
2.55,-0.3,84
2.55,-0.15,24
2.55,0.0,75
2.55,0.15,74
2.55,0.3,151
2.55,0.45,139
2.55,0.6,95
2.55,0.75,13
2.55,0.9,6
2.55,1.05,30
2.55,1.2,42
2.55,1.35,45
2.55,1.5,47
2.7,-1.5,53
2.7,-1.35,54
2.7,-1.2,51
2.7,-1.05,54
2.7,-0.9,18
2.7,-0.75,53
2.7,-0.6,173
2.7,-0.45,229
2.7,-0.3,70
2.7,-0.15,34
2.7,0.0,99
2.7,0.15,81
2.7,0.3,125
2.7,0.45,161
2.7,0.6,98
2.7,0.75,53
2.7,0.9,32
2.7,1.05,37
2.7,1.2,43
2.7,1.35,46
2.7,1.5,48
2.85,-1.5,54
2.85,-1.35,54
2.85,-1.2,54
2.85,-1.05,54
2.85,-0.9,50
2.85,-0.75,66
2.85,-0.6,164
2.85,-0.45,88
2.85,-0.3,142
2.85,-0.15,46
2.85,0.0,97
2.85,0.15,99
2.85,0.3,85
2.85,0.45,89
2.85,0.6,86
2.85,0.75,67
2.85,0.9,59
2.85,1.05,57
2.85,1.2,59
2.85,1.35,59
2.85,1.5,60
3.0,-1.5,47
3.0,-1.35,47
3.0,-1.2,47
3.0,-1.05,35
3.0,-0.9,49
3.0,-0.75,131
3.0,-0.6,161
3.0,-0.45,177
3.0,-0.3,120
3.0,-0.15,34
3.0,0.0,92
3.0,0.15,83
3.0,0.3,21
3.0,0.45,42
3.0,0.6,64
3.0,0.75,76
3.0,0.9,76
3.0,1.05,73
3.0,1.2,65
3.0,1.35,65
3.0,1.5,55
3.15,-1.5,68
3.15,-1.35,72
3.15,-1.2,69
3.15,-1.05,4
3.15,-0.9,69
3.15,-0.75,102
3.15,-0.6,145
3.15,-0.45,111
3.15,-0.3,87
3.15,-0.15,2
3.15,0.0,68
3.15,0.15,57
3.15,0.3,0
3.15,0.45,40
3.15,0.6,50
3.15,0.75,51
3.15,0.9,57
3.15,1.05,54
3.15,1.2,51
3.15,1.35,51
3.15,1.5,51
3.3,-1.5,72
3.3,-1.35,82
3.3,-1.2,119
3.3,-1.05,154
3.3,-0.9,63
3.3,-0.75,46
3.3,-0.6,1
3.3,-0.45,86
3.3,-0.3,123
3.3,-0.15,68
3.3,0.0,62
3.3,0.15,56
3.3,0.3,60
3.3,0.45,46
3.3,0.6,41
3.3,0.75,31
3.3,0.9,38
3.3,1.05,38
3.3,1.2,38
3.3,1.35,38
3.3,1.5,38
3.45,-1.5,64
3.45,-1.35,72
3.45,-1.2,91
3.45,-1.05,93
3.45,-0.9,60
3.45,-0.75,44
3.45,-0.6,68
3.45,-0.45,88
3.45,-0.3,60
3.45,-0.15,111
3.45,0.0,168
3.45,0.15,96
3.45,0.3,135
3.45,0.45,72
3.45,0.6,55
3.45,0.75,51
3.45,0.9,44
3.45,1.05,40
3.45,1.2,40
3.45,1.35,43
3.45,1.5,57
3.6,-1.5,79
3.6,-1.35,79
3.6,-1.2,62
3.6,-1.05,11
3.6,-0.9,115
3.6,-0.75,81
3.6,-0.6,105
3.6,-0.45,93
3.6,-0.3,173
3.6,-0.15,84
3.6,0.0,90
3.6,0.15,76
3.6,0.3,90
3.6,0.45,58
3.6,0.6,44
3.6,0.75,47
3.6,0.9,47
3.6,1.05,46
3.6,1.2,47
3.6,1.35,47
3.6,1.5,47
3.75,-1.5,82
3.75,-1.35,85
3.75,-1.2,70
3.75,-1.05,55
3.75,-0.9,48
3.75,-0.75,155
3.75,-0.6,198
3.75,-0.45,29
3.75,-0.3,33
3.75,-0.15,64
3.75,0.0,51
3.75,0.15,188
3.75,0.3,69
3.75,0.45,0
3.75,0.6,25
3.75,0.75,42
3.75,0.9,54
3.75,1.05,56
3.75,1.2,59
3.75,1.35,61
3.75,1.5,62
3.9,-1.5,111
3.9,-1.35,112
3.9,-1.2,108
3.9,-1.05,98
3.9,-0.9,114
3.9,-0.75,128
3.9,-0.6,67
3.9,-0.45,73
3.9,-0.3,152
3.9,-0.15,80
3.9,0.0,64
3.9,0.15,84
3.9,0.3,20
3.9,0.45,11
3.9,0.6,28
3.9,0.75,44
3.9,0.9,54
3.9,1.05,59
3.9,1.2,62
3.9,1.35,80
3.9,1.5,83
4.05,-1.5,104
4.05,-1.35,105
4.05,-1.2,125
4.05,-1.05,128
4.05,-0.9,155
4.05,-0.75,151
4.05,-0.6,47
4.05,-0.45,113
4.05,-0.3,168
4.05,-0.15,45
4.05,0.0,150
4.05,0.15,78
4.05,0.3,35
4.05,0.45,35
4.05,0.6,45
4.05,0.75,50
4.05,0.9,67
4.05,1.05,71
4.05,1.2,75
4.05,1.35,74
4.05,1.5,75
4.2,-1.5,94
4.2,-1.35,98
4.2,-1.2,115
4.2,-1.05,138
4.2,-0.9,167
4.2,-0.75,242
4.2,-0.6,185
4.2,-0.45,141
4.2,-0.3,229
4.2,-0.15,173
4.2,0.0,110
4.2,0.15,81
4.2,0.3,52
4.2,0.45,68
4.2,0.6,65
4.2,0.75,62
4.2,0.9,62
4.2,1.05,62
4.2,1.2,62
4.2,1.35,62
4.2,1.5,62
4.35,-1.5,108
4.35,-1.35,106
4.35,-1.2,99
4.35,-1.05,109
4.35,-0.9,109
4.35,-0.75,68
4.35,-0.6,90
4.35,-0.45,147
4.35,-0.3,42
4.35,-0.15,7
4.35,0.0,63
4.35,0.15,58
4.35,0.3,101
4.35,0.45,141
4.35,0.6,102
4.35,0.75,92
4.35,0.9,73
4.35,1.05,70
4.35,1.2,68
4.35,1.35,66
4.35,1.5,65
4.5,-1.5,122
4.5,-1.35,99
4.5,-1.2,99
4.5,-1.05,112
4.5,-0.9,143
4.5,-0.75,46
4.5,-0.6,58
4.5,-0.45,107
4.5,-0.3,71
4.5,-0.15,17
4.5,0.0,34
4.5,0.15,196
4.5,0.3,116
4.5,0.45,120
4.5,0.6,92
4.5,0.75,99
4.5,0.9,97
4.5,1.05,93
4.5,1.2,78
4.5,1.35,77
4.5,1.5,75
4.65,-1.5,105
4.65,-1.35,113
4.65,-1.2,105
4.65,-1.05,117
4.65,-0.9,102
4.65,-0.75,62
4.65,-0.6,84
4.65,-0.45,58
4.65,-0.3,101
4.65,-0.15,27
4.65,0.0,17
4.65,0.15,34
4.65,0.3,22
4.65,0.45,183
4.65,0.6,92
4.65,0.75,97
4.65,0.9,97
4.65,1.05,96
4.65,1.2,92
4.65,1.35,91
4.65,1.5,75
4.8,-1.5,126
4.8,-1.35,122
4.8,-1.2,126
4.8,-1.05,135
4.8,-0.9,168
4.8,-0.75,218
4.8,-0.6,201
4.8,-0.45,105
4.8,-0.3,129
4.8,-0.15,45
4.8,0.0,41
4.8,0.15,17
4.8,0.3,64
4.8,0.45,112
4.8,0.6,102
4.8,0.75,95
4.8,0.9,93
4.8,1.05,92
4.8,1.2,76
4.8,1.35,75
4.8,1.5,77
4.95,-1.5,126
4.95,-1.35,126
4.95,-1.2,126
4.95,-1.05,144
4.95,-0.9,112
4.95,-0.75,186
4.95,-0.6,186
4.95,-0.45,32
4.95,-0.3,66
4.95,-0.15,0
4.95,0.0,27
4.95,0.15,33
4.95,0.3,42
4.95,0.45,55
4.95,0.6,79
4.95,0.75,76
4.95,0.9,75
4.95,1.05,75
4.95,1.2,75
4.95,1.35,75
4.95,1.5,75
5.1,-1.5,120
5.1,-1.35,122
5.1,-1.2,124
5.1,-1.05,133
5.1,-0.9,132
5.1,-0.75,129
5.1,-0.6,182
5.1,-0.45,29
5.1,-0.3,56
5.1,-0.15,14
5.1,0.0,103
5.1,0.15,83
5.1,0.3,77
5.1,0.45,79
5.1,0.6,94
5.1,0.75,94
5.1,0.9,96
5.1,1.05,83
5.1,1.2,93
5.1,1.35,94
5.1,1.5,94
5.25,-1.5,120
5.25,-1.35,128
5.25,-1.2,130
5.25,-1.05,101
5.25,-0.9,43
5.25,-0.75,93
5.25,-0.6,58
5.25,-0.45,15
5.25,-0.3,57
5.25,-0.15,102
5.25,0.0,22
5.25,0.15,101
5.25,0.3,63
5.25,0.45,71
5.25,0.6,73
5.25,0.75,90
5.25,0.9,96
5.25,1.05,73
5.25,1.2,74
5.25,1.35,59
5.25,1.5,59
5.4,-1.5,107
5.4,-1.35,107
5.4,-1.2,134
5.4,-1.05,117
5.4,-0.9,56
5.4,-0.75,102
5.4,-0.6,63
5.4,-0.45,71
5.4,-0.3,90
5.4,-0.15,47
5.4,0.0,48
5.4,0.15,0
5.4,0.3,47
5.4,0.45,63
5.4,0.6,68
5.4,0.75,83
5.4,0.9,84
5.4,1.05,82
5.4,1.2,72
5.4,1.35,73
5.4,1.5,73
5.55,-1.5,100
5.55,-1.35,114
5.55,-1.2,157
5.55,-1.05,154
5.55,-0.9,80
5.55,-0.75,68
5.55,-0.6,73
5.55,-0.45,71
5.55,-0.3,48
5.55,-0.15,142
5.55,0.0,33
5.55,0.15,38
5.55,0.3,75
5.55,0.45,73
5.55,0.6,67
5.55,0.75,65
5.55,0.9,63
5.55,1.05,63
5.55,1.2,62
5.55,1.35,62
5.55,1.5,62
5.7,-1.5,100
5.7,-1.35,107
5.7,-1.2,105
5.7,-1.05,87
5.7,-0.9,71
5.7,-0.75,44
5.7,-0.6,63
5.7,-0.45,12
5.7,-0.3,60
5.7,-0.15,77
5.7,0.0,26
5.7,0.15,64
5.7,0.3,121
5.7,0.45,75
5.7,0.6,65
5.7,0.75,63
5.7,0.9,62
5.7,1.05,62
5.7,1.2,62
5.7,1.35,62
5.7,1.5,62
5.85,-1.5,96
5.85,-1.35,96
5.85,-1.2,94
5.85,-1.05,84
5.85,-0.9,63
5.85,-0.75,63
5.85,-0.6,21
5.85,-0.45,68
5.85,-0.3,243
5.85,-0.15,84
5.85,0.0,26
5.85,0.15,98
5.85,0.3,26
5.85,0.45,50
5.85,0.6,60
5.85,0.75,62
5.85,0.9,62
5.85,1.05,62
5.85,1.2,62
5.85,1.35,62
5.85,1.5,62
6.0,-1.5,97
6.0,-1.35,97
6.0,-1.2,95
6.0,-1.05,69
6.0,-0.9,89
6.0,-0.75,102
6.0,-0.6,76
6.0,-0.45,0
6.0,-0.3,70
6.0,-0.15,0
6.0,0.0,36
6.0,0.15,43
6.0,0.3,28
6.0,0.45,50
6.0,0.6,63
6.0,0.75,69
6.0,0.9,62
6.0,1.05,63
6.0,1.2,67
6.0,1.35,68
6.0,1.5,68
6.15,-1.5,111
6.15,-1.35,109
6.15,-1.2,95
6.15,-1.05,99
6.15,-0.9,131
6.15,-0.75,153
6.15,-0.6,49
6.15,-0.45,35
6.15,-0.3,69
6.15,-0.15,28
6.15,0.0,210
6.15,0.15,54
6.15,0.3,49
6.15,0.45,41
6.15,0.6,60
6.15,0.75,67
6.15,0.9,81
6.15,1.05,83
6.15,1.2,88
6.15,1.35,89
6.15,1.5,79
6.3,-1.5,88
6.3,-1.35,88
6.3,-1.2,90
6.3,-1.05,88
6.3,-0.9,87
6.3,-0.75,110
6.3,-0.6,129
6.3,-0.45,79
6.3,-0.3,30
6.3,-0.15,68
6.3,0.0,47
6.3,0.15,60
6.3,0.3,66
6.3,0.45,68
6.3,0.6,61
6.3,0.75,60
6.3,0.9,59
6.3,1.05,59
6.3,1.2,74
6.3,1.35,71
6.3,1.5,56
6.45,-1.5,110
6.45,-1.35,105
6.45,-1.2,78
6.45,-1.05,75
6.45,-0.9,49
6.45,-0.75,22
6.45,-0.6,29
6.45,-0.45,34
6.45,-0.3,91
6.45,-0.15,15
6.45,0.0,50
6.45,0.15,75
6.45,0.3,76
6.45,0.45,80
6.45,0.6,77
6.45,0.75,71
6.45,0.9,69
6.45,1.05,52
6.45,1.2,51
6.45,1.35,73
6.45,1.5,73
6.6,-1.5,114
6.6,-1.35,109
6.6,-1.2,102
6.6,-1.05,75
6.6,-0.9,72
6.6,-0.75,113
6.6,-0.6,169
6.6,-0.45,146
6.6,-0.3,53
6.6,-0.15,99
6.6,0.0,91
6.6,0.15,166
6.6,0.3,100
6.6,0.45,80
6.6,0.6,72
6.6,0.75,81
6.6,0.9,82
6.6,1.05,82
6.6,1.2,83
6.6,1.35,83
6.6,1.5,79
6.75,-1.5,105
6.75,-1.35,104
6.75,-1.2,100
6.75,-1.05,88
6.75,-0.9,67
6.75,-0.75,67
6.75,-0.6,94
6.75,-0.45,79
6.75,-0.3,20
6.75,-0.15,35
6.75,0.0,50
6.75,0.15,58
6.75,0.3,60
6.75,0.45,66
6.75,0.6,76
6.75,0.75,90
6.75,0.9,92
6.75,1.05,93
6.75,1.2,94
6.75,1.35,94
6.75,1.5,94
6.9,-1.5,110
6.9,-1.35,114
6.9,-1.2,114
6.9,-1.05,115
6.9,-0.9,40
6.9,-0.75,61
6.9,-0.6,2
6.9,-0.45,255
6.9,-0.3,100
6.9,-0.15,29
6.9,0.0,44
6.9,0.15,54
6.9,0.3,22
6.9,0.45,68
6.9,0.6,95
6.9,0.75,89
6.9,0.9,90
6.9,1.05,90
6.9,1.2,104
6.9,1.35,104
6.9,1.5,104
7.05,-1.5,127
7.05,-1.35,133
7.05,-1.2,138
7.05,-1.05,179
7.05,-0.9,251
7.05,-0.75,40
7.05,-0.6,93
7.05,-0.45,25
7.05,-0.3,83
7.05,-0.15,60
7.05,0.0,12
7.05,0.15,75
7.05,0.3,104
7.05,0.45,107
7.05,0.6,86
7.05,0.75,81
7.05,0.9,80
7.05,1.05,88
7.05,1.2,91
7.05,1.35,94
7.05,1.5,93
7.2,-1.5,129
7.2,-1.35,134
7.2,-1.2,145
7.2,-1.05,162
7.2,-0.9,175
7.2,-0.75,102
7.2,-0.6,59
7.2,-0.45,88
7.2,-0.3,27
7.2,-0.15,39
7.2,0.0,25
7.2,0.15,174
7.2,0.3,177
7.2,0.45,132
7.2,0.6,92
7.2,0.75,81
7.2,0.9,80
7.2,1.05,78
7.2,1.2,76
7.2,1.35,76
7.2,1.5,75
7.35,-1.5,111
7.35,-1.35,113
7.35,-1.2,118
7.35,-1.05,126
7.35,-0.9,98
7.35,-0.75,80
7.35,-0.6,165
7.35,-0.45,87
7.35,-0.3,33
7.35,-0.15,56
7.35,0.0,55
7.35,0.15,43
7.35,0.3,50
7.35,0.45,50
7.35,0.6,64
7.35,0.75,73
7.35,0.9,79
7.35,1.05,80
7.35,1.2,72
7.35,1.35,72
7.35,1.5,74
7.5,-1.5,112
7.5,-1.35,111
7.5,-1.2,106
7.5,-1.05,95
7.5,-0.9,85
7.5,-0.75,68
7.5,-0.6,42
7.5,-0.45,17
7.5,-0.3,112
7.5,-0.15,82
7.5,0.0,72
7.5,0.15,38
7.5,0.3,22
7.5,0.45,39
7.5,0.6,75
7.5,0.75,78
7.5,0.9,78
7.5,1.05,68
7.5,1.2,71
7.5,1.35,70
7.5,1.5,73
7.65,-1.5,105
7.65,-1.35,96
7.65,-1.2,76
7.65,-1.05,67
7.65,-0.9,82
7.65,-0.75,71
7.65,-0.6,56
7.65,-0.45,84
7.65,-0.3,64
7.65,-0.15,44
7.65,0.0,62
7.65,0.15,32
7.65,0.3,51
7.65,0.45,59
7.65,0.6,74
7.65,0.75,74
7.65,0.9,65
7.65,1.05,67
7.65,1.2,67
7.65,1.35,73
7.65,1.5,73
7.8,-1.5,75
7.8,-1.35,54
7.8,-1.2,49
7.8,-1.05,69
7.8,-0.9,76
7.8,-0.75,77
7.8,-0.6,53
7.8,-0.45,147
7.8,-0.3,69
7.8,-0.15,20
7.8,0.0,36
7.8,0.15,66
7.8,0.3,93
7.8,0.45,91
7.8,0.6,69
7.8,0.75,48
7.8,0.9,43
7.8,1.05,42
7.8,1.2,59
7.8,1.35,60
7.8,1.5,64
7.95,-1.5,70
7.95,-1.35,66
7.95,-1.2,57
7.95,-1.05,68
7.95,-0.9,40
7.95,-0.75,42
7.95,-0.6,16
7.95,-0.45,56
7.95,-0.3,42
7.95,-0.15,46
7.95,0.0,50
7.95,0.15,69
7.95,0.3,205
7.95,0.45,88
7.95,0.6,52
7.95,0.75,41
7.95,0.9,42
7.95,1.05,42
7.95,1.2,48
7.95,1.35,48
7.95,1.5,49
8.1,-1.5,52
8.1,-1.35,52
8.1,-1.2,51
8.1,-1.05,47
8.1,-0.9,40
8.1,-0.75,40
8.1,-0.6,1
8.1,-0.45,15
8.1,-0.3,115
8.1,-0.15,72
8.1,0.0,29
8.1,0.15,40
8.1,0.3,47
8.1,0.45,34
8.1,0.6,22
8.1,0.75,33
8.1,0.9,40
8.1,1.05,44
8.1,1.2,46
8.1,1.35,59
8.1,1.5,61
8.25,-1.5,53
8.25,-1.35,54
8.25,-1.2,55
8.25,-1.05,58
8.25,-0.9,62
8.25,-0.75,79
8.25,-0.6,21
8.25,-0.45,58
8.25,-0.3,153
8.25,-0.15,50
8.25,0.0,47
8.25,0.15,19
8.25,0.3,19
8.25,0.45,10
8.25,0.6,6
8.25,0.75,28
8.25,0.9,45
8.25,1.05,52
8.25,1.2,56
8.25,1.35,71
8.25,1.5,75
8.4,-1.5,63
8.4,-1.35,64
8.4,-1.2,66
8.4,-1.05,70
8.4,-0.9,84
8.4,-0.75,79
8.4,-0.6,47
8.4,-0.45,60
8.4,-0.3,63
8.4,-0.15,55
8.4,0.0,72
8.4,0.15,42
8.4,0.3,41
8.4,0.45,32
8.4,0.6,43
8.4,0.75,35
8.4,0.9,38
8.4,1.05,54
8.4,1.2,69
8.4,1.35,71
8.4,1.5,74
8.55,-1.5,85
8.55,-1.35,85
8.55,-1.2,103
8.55,-1.05,105
8.55,-0.9,105
8.55,-0.75,82
8.55,-0.6,160
8.55,-0.45,47
8.55,-0.3,39
8.55,-0.15,107
8.55,0.0,48
8.55,0.15,50
8.55,0.3,87
8.55,0.45,57
8.55,0.6,47
8.55,0.75,44
8.55,0.9,44
8.55,1.05,53
8.55,1.2,59
8.55,1.35,61
8.55,1.5,62
8.7,-1.5,122
8.7,-1.35,122
8.7,-1.2,136
8.7,-1.05,125
8.7,-0.9,124
8.7,-0.75,111
8.7,-0.6,110
8.7,-0.45,252
8.7,-0.3,48
8.7,-0.15,60
8.7,0.0,58
8.7,0.15,45
8.7,0.3,61
8.7,0.45,74
8.7,0.6,67
8.7,0.75,55
8.7,0.9,64
8.7,1.05,65
8.7,1.2,66
8.7,1.35,66
8.7,1.5,66
8.85,-1.5,99
8.85,-1.35,100
8.85,-1.2,102
8.85,-1.05,114
8.85,-0.9,119
8.85,-0.75,143
8.85,-0.6,30
8.85,-0.45,94
8.85,-0.3,77
8.85,-0.15,75
8.85,0.0,34
8.85,0.15,14
8.85,0.3,45
8.85,0.45,150
8.85,0.6,84
8.85,0.75,82
8.85,0.9,78
8.85,1.05,72
8.85,1.2,71
8.85,1.35,70
8.85,1.5,81
9.0,-1.5,80
9.0,-1.35,81
9.0,-1.2,80
9.0,-1.05,92
9.0,-0.9,97
9.0,-0.75,97
9.0,-0.6,51
9.0,-0.45,30
9.0,-0.3,120
9.0,-0.15,48
9.0,0.0,14
9.0,0.15,18
9.0,0.3,46
9.0,0.45,82
9.0,0.6,71
9.0,0.75,82
9.0,0.9,95
9.0,1.05,97
9.0,1.2,92
9.0,1.35,88
9.0,1.5,85
9.15,-1.5,78
9.15,-1.35,78
9.15,-1.2,92
9.15,-1.05,91
9.15,-0.9,87
9.15,-0.75,72
9.15,-0.6,116
9.15,-0.45,22
9.15,-0.3,91
9.15,-0.15,79
9.15,0.0,19
9.15,0.15,7
9.15,0.3,75
9.15,0.45,20
9.15,0.6,62
9.15,0.75,107
9.15,0.9,125
9.15,1.05,118
9.15,1.2,108
9.15,1.35,90
9.15,1.5,85
9.3,-1.5,80
9.3,-1.35,80
9.3,-1.2,78
9.3,-1.05,76
9.3,-0.9,59
9.3,-0.75,52
9.3,-0.6,99
9.3,-0.45,97
9.3,-0.3,111
9.3,-0.15,64
9.3,0.0,43
9.3,0.15,63
9.3,0.3,65
9.3,0.45,45
9.3,0.6,83
9.3,0.75,163
9.3,0.9,172
9.3,1.05,137
9.3,1.2,119
9.3,1.35,125
9.3,1.5,121
9.45,-1.5,64
9.45,-1.35,63
9.45,-1.2,67
9.45,-1.05,61
9.45,-0.9,50
9.45,-0.75,41
9.45,-0.6,42
9.45,-0.45,51
9.45,-0.3,153
9.45,-0.15,80
9.45,0.0,33
9.45,0.15,122
9.45,0.3,105
9.45,0.45,132
9.45,0.6,112
9.45,0.75,153
9.45,0.9,163
9.45,1.05,145
9.45,1.2,132
9.45,1.35,125
9.45,1.5,124
9.6,-1.5,82
9.6,-1.35,64
9.6,-1.2,63
9.6,-1.05,60
9.6,-0.9,55
9.6,-0.75,51
9.6,-0.6,37
9.6,-0.45,20
9.6,-0.3,129
9.6,-0.15,255
9.6,0.0,70
9.6,0.15,45
9.6,0.3,77
9.6,0.45,138
9.6,0.6,107
9.6,0.75,127
9.6,0.9,133
9.6,1.05,138
9.6,1.2,133
9.6,1.35,130
9.6,1.5,127
9.75,-1.5,99
9.75,-1.35,97
9.75,-1.2,85
9.75,-1.05,79
9.75,-0.9,58
9.75,-0.75,75
9.75,-0.6,107
9.75,-0.45,73
9.75,-0.3,64
9.75,-0.15,149
9.75,0.0,75
9.75,0.15,34
9.75,0.3,45
9.75,0.45,83
9.75,0.6,97
9.75,0.75,110
9.75,0.9,117
9.75,1.05,124
9.75,1.2,122
9.75,1.35,120
9.75,1.5,120
9.9,-1.5,104
9.9,-1.35,110
9.9,-1.2,108
9.9,-1.05,105
9.9,-0.9,98
9.9,-0.75,72
9.9,-0.6,96
9.9,-0.45,169
9.9,-0.3,235
9.9,-0.15,87
9.9,0.0,177
9.9,0.15,48
9.9,0.3,41
9.9,0.45,71
9.9,0.6,103
9.9,0.75,126
9.9,0.9,120
9.9,1.05,119
9.9,1.2,119
9.9,1.35,125
9.9,1.5,124
10.05,-1.5,120
10.05,-1.35,120
10.05,-1.2,121
10.05,-1.05,123
10.05,-0.9,138
10.05,-0.75,175
10.05,-0.6,142
10.05,-0.45,86
10.05,-0.3,41
10.05,-0.15,44
10.05,0.0,54
10.05,0.15,53
10.05,0.3,46
10.05,0.45,91
10.05,0.6,160
10.05,0.75,158
10.05,0.9,141
10.05,1.05,127
10.05,1.2,121
10.05,1.35,119
10.05,1.5,125
10.2,-1.5,131
10.2,-1.35,133
10.2,-1.2,136
10.2,-1.05,141
10.2,-0.9,153
10.2,-0.75,173
10.2,-0.6,139
10.2,-0.45,81
10.2,-0.3,117
10.2,-0.15,64
10.2,0.0,88
10.2,0.15,73
10.2,0.3,78
10.2,0.45,154
10.2,0.6,255
10.2,0.75,204
10.2,0.9,163
10.2,1.05,146
10.2,1.2,140
10.2,1.35,145
10.2,1.5,136
10.35,-1.5,107
10.35,-1.35,124
10.35,-1.2,127
10.35,-1.05,133
10.35,-0.9,142
10.35,-0.75,164
10.35,-0.6,95
10.35,-0.45,58
10.35,-0.3,88
10.35,-0.15,82
10.35,0.0,72
10.35,0.15,109
10.35,0.3,145
10.35,0.45,162
10.35,0.6,213
10.35,0.75,189
10.35,0.9,165
10.35,1.05,158
10.35,1.2,151
10.35,1.35,146
10.35,1.5,144
10.5,-1.5,113
10.5,-1.35,93
10.5,-1.2,95
10.5,-1.05,97
10.5,-0.9,104
10.5,-0.75,115
10.5,-0.6,115
10.5,-0.45,115
10.5,-0.3,99
10.5,-0.15,81
10.5,0.0,125
10.5,0.15,153
10.5,0.3,186
10.5,0.45,163
10.5,0.6,172
10.5,0.75,171
10.5,0.9,163
10.5,1.05,155
10.5,1.2,166
10.5,1.35,163
10.5,1.5,158
10.65,-1.5,127
10.65,-1.35,91
10.65,-1.2,88
10.65,-1.05,71
10.65,-0.9,64
10.65,-0.75,67
10.65,-0.6,54
10.65,-0.45,44
10.65,-0.3,85
10.65,-0.15,61
10.65,0.0,127
10.65,0.15,191
10.65,0.3,172
10.65,0.45,162
10.65,0.6,160
10.65,0.75,161
10.65,0.9,156
10.65,1.05,151
10.65,1.2,147
10.65,1.35,152
10.65,1.5,149
10.8,-1.5,94
10.8,-1.35,93
10.8,-1.2,91
10.8,-1.05,84
10.8,-0.9,65
10.8,-0.75,17
10.8,-0.6,44
10.8,-0.45,99
10.8,-0.3,138
10.8,-0.15,78
10.8,0.0,113
10.8,0.15,151
10.8,0.3,150
10.8,0.45,154
10.8,0.6,154
10.8,0.75,157
10.8,0.9,155
10.8,1.05,152
10.8,1.2,149
10.8,1.35,144
10.8,1.5,149
10.95,-1.5,133
10.95,-1.35,115
10.95,-1.2,114
10.95,-1.05,106
10.95,-0.9,101
10.95,-0.75,67
10.95,-0.6,70
10.95,-0.45,99
10.95,-0.3,102
10.95,-0.15,67
10.95,0.0,126
10.95,0.15,196
10.95,0.3,153
10.95,0.45,141
10.95,0.6,152
10.95,0.75,154
10.95,0.9,151
10.95,1.05,148
10.95,1.2,150
10.95,1.35,146
10.95,1.5,143
11.1,-1.5,127
11.1,-1.35,139
11.1,-1.2,130
11.1,-1.05,135
11.1,-0.9,154
11.1,-0.75,255
11.1,-0.6,146
11.1,-0.45,75
11.1,-0.3,46
11.1,-0.15,44
11.1,0.0,126
11.1,0.15,225
11.1,0.3,141
11.1,0.45,144
11.1,0.6,168
11.1,0.75,160
11.1,0.9,151
11.1,1.05,146
11.1,1.2,143
11.1,1.35,141
11.1,1.5,139
11.25,-1.5,153
11.25,-1.35,158
11.25,-1.2,158
11.25,-1.05,146
11.25,-0.9,135
11.25,-0.75,164
11.25,-0.6,178
11.25,-0.45,48
11.25,-0.3,69
11.25,-0.15,70
11.25,0.0,78
11.25,0.15,66
11.25,0.3,64
11.25,0.45,151
11.25,0.6,192
11.25,0.75,165
11.25,0.9,150
11.25,1.05,143
11.25,1.2,140
11.25,1.35,136
11.25,1.5,134
11.4,-1.5,155
11.4,-1.35,160
11.4,-1.2,161
11.4,-1.05,161
11.4,-0.9,170
11.4,-0.75,181
11.4,-0.6,181
11.4,-0.45,212
11.4,-0.3,62
11.4,-0.15,62
11.4,0.0,63
11.4,0.15,28
11.4,0.3,26
11.4,0.45,108
11.4,0.6,150
11.4,0.75,144
11.4,0.9,131
11.4,1.05,135
11.4,1.2,132
11.4,1.35,128
11.4,1.5,125
11.55,-1.5,174
11.55,-1.35,172
11.55,-1.2,156
11.55,-1.05,157
11.55,-0.9,162
11.55,-0.75,190
11.55,-0.6,193
11.55,-0.45,122
11.55,-0.3,97
11.55,-0.15,65
11.55,0.0,65
11.55,0.15,59
11.55,0.3,64
11.55,0.45,91
11.55,0.6,104
11.55,0.75,114
11.55,0.9,110
11.55,1.05,112
11.55,1.2,120
11.55,1.35,117
11.55,1.5,114
11.7,-1.5,159
11.7,-1.35,157
11.7,-1.2,154
11.7,-1.05,150
11.7,-0.9,144
11.7,-0.75,143
11.7,-0.6,183
11.7,-0.45,101
11.7,-0.3,22
11.7,-0.15,53
11.7,0.0,82
11.7,0.15,76
11.7,0.3,82
11.7,0.45,91
11.7,0.6,101
11.7,0.75,96
11.7,0.9,101
11.7,1.05,88
11.7,1.2,84
11.7,1.35,89
11.7,1.5,104
11.85,-1.5,127
11.85,-1.35,127
11.85,-1.2,114
11.85,-1.05,105
11.85,-0.9,95
11.85,-0.75,20
11.85,-0.6,77
11.85,-0.45,100
11.85,-0.3,90
11.85,-0.15,84
11.85,0.0,72
11.85,0.15,48
11.85,0.3,48
11.85,0.45,70
11.85,0.6,75
11.85,0.75,82
11.85,0.9,81
11.85,1.05,79
11.85,1.2,74
11.85,1.35,82
11.85,1.5,69
12.0,-1.5,108
12.0,-1.35,108
12.0,-1.2,96
12.0,-1.05,98
12.0,-0.9,98
12.0,-0.75,85
12.0,-0.6,73
12.0,-0.45,75
12.0,-0.3,173
12.0,-0.15,74
12.0,0.0,50
12.0,0.15,35
12.0,0.3,37
12.0,0.45,38
12.0,0.6,56
12.0,0.75,59
12.0,0.9,58
12.0,1.05,59
12.0,1.2,58
12.0,1.35,56
12.0,1.5,54
12.15,-1.5,63
12.15,-1.35,68
12.15,-1.2,75
12.15,-1.05,88
12.15,-0.9,128
12.15,-0.75,221
12.15,-0.6,46
12.15,-0.45,30
12.15,-0.3,52
12.15,-0.15,48
12.15,0.0,36
12.15,0.15,29
12.15,0.3,27
12.15,0.45,34
12.15,0.6,37
12.15,0.75,41
12.15,0.9,42
12.15,1.05,43
12.15,1.2,42
12.15,1.35,47
12.15,1.5,46
12.3,-1.5,81
12.3,-1.35,66
12.3,-1.2,74
12.3,-1.05,85
12.3,-0.9,106
12.3,-0.75,101
12.3,-0.6,8
12.3,-0.45,0
12.3,-0.3,23
12.3,-0.15,24
12.3,0.0,35
12.3,0.15,30
12.3,0.3,17
12.3,0.45,14
12.3,0.6,27
12.3,0.75,33
12.3,0.9,35
12.3,1.05,36
12.3,1.2,35
12.3,1.35,34
12.3,1.5,33
12.45,-1.5,79
12.45,-1.35,86
12.45,-1.2,92
12.45,-1.05,96
12.45,-0.9,74
12.45,-0.75,60
12.45,-0.6,32
12.45,-0.45,6
12.45,-0.3,5
12.45,-0.15,31
12.45,0.0,35
12.45,0.15,30
12.45,0.3,0
12.45,0.45,8
12.45,0.6,18
12.45,0.75,23
12.45,0.9,20
12.45,1.05,21
12.45,1.2,20
12.45,1.35,19
12.45,1.5,18
12.6,-1.5,84
12.6,-1.35,96
12.6,-1.2,105
12.6,-1.05,110
12.6,-0.9,102
12.6,-0.75,78
12.6,-0.6,74
12.6,-0.45,24
12.6,-0.3,32
12.6,-0.15,51
12.6,0.0,59
12.6,0.15,42
12.6,0.3,15
12.6,0.45,17
12.6,0.6,22
12.6,0.75,23
12.6,0.9,23
12.6,1.05,20
12.6,1.2,18
12.6,1.35,15
12.6,1.5,13
12.75,-1.5,53
12.75,-1.35,75
12.75,-1.2,102
12.75,-1.05,104
12.75,-0.9,115
12.75,-0.75,104
12.75,-0.6,86
12.75,-0.45,20
12.75,-0.3,8
12.75,-0.15,128
12.75,0.0,85
12.75,0.15,61
12.75,0.3,40
12.75,0.45,28
12.75,0.6,17
12.75,0.75,14
12.75,0.9,18
12.75,1.05,19
12.75,1.2,16
12.75,1.35,13
12.75,1.5,8
12.9,-1.5,10
12.9,-1.35,44
12.9,-1.2,82
12.9,-1.05,115
12.9,-0.9,163
12.9,-0.75,255
12.9,-0.6,255
12.9,-0.45,38
12.9,-0.3,103
12.9,-0.15,129
12.9,0.0,92
12.9,0.15,70
12.9,0.3,50
12.9,0.45,26
12.9,0.6,2
12.9,0.75,1
12.9,0.9,12
12.9,1.05,16
12.9,1.2,12
12.9,1.35,2
12.9,1.5,0
13.05,-1.5,0
13.05,-1.35,28
13.05,-1.2,79
13.05,-1.05,112
13.05,-0.9,150
13.05,-0.75,151
13.05,-0.6,139
13.05,-0.45,100
13.05,-0.3,96
13.05,-0.15,102
13.05,0.0,95
13.05,0.15,69
13.05,0.3,52
13.05,0.45,28
13.05,0.6,4
13.05,0.75,2
13.05,0.9,12
13.05,1.05,16
13.05,1.2,11
13.05,1.35,0
13.05,1.5,0
