-3.0,-1.5,0
-3.0,-1.35,1
-3.0,-1.2,16
-3.0,-1.05,29
-3.0,-0.9,39
-3.0,-0.75,45
-3.0,-0.6,50
-3.0,-0.45,56
-3.0,-0.3,63
-3.0,-0.15,68
-3.0,0.0,68
-3.0,0.15,68
-3.0,0.3,68
-3.0,0.45,71
-3.0,0.6,72
-3.0,0.75,67
-3.0,0.9,53
-3.0,1.05,35
-3.0,1.2,15
-3.0,1.35,0
-3.0,1.5,0
-2.85,-1.5,1
-2.85,-1.35,8
-2.85,-1.2,21
-2.85,-1.05,32
-2.85,-0.9,39
-2.85,-0.75,42
-2.85,-0.6,44
-2.85,-0.45,49
-2.85,-0.3,60
-2.85,-0.15,69
-2.85,0.0,68
-2.85,0.15,68
-2.85,0.3,68
-2.85,0.45,72
-2.85,0.6,76
-2.85,0.75,72
-2.85,0.9,59
-2.85,1.05,41
-2.85,1.2,21
-2.85,1.35,6
-2.85,1.5,0
-2.7,-1.5,17
-2.7,-1.35,22
-2.7,-1.2,31
-2.7,-1.05,36
-2.7,-0.9,38
-2.7,-0.75,35
-2.7,-0.6,31
-2.7,-0.45,35
-2.7,-0.3,53
-2.7,-0.15,73
-2.7,0.0,75
-2.7,0.15,68
-2.7,0.3,68
-2.7,0.45,79
-2.7,0.6,84
-2.7,0.75,79
-2.7,0.9,67
-2.7,1.05,51
-2.7,1.2,33
-2.7,1.35,19
-2.7,1.5,13
-2.55,-1.5,34
-2.55,-1.35,37
-2.55,-1.2,41
-2.55,-1.05,43
-2.55,-0.9,39
-2.55,-0.75,27
-2.55,-0.6,12
-2.55,-0.45,11
-2.55,-0.3,42
-2.55,-0.15,84
-2.55,0.0,106
-2.55,0.15,103
-2.55,0.3,100
-2.55,0.45,101
-2.55,0.6,99
-2.55,0.75,89
-2.55,0.9,77
-2.55,1.05,63
-2.55,1.2,48
-2.55,1.35,36
-2.55,1.5,29
-2.4,-1.5,47
-2.4,-1.35,48
-2.4,-1.2,49
-2.4,-1.05,48
-2.4,-0.9,42
-2.4,-0.75,26
-2.4,-0.6,4
-2.4,-0.45,0
-2.4,-0.3,41
-2.4,-0.15,110
-2.4,0.0,166
-2.4,0.15,180
-2.4,0.3,157
-2.4,0.45,134
-2.4,0.6,115
-2.4,0.75,101
-2.4,0.9,88
-2.4,1.05,74
-2.4,1.2,62
-2.4,1.35,51
-2.4,1.5,45
-2.25,-1.5,55
-2.25,-1.35,55
-2.25,-1.2,54
-2.25,-1.05,53
-2.25,-0.9,48
-2.25,-0.75,37
-2.25,-0.6,23
-2.25,-0.45,25
-2.25,-0.3,67
-2.25,-0.15,144
-2.25,0.0,221
-2.25,0.15,239
-2.25,0.3,199
-2.25,0.45,157
-2.25,0.6,129
-2.25,0.75,111
-2.25,0.9,96
-2.25,1.05,84
-2.25,1.2,73
-2.25,1.35,64
-2.25,1.5,65
-2.1,-1.5,59
-2.1,-1.35,58
-2.1,-1.2,57
-2.1,-1.05,56
-2.1,-0.9,54
-2.1,-0.75,51
-2.1,-0.6,49
-2.1,-0.45,60
-2.1,-0.3,93
-2.1,-0.15,153
-2.1,0.0,214
-2.1,0.15,230
-2.1,0.3,199
-2.1,0.45,162
-2.1,0.6,139
-2.1,0.75,121
-2.1,0.9,102
-2.1,1.05,90
-2.1,1.2,81
-2.1,1.35,73
-2.1,1.5,74
-1.95,-1.5,60
-1.95,-1.35,59
-1.95,-1.2,58
-1.95,-1.05,58
-1.95,-0.9,56
-1.95,-0.75,57
-1.95,-0.6,62
-1.95,-0.45,76
-1.95,-0.3,102
-1.95,-0.15,138
-1.95,0.0,174
-1.95,0.15,188
-1.95,0.3,175
-1.95,0.45,154
-1.95,0.6,136
-1.95,0.75,122
-1.95,0.9,104
-1.95,1.05,94
-1.95,1.2,86
-1.95,1.35,87
-1.95,1.5,80
-1.8,-1.5,62
-1.8,-1.35,59
-1.8,-1.2,58
-1.8,-1.05,56
-1.8,-0.9,52
-1.8,-0.75,53
-1.8,-0.6,63
-1.8,-0.45,78
-1.8,-0.3,98
-1.8,-0.15,123
-1.8,0.0,144
-1.8,0.15,152
-1.8,0.3,149
-1.8,0.45,140
-1.8,0.6,129
-1.8,0.75,113
-1.8,0.9,104
-1.8,1.05,96
-1.8,1.2,98
-1.8,1.35,90
-1.8,1.5,85
-1.65,-1.5,64
-1.65,-1.35,60
-1.65,-1.2,55
-1.65,-1.05,46
-1.65,-0.9,34
-1.65,-0.75,38
-1.65,-0.6,55
-1.65,-0.45,75
-1.65,-0.3,94
-1.65,-0.15,111
-1.65,0.0,125
-1.65,0.15,134
-1.65,0.3,132
-1.65,0.45,128
-1.65,0.6,115
-1.65,0.75,109
-1.65,0.9,102
-1.65,1.05,105
-1.65,1.2,97
-1.65,1.35,93
-1.65,1.5,89
-1.5,-1.5,71
-1.5,-1.35,60
-1.5,-1.2,49
-1.5,-1.05,27
-1.5,-0.9,5
-1.5,-0.75,16
-1.5,-0.6,46
-1.5,-0.45,72
-1.5,-0.3,92
-1.5,-0.15,106
-1.5,0.0,117
-1.5,0.15,123
-1.5,0.3,121
-1.5,0.45,121
-1.5,0.6,109
-1.5,0.75,114
-1.5,0.9,110
-1.5,1.05,103
-1.5,1.2,99
-1.5,1.35,95
-1.5,1.5,92
-1.35,-1.5,78
-1.35,-1.35,70
-1.35,-1.2,55
-1.35,-1.05,28
-1.35,-0.9,1
-1.35,-0.75,14
-1.35,-0.6,50
-1.35,-0.45,76
-1.35,-0.3,95
-1.35,-0.15,108
-1.35,0.0,117
-1.35,0.15,121
-1.35,0.3,117
-1.35,0.45,113
-1.35,0.6,111
-1.35,0.75,112
-1.35,0.9,106
-1.35,1.05,102
-1.35,1.2,99
-1.35,1.35,96
-1.35,1.5,108
-1.2,-1.5,82
-1.2,-1.35,76
-1.2,-1.2,68
-1.2,-1.05,51
-1.2,-0.9,38
-1.2,-0.75,47
-1.2,-0.6,68
-1.2,-0.45,87
-1.2,-0.3,104
-1.2,-0.15,121
-1.2,0.0,129
-1.2,0.15,127
-1.2,0.3,120
-1.2,0.45,120
-1.2,0.6,118
-1.2,0.75,109
-1.2,0.9,107
-1.2,1.05,115
-1.2,1.2,113
-1.2,1.35,111
-1.2,1.5,109
-1.05,-1.5,93
-1.05,-1.35,93
-1.05,-1.2,91
-1.05,-1.05,84
-1.05,-0.9,77
-1.05,-0.75,76
-1.05,-0.6,86
-1.05,-0.45,100
-1.05,-0.3,121
-1.05,-0.15,135
-1.05,0.0,140
-1.05,0.15,133
-1.05,0.3,128
-1.05,0.45,117
-1.05,0.6,113
-1.05,0.75,114
-1.05,0.9,123
-1.05,1.05,115
-1.05,1.2,115
-1.05,1.35,110
-1.05,1.5,106
-0.9,-1.5,107
-0.9,-1.35,112
-0.9,-1.2,117
-0.9,-1.05,113
-0.9,-0.9,99
-0.9,-0.75,84
-0.9,-0.6,75
-0.9,-0.45,92
-0.9,-0.3,129
-0.9,-0.15,155
-0.9,0.0,153
-0.9,0.15,129
-0.9,0.3,121
-0.9,0.45,115
-0.9,0.6,110
-0.9,0.75,118
-0.9,0.9,111
-0.9,1.05,111
-0.9,1.2,111
-0.9,1.35,107
-0.9,1.5,106
-0.75,-1.5,116
-0.75,-1.35,129
-0.75,-1.2,146
-0.75,-1.05,148
-0.75,-0.9,114
-0.75,-0.75,82
-0.75,-0.6,59
-0.75,-0.45,90
-0.75,-0.3,165
-0.75,-0.15,222
-0.75,0.0,190
-0.75,0.15,141
-0.75,0.3,108
-0.75,0.45,98
-0.75,0.6,104
-0.75,0.75,104
-0.75,0.9,104
-0.75,1.05,98
-0.75,1.2,104
-0.75,1.35,92
-0.75,1.5,91
-0.6,-1.5,119
-0.6,-1.35,136
-0.6,-1.2,165
-0.6,-1.05,181
-0.6,-0.9,120
-0.6,-0.75,84
-0.6,-0.6,83
-0.6,-0.45,118
-0.6,-0.3,222
-0.6,-0.15,255
-0.6,0.0,233
-0.6,0.15,104
-0.6,0.3,82
-0.6,0.45,92
-0.6,0.6,97
-0.6,0.75,100
-0.6,0.9,98
-0.6,1.05,102
-0.6,1.2,102
-0.6,1.35,91
-0.6,1.5,90
-0.45,-1.5,116
-0.45,-1.35,128
-0.45,-1.2,144
-0.45,-1.05,143
-0.45,-0.9,98
-0.45,-0.75,59
-0.45,-0.6,83
-0.45,-0.45,122
-0.45,-0.3,190
-0.45,-0.15,255
-0.45,0.0,141
-0.45,0.15,9
-0.45,0.3,47
-0.45,0.45,80
-0.45,0.6,91
-0.45,0.75,97
-0.45,0.9,100
-0.45,1.05,101
-0.45,1.2,90
-0.45,1.35,89
-0.45,1.5,89
-0.3,-1.5,109
-0.3,-1.35,114
-0.3,-1.2,117
-0.3,-1.05,110
-0.3,-0.9,96
-0.3,-0.75,86
-0.3,-0.6,92
-0.3,-0.45,102
-0.3,-0.3,121
-0.3,-0.15,124
-0.3,0.0,82
-0.3,0.15,30
-0.3,0.3,56
-0.3,0.45,79
-0.3,0.6,90
-0.3,0.75,96
-0.3,0.9,99
-0.3,1.05,89
-0.3,1.2,88
-0.3,1.35,88
-0.3,1.5,88
-0.15,-1.5,102
-0.15,-1.35,104
-0.15,-1.2,103
-0.15,-1.05,100
-0.15,-0.9,102
-0.15,-0.75,118
-0.15,-0.6,92
-0.15,-0.45,93
-0.15,-0.3,91
-0.15,-0.15,74
-0.15,0.0,66
-0.15,0.15,70
-0.15,0.3,76
-0.15,0.45,89
-0.15,0.6,97
-0.15,0.75,98
-0.15,0.9,88
-0.15,1.05,88
-0.15,1.2,64
-0.15,1.35,63
-0.15,1.5,62
0.0,-1.5,82
0.0,-1.35,82
0.0,-1.2,81
0.0,-1.05,81
0.0,-0.9,85
0.0,-0.75,80
0.0,-0.6,64
0.0,-0.45,108
0.0,-0.3,110
0.0,-0.15,60
0.0,0.0,58
0.0,0.15,66
0.0,0.3,82
0.0,0.45,90
0.0,0.6,91
0.0,0.75,87
0.0,0.9,85
0.0,1.05,67
0.0,1.2,81
0.0,1.35,80
0.0,1.5,79
0.15,-1.5,73
0.15,-1.35,75
0.15,-1.2,75
0.15,-1.05,68
0.15,-0.9,64
0.15,-0.75,55
0.15,-0.6,49
0.15,-0.45,99
0.15,-0.3,105
0.15,-0.15,29
0.15,0.0,16
0.15,0.15,74
0.15,0.3,101
0.15,0.45,109
0.15,0.6,100
0.15,0.75,93
0.15,0.9,88
0.15,1.05,87
0.15,1.2,85
0.15,1.35,83
0.15,1.5,82
0.3,-1.5,70
0.3,-1.35,72
0.3,-1.2,74
0.3,-1.05,68
0.3,-0.9,51
0.3,-0.75,29
0.3,-0.6,0
0.3,-0.45,20
0.3,-0.3,58
0.3,-0.15,36
0.3,0.0,46
0.3,0.15,88
0.3,0.3,147
0.3,0.45,131
0.3,0.6,110
0.3,0.75,100
0.3,0.9,92
0.3,1.05,88
0.3,1.2,86
0.3,1.35,81
0.3,1.5,81
0.45,-1.5,64
0.45,-1.35,63
0.45,-1.2,61
0.45,-1.05,54
0.45,-0.9,61
0.45,-0.75,45
0.45,-0.6,27
0.45,-0.45,47
0.45,-0.3,66
0.45,-0.15,92
0.45,0.0,84
0.45,0.15,107
0.45,0.3,138
0.45,0.45,130
0.45,0.6,107
0.45,0.75,91
0.45,0.9,83
0.45,1.05,80
0.45,1.2,81
0.45,1.35,81
0.45,1.5,90
0.6,-1.5,60
0.6,-1.35,64
0.6,-1.2,64
0.6,-1.05,54
0.6,-0.9,54
0.6,-0.75,64
0.6,-0.6,67
0.6,-0.45,83
0.6,-0.3,103
0.6,-0.15,175
0.6,0.0,206
0.6,0.15,147
0.6,0.3,144
0.6,0.45,117
0.6,0.6,98
0.6,0.75,71
0.6,0.9,69
0.6,1.05,74
0.6,1.2,80
0.6,1.35,84
0.6,1.5,86
0.75,-1.5,59
0.75,-1.35,60
0.75,-1.2,61
0.75,-1.05,55
0.75,-0.9,60
0.75,-0.75,79
0.75,-0.6,86
0.75,-0.45,88
0.75,-0.3,114
0.75,-0.15,255
0.75,0.0,108
0.75,0.15,105
0.75,0.3,68
0.75,0.45,76
0.75,0.6,55
0.75,0.75,21
0.75,0.9,42
0.75,1.05,62
0.75,1.2,73
0.75,1.35,80
0.75,1.5,84
0.9,-1.5,49
0.9,-1.35,51
0.9,-1.2,54
0.9,-1.05,55
0.9,-0.9,61
0.9,-0.75,69
0.9,-0.6,89
0.9,-0.45,89
0.9,-0.3,78
0.9,-0.15,79
0.9,0.0,110
0.9,0.15,67
0.9,0.3,39
0.9,0.45,72
0.9,0.6,40
0.9,0.75,1
0.9,0.9,33
0.9,1.05,59
0.9,1.2,73
0.9,1.35,81
0.9,1.5,84
1.05,-1.5,49
1.05,-1.35,49
1.05,-1.2,55
1.05,-1.05,60
1.05,-0.9,69
1.05,-0.75,80
1.05,-0.6,92
1.05,-0.45,89
1.05,-0.3,61
1.05,-0.15,69
1.05,0.0,85
1.05,0.15,98
1.05,0.3,79
1.05,0.45,77
1.05,0.6,57
1.05,0.75,43
1.05,0.9,50
1.05,1.05,64
1.05,1.2,74
1.05,1.35,81
1.05,1.5,84
1.2,-1.5,49
1.2,-1.35,49
1.2,-1.2,51
1.2,-1.05,55
1.2,-0.9,56
1.2,-0.75,102
1.2,-0.6,136
1.2,-0.45,87
1.2,-0.3,68
1.2,-0.15,27
1.2,0.0,61
1.2,0.15,99
1.2,0.3,80
1.2,0.45,67
1.2,0.6,58
1.2,0.75,51
1.2,0.9,56
1.2,1.05,70
1.2,1.2,79
1.2,1.35,84
1.2,1.5,84
1.35,-1.5,47
1.35,-1.35,33
1.35,-1.2,30
1.35,-1.05,45
1.35,-0.9,4
1.35,-0.75,106
1.35,-0.6,232
1.35,-0.45,83
1.35,-0.3,103
1.35,-0.15,91
1.35,0.0,100
1.35,0.15,98
1.35,0.3,82
1.35,0.45,80
1.35,0.6,75
1.35,0.75,70
1.35,0.9,69
1.35,1.05,70
1.35,1.2,71
1.35,1.35,78
1.35,1.5,80
1.5,-1.5,45
1.5,-1.35,16
1.5,-1.2,0
1.5,-1.05,45
1.5,-0.9,59
1.5,-0.75,111
1.5,-0.6,140
1.5,-0.45,110
1.5,-0.3,158
1.5,-0.15,141
1.5,0.0,70
1.5,0.15,103
1.5,0.3,97
1.5,0.45,102
1.5,0.6,86
1.5,0.75,84
1.5,0.9,81
1.5,1.05,80
1.5,1.2,79
1.5,1.35,63
1.5,1.5,67
1.65,-1.5,53
1.65,-1.35,42
1.65,-1.2,45
1.65,-1.05,58
1.65,-0.9,73
1.65,-0.75,79
1.65,-0.6,76
1.65,-0.45,255
1.65,-0.3,206
1.65,-0.15,104
1.65,0.0,91
1.65,0.15,88
1.65,0.3,104
1.65,0.45,109
1.65,0.6,99
1.65,0.75,101
1.65,0.9,97
1.65,1.05,77
1.65,1.2,65
1.65,1.35,64
1.65,1.5,63
1.8,-1.5,61
1.8,-1.35,54
1.8,-1.2,57
1.8,-1.05,59
1.8,-0.9,79
1.8,-0.75,77
1.8,-0.6,58
1.8,-0.45,176
1.8,-0.3,152
1.8,-0.15,131
1.8,0.0,104
1.8,0.15,77
1.8,0.3,95
1.8,0.45,110
1.8,0.6,105
1.8,0.75,96
1.8,0.9,87
1.8,1.05,82
1.8,1.2,82
1.8,1.35,65
1.8,1.5,63
1.95,-1.5,62
1.95,-1.35,62
1.95,-1.2,55
1.95,-1.05,59
1.95,-0.9,56
1.95,-0.75,51
1.95,-0.6,71
1.95,-0.45,65
1.95,-0.3,65
1.95,-0.15,74
1.95,0.0,86
1.95,0.15,86
1.95,0.3,127
1.95,0.45,141
1.95,0.6,125
1.95,0.75,98
1.95,0.9,84
1.95,1.05,78
1.95,1.2,56
1.95,1.35,53
1.95,1.5,53
2.1,-1.5,59
2.1,-1.35,59
2.1,-1.2,62
2.1,-1.05,64
2.1,-0.9,64
2.1,-0.75,0
2.1,-0.6,69
2.1,-0.45,35
2.1,-0.3,38
2.1,-0.15,76
2.1,0.0,62
2.1,0.15,74
2.1,0.3,208
2.1,0.45,183
2.1,0.6,126
2.1,0.75,92
2.1,0.9,81
2.1,1.05,74
2.1,1.2,57
2.1,1.35,54
2.1,1.5,53
2.25,-1.5,63
2.25,-1.35,66
2.25,-1.2,70
2.25,-1.05,75
2.25,-0.9,85
2.25,-0.75,146
2.25,-0.6,154
2.25,-0.45,30
2.25,-0.3,58
2.25,-0.15,82
2.25,0.0,60
2.25,0.15,44
2.25,0.3,84
2.25,0.45,113
2.25,0.6,93
2.25,0.75,81
2.25,0.9,61
2.25,1.05,56
2.25,1.2,53
2.25,1.35,53
2.25,1.5,55
2.4,-1.5,73
2.4,-1.35,77
2.4,-1.2,81
2.4,-1.05,85
2.4,-0.9,90
2.4,-0.75,101
2.4,-0.6,84
2.4,-0.45,187
2.4,-0.3,52
2.4,-0.15,73
2.4,0.0,224
2.4,0.15,12
2.4,0.3,43
2.4,0.45,63
2.4,0.6,68
2.4,0.75,61
2.4,0.9,58
2.4,1.05,52
2.4,1.2,55
2.4,1.35,55
2.4,1.5,55
2.55,-1.5,73
2.55,-1.35,75
2.55,-1.2,77
2.55,-1.05,77
2.55,-0.9,80
2.55,-0.75,78
2.55,-0.6,70
2.55,-0.45,41
2.55,-0.3,65
2.55,-0.15,102
2.55,0.0,34
2.55,0.15,24
2.55,0.3,47
2.55,0.45,63
2.55,0.6,56
2.55,0.75,43
2.55,0.9,44
2.55,1.05,48
2.55,1.2,49
2.55,1.35,50
2.55,1.5,51
2.7,-1.5,75
2.7,-1.35,72
2.7,-1.2,77
2.7,-1.05,74
2.7,-0.9,80
2.7,-0.75,80
2.7,-0.6,56
2.7,-0.45,66
2.7,-0.3,35
2.7,-0.15,14
2.7,0.0,76
2.7,0.15,76
2.7,0.3,62
2.7,0.45,38
2.7,0.6,22
2.7,0.75,36
2.7,0.9,40
2.7,1.05,43
2.7,1.2,47
2.7,1.35,50
2.7,1.5,52
2.85,-1.5,75
2.85,-1.35,72
2.85,-1.2,76
2.85,-1.05,66
2.85,-0.9,70
2.85,-0.75,78
2.85,-0.6,79
2.85,-0.45,51
2.85,-0.3,64
2.85,-0.15,27
2.85,0.0,113
2.85,0.15,93
2.85,0.3,93
2.85,0.45,32
2.85,0.6,7
2.85,0.75,27
2.85,0.9,31
2.85,1.05,39
2.85,1.2,54
2.85,1.35,60
2.85,1.5,64
3.0,-1.5,68
3.0,-1.35,74
3.0,-1.2,76
3.0,-1.05,57
3.0,-0.9,48
3.0,-0.75,66
3.0,-0.6,102
3.0,-0.45,127
3.0,-0.3,119
3.0,-0.15,48
3.0,0.0,68
3.0,0.15,118
3.0,0.3,68
3.0,0.45,54
3.0,0.6,31
3.0,0.75,3
3.0,0.9,19
3.0,1.05,40
3.0,1.2,52
3.0,1.35,59
3.0,1.5,64
3.15,-1.5,71
3.15,-1.35,68
3.15,-1.2,60
3.15,-1.05,40
3.15,-0.9,0
3.15,-0.75,76
3.15,-0.6,104
3.15,-0.45,119
3.15,-0.3,92
3.15,-0.15,47
3.15,0.0,39
3.15,0.15,60
3.15,0.3,52
3.15,0.45,61
3.15,0.6,50
3.15,0.75,16
3.15,0.9,26
3.15,1.05,44
3.15,1.2,55
3.15,1.35,61
3.15,1.5,69
3.3,-1.5,71
3.3,-1.35,70
3.3,-1.2,67
3.3,-1.05,60
3.3,-0.9,52
3.3,-0.75,87
3.3,-0.6,93
3.3,-0.45,61
3.3,-0.3,40
3.3,-0.15,70
3.3,0.0,51
3.3,0.15,52
3.3,0.3,62
3.3,0.45,74
3.3,0.6,60
3.3,0.75,51
3.3,0.9,50
3.3,1.05,55
3.3,1.2,64
3.3,1.35,68
3.3,1.5,71
3.45,-1.5,64
3.45,-1.35,69
3.45,-1.2,71
3.45,-1.05,77
3.45,-0.9,92
3.45,-0.75,110
3.45,-0.6,145
3.45,-0.45,118
3.45,-0.3,59
3.45,-0.15,6
3.45,0.0,46
3.45,0.15,79
3.45,0.3,152
3.45,0.45,98
3.45,0.6,69
3.45,0.75,55
3.45,0.9,51
3.45,1.05,53
3.45,1.2,53
3.45,1.35,54
3.45,1.5,59
3.6,-1.5,58
3.6,-1.35,60
3.6,-1.2,65
3.6,-1.05,79
3.6,-0.9,102
3.6,-0.75,74
3.6,-0.6,93
3.6,-0.45,79
3.6,-0.3,118
3.6,-0.15,109
3.6,0.0,64
3.6,0.15,76
3.6,0.3,136
3.6,0.45,103
3.6,0.6,75
3.6,0.75,59
3.6,0.9,52
3.6,1.05,52
3.6,1.2,52
3.6,1.35,57
3.6,1.5,58
3.75,-1.5,47
3.75,-1.35,47
3.75,-1.2,49
3.75,-1.05,61
3.75,-0.9,70
3.75,-0.75,22
3.75,-0.6,48
3.75,-0.45,32
3.75,-0.3,65
3.75,-0.15,82
3.75,0.0,88
3.75,0.15,60
3.75,0.3,66
3.75,0.45,70
3.75,0.6,67
3.75,0.75,64
3.75,0.9,64
3.75,1.05,63
3.75,1.2,62
3.75,1.35,53
3.75,1.5,53
3.9,-1.5,42
3.9,-1.35,38
3.9,-1.2,27
3.9,-1.05,34
3.9,-0.9,51
3.9,-0.75,41
3.9,-0.6,16
3.9,-0.45,38
3.9,-0.3,104
3.9,-0.15,142
3.9,0.0,28
3.9,0.15,36
3.9,0.3,37
3.9,0.45,51
3.9,0.6,52
3.9,0.75,62
3.9,0.9,60
3.9,1.05,59
3.9,1.2,58
3.9,1.35,58
3.9,1.5,53
4.05,-1.5,35
4.05,-1.35,27
4.05,-1.2,8
4.05,-1.05,8
4.05,-0.9,36
4.05,-0.75,52
4.05,-0.6,109
4.05,-0.45,63
4.05,-0.3,89
4.05,-0.15,85
4.05,0.0,41
4.05,0.15,50
4.05,0.3,8
4.05,0.45,37
4.05,0.6,48
4.05,0.75,55
4.05,0.9,57
4.05,1.05,54
4.05,1.2,54
4.05,1.35,53
4.05,1.5,53
4.2,-1.5,34
4.2,-1.35,29
4.2,-1.2,20
4.2,-1.05,22
4.2,-0.9,12
4.2,-0.75,18
4.2,-0.6,60
4.2,-0.45,66
4.2,-0.3,23
4.2,-0.15,53
4.2,0.0,0
4.2,0.15,33
4.2,0.3,23
4.2,0.45,43
4.2,0.6,56
4.2,0.75,49
4.2,0.9,45
4.2,1.05,43
4.2,1.2,42
4.2,1.35,41
4.2,1.5,57
4.35,-1.5,34
4.35,-1.35,32
4.35,-1.2,34
4.35,-1.05,23
4.35,-0.9,23
4.35,-0.75,55
4.35,-0.6,47
4.35,-0.45,38
4.35,-0.3,117
4.35,-0.15,23
4.35,0.0,27
4.35,0.15,20
4.35,0.3,33
4.35,0.45,56
4.35,0.6,56
4.35,0.75,53
4.35,0.9,50
4.35,1.05,57
4.35,1.2,57
4.35,1.35,57
4.35,1.5,57
4.5,-1.5,40
4.5,-1.35,40
4.5,-1.2,52
4.5,-1.05,54
4.5,-0.9,71
4.5,-0.75,98
4.5,-0.6,121
4.5,-0.45,232
4.5,-0.3,1
4.5,-0.15,55
4.5,0.0,57
4.5,0.15,53
4.5,0.3,57
4.5,0.45,119
4.5,0.6,70
4.5,0.75,60
4.5,0.9,57
4.5,1.05,56
4.5,1.2,56
4.5,1.35,56
4.5,1.5,56
4.65,-1.5,39
4.65,-1.35,38
4.65,-1.2,34
4.65,-1.05,43
4.65,-0.9,62
4.65,-0.75,53
4.65,-0.6,100
4.65,-0.45,105
4.65,-0.3,57
4.65,-0.15,18
4.65,0.0,76
4.65,0.15,56
4.65,0.3,66
4.65,0.45,19
4.65,0.6,59
4.65,0.75,66
4.65,0.9,67
4.65,1.05,67
4.65,1.2,72
4.65,1.35,56
4.65,1.5,56
4.8,-1.5,43
4.8,-1.35,42
4.8,-1.2,37
4.8,-1.05,11
4.8,-0.9,35
4.8,-0.75,73
4.8,-0.6,65
4.8,-0.45,81
4.8,-0.3,81
4.8,-0.15,60
4.8,0.0,65
4.8,0.15,59
4.8,0.3,84
4.8,0.45,73
4.8,0.6,65
4.8,0.75,70
4.8,0.9,71
4.8,1.05,76
4.8,1.2,76
4.8,1.35,76
4.8,1.5,59
4.95,-1.5,46
4.95,-1.35,46
4.95,-1.2,46
4.95,-1.05,45
4.95,-0.9,42
4.95,-0.75,60
4.95,-0.6,71
4.95,-0.45,137
4.95,-0.3,109
4.95,-0.15,51
4.95,0.0,14
4.95,0.15,76
4.95,0.3,92
4.95,0.45,88
4.95,0.6,88
4.95,0.75,88
4.95,0.9,88
4.95,1.05,88
4.95,1.2,72
4.95,1.35,72
4.95,1.5,72
5.1,-1.5,37
5.1,-1.35,38
5.1,-1.2,45
5.1,-1.05,53
5.1,-0.9,63
5.1,-0.75,54
5.1,-0.6,90
5.1,-0.45,64
5.1,-0.3,255
5.1,-0.15,28
5.1,0.0,62
5.1,0.15,74
5.1,0.3,79
5.1,0.45,83
5.1,0.6,83
5.1,0.75,59
5.1,0.9,62
5.1,1.05,61
5.1,1.2,66
5.1,1.35,66
5.1,1.5,66
5.25,-1.5,37
5.25,-1.35,37
5.25,-1.2,44
5.25,-1.05,61
5.25,-0.9,66
5.25,-0.75,73
5.25,-0.6,108
5.25,-0.45,48
5.25,-0.3,37
5.25,-0.15,19
5.25,0.0,48
5.25,0.15,42
5.25,0.3,58
5.25,0.45,45
5.25,0.6,41
5.25,0.75,34
5.25,0.9,33
5.25,1.05,36
5.25,1.2,41
5.25,1.35,45
5.25,1.5,46
5.4,-1.5,25
5.4,-1.35,14
5.4,-1.2,27
5.4,-1.05,58
5.4,-0.9,75
5.4,-0.75,95
5.4,-0.6,194
5.4,-0.45,146
5.4,-0.3,126
5.4,-0.15,61
5.4,0.0,50
5.4,0.15,33
5.4,0.3,20
5.4,0.45,26
5.4,0.6,27
5.4,0.75,32
5.4,0.9,33
5.4,1.05,38
5.4,1.2,39
5.4,1.35,39
5.4,1.5,44
5.55,-1.5,20
5.55,-1.35,0
5.55,-1.2,11
5.55,-1.05,52
5.55,-0.9,66
5.55,-0.75,70
5.55,-0.6,73
5.55,-0.45,75
5.55,-0.3,60
5.55,-0.15,45
5.55,0.0,51
5.55,0.15,34
5.55,0.3,0
5.55,0.45,6
5.55,0.6,17
5.55,0.75,33
5.55,0.9,37
5.55,1.05,40
5.55,1.2,42
5.55,1.35,43
5.55,1.5,44
5.7,-1.5,39
5.7,-1.35,34
5.7,-1.2,46
5.7,-1.05,59
5.7,-0.9,60
5.7,-0.75,61
5.7,-0.6,37
5.7,-0.45,65
5.7,-0.3,53
5.7,-0.15,58
5.7,0.0,38
5.7,0.15,66
5.7,0.3,41
5.7,0.45,16
5.7,0.6,22
5.7,0.75,17
5.7,0.9,22
5.7,1.05,27
5.7,1.2,28
5.7,1.35,29
5.7,1.5,29
5.85,-1.5,51
5.85,-1.35,62
5.85,-1.2,70
5.85,-1.05,76
5.85,-0.9,75
5.85,-0.75,82
5.85,-0.6,85
5.85,-0.45,185
5.85,-0.3,61
5.85,-0.15,74
5.85,0.0,100
5.85,0.15,81
5.85,0.3,57
5.85,0.45,36
5.85,0.6,34
5.85,0.75,35
5.85,0.9,36
5.85,1.05,22
5.85,1.2,24
5.85,1.35,25
5.85,1.5,39
6.0,-1.5,68
6.0,-1.35,70
6.0,-1.2,71
6.0,-1.05,88
6.0,-0.9,81
6.0,-0.75,79
6.0,-0.6,28
6.0,-0.45,149
6.0,-0.3,22
6.0,-0.15,77
6.0,0.0,51
6.0,0.15,19
6.0,0.3,44
6.0,0.45,51
6.0,0.6,47
6.0,0.75,47
6.0,0.9,34
6.0,1.05,48
6.0,1.2,50
6.0,1.35,51
6.0,1.5,52
6.15,-1.5,73
6.15,-1.35,75
6.15,-1.2,88
6.15,-1.05,87
6.15,-0.9,89
6.15,-0.75,108
6.15,-0.6,93
6.15,-0.45,87
6.15,-0.3,238
6.15,-0.15,61
6.15,0.0,30
6.15,0.15,52
6.15,0.3,51
6.15,0.45,48
6.15,0.6,47
6.15,0.75,57
6.15,0.9,55
6.15,1.05,56
6.15,1.2,56
6.15,1.35,57
6.15,1.5,57
6.3,-1.5,92
6.3,-1.35,89
6.3,-1.2,87
6.3,-1.05,72
6.3,-0.9,58
6.3,-0.75,9
6.3,-0.6,33
6.3,-0.45,74
6.3,-0.3,186
6.3,-0.15,47
6.3,0.0,60
6.3,0.15,99
6.3,0.3,69
6.3,0.45,54
6.3,0.6,67
6.3,0.75,71
6.3,0.9,68
6.3,1.05,68
6.3,1.2,63
6.3,1.35,80
6.3,1.5,79
6.45,-1.5,109
6.45,-1.35,109
6.45,-1.2,107
6.45,-1.05,91
6.45,-0.9,75
6.45,-0.75,74
6.45,-0.6,203
6.45,-0.45,51
6.45,-0.3,44
6.45,-0.15,38
6.45,0.0,14
6.45,0.15,29
6.45,0.3,29
6.45,0.45,66
6.45,0.6,85
6.45,0.75,92
6.45,0.9,92
6.45,1.05,90
6.45,1.2,84
6.45,1.35,81
6.45,1.5,79
6.6,-1.5,77
6.6,-1.35,73
6.6,-1.2,73
6.6,-1.05,87
6.6,-0.9,97
6.6,-0.75,95
6.6,-0.6,50
6.6,-0.45,52
6.6,-0.3,92
6.6,-0.15,54
6.6,0.0,26
6.6,0.15,16
6.6,0.3,18
6.6,0.45,82
6.6,0.6,114
6.6,0.75,107
6.6,0.9,100
6.6,1.05,93
6.6,1.2,87
6.6,1.35,83
6.6,1.5,80
6.75,-1.5,73
6.75,-1.35,73
6.75,-1.2,73
6.75,-1.05,75
6.75,-0.9,88
6.75,-0.75,97
6.75,-0.6,95
6.75,-0.45,39
6.75,-0.3,39
6.75,-0.15,98
6.75,0.0,75
6.75,0.15,153
6.75,0.3,92
6.75,0.45,172
6.75,0.6,193
6.75,0.75,127
6.75,0.9,98
6.75,1.05,106
6.75,1.2,99
6.75,1.35,91
6.75,1.5,101
6.9,-1.5,75
6.9,-1.35,75
6.9,-1.2,75
6.9,-1.05,73
6.9,-0.9,95
6.9,-0.75,221
6.9,-0.6,23
6.9,-0.45,95
6.9,-0.3,83
6.9,-0.15,63
6.9,0.0,133
6.9,0.15,73
6.9,0.3,102
6.9,0.45,174
6.9,0.6,186
6.9,0.75,139
6.9,0.9,112
6.9,1.05,100
6.9,1.2,94
6.9,1.35,90
6.9,1.5,88
7.05,-1.5,69
7.05,-1.35,65
7.05,-1.2,56
7.05,-1.05,37
7.05,-0.9,37
7.05,-0.75,61
7.05,-0.6,79
7.05,-0.45,43
7.05,-0.3,39
7.05,-0.15,5
7.05,0.0,54
7.05,0.15,69
7.05,0.3,65
7.05,0.45,86
7.05,0.6,106
7.05,0.75,105
7.05,0.9,97
7.05,1.05,92
7.05,1.2,88
7.05,1.35,90
7.05,1.5,88
7.2,-1.5,66
7.2,-1.35,67
7.2,-1.2,62
7.2,-1.05,44
7.2,-0.9,23
7.2,-0.75,46
7.2,-0.6,84
7.2,-0.45,92
7.2,-0.3,61
7.2,-0.15,68
7.2,0.0,46
7.2,0.15,183
7.2,0.3,7
7.2,0.45,42
7.2,0.6,59
7.2,0.75,66
7.2,0.9,79
7.2,1.05,80
7.2,1.2,81
7.2,1.35,80
7.2,1.5,80
7.35,-1.5,66
7.35,-1.35,62
7.35,-1.2,70
7.35,-1.05,98
7.35,-0.9,81
7.35,-0.75,101
7.35,-0.6,56
7.35,-0.45,52
7.35,-0.3,60
7.35,-0.15,106
7.35,0.0,26
7.35,0.15,21
7.35,0.3,32
7.35,0.45,19
7.35,0.6,30
7.35,0.75,44
7.35,0.9,52
7.35,1.05,59
7.35,1.2,62
7.35,1.35,63
7.35,1.5,68
7.5,-1.5,64
7.5,-1.35,67
7.5,-1.2,69
7.5,-1.05,88
7.5,-0.9,83
7.5,-0.75,68
7.5,-0.6,67
7.5,-0.45,33
7.5,-0.3,63
7.5,-0.15,106
7.5,0.0,63
7.5,0.15,48
7.5,0.3,34
7.5,0.45,0
7.5,0.6,18
7.5,0.75,26
7.5,0.9,36
7.5,1.05,41
7.5,1.2,44
7.5,1.35,67
7.5,1.5,68
7.65,-1.5,66
7.65,-1.35,67
7.65,-1.2,67
7.65,-1.05,71
7.65,-0.9,2
7.65,-0.75,54
7.65,-0.6,117
7.65,-0.45,33
7.65,-0.3,42
7.65,-0.15,59
7.65,0.0,108
7.65,0.15,65
7.65,0.3,39
7.65,0.45,26
7.65,0.6,21
7.65,0.75,24
7.65,0.9,26
7.65,1.05,27
7.65,1.2,42
7.65,1.35,44
7.65,1.5,45
7.8,-1.5,67
7.8,-1.35,81
7.8,-1.2,78
7.8,-1.05,69
7.8,-0.9,70
7.8,-0.75,88
7.8,-0.6,98
7.8,-0.45,36
7.8,-0.3,7
7.8,-0.15,31
7.8,0.0,39
7.8,0.15,48
7.8,0.3,25
7.8,0.45,28
7.8,0.6,26
7.8,0.75,27
7.8,0.9,28
7.8,1.05,28
7.8,1.2,27
7.8,1.35,27
7.8,1.5,44
7.95,-1.5,71
7.95,-1.35,63
7.95,-1.2,65
7.95,-1.05,70
7.95,-0.9,94
7.95,-0.75,98
7.95,-0.6,56
7.95,-0.45,47
7.95,-0.3,40
7.95,-0.15,64
7.95,0.0,31
7.95,0.15,18
7.95,0.3,35
7.95,0.45,27
7.95,0.6,26
7.95,0.75,30
7.95,0.9,30
7.95,1.05,30
7.95,1.2,31
7.95,1.35,31
7.95,1.5,31
8.1,-1.5,62
8.1,-1.35,59
8.1,-1.2,58
8.1,-1.05,67
8.1,-0.9,78
8.1,-0.75,42
8.1,-0.6,48
8.1,-0.45,14
8.1,-0.3,30
8.1,-0.15,55
8.1,0.0,46
8.1,0.15,51
8.1,0.3,44
8.1,0.45,33
8.1,0.6,33
8.1,0.75,33
8.1,0.9,33
8.1,1.05,32
8.1,1.2,32
8.1,1.35,55
8.1,1.5,55
8.25,-1.5,57
8.25,-1.35,58
8.25,-1.2,54
8.25,-1.05,54
8.25,-0.9,54
8.25,-0.75,38
8.25,-0.6,22
8.25,-0.45,21
8.25,-0.3,56
8.25,-0.15,15
8.25,0.0,72
8.25,0.15,0
8.25,0.3,43
8.25,0.45,56
8.25,0.6,61
8.25,0.75,49
8.25,0.9,72
8.25,1.05,69
8.25,1.2,69
8.25,1.35,69
8.25,1.5,68
8.4,-1.5,56
8.4,-1.35,51
8.4,-1.2,50
8.4,-1.05,50
8.4,-0.9,50
8.4,-0.75,45
8.4,-0.6,29
8.4,-0.45,70
8.4,-0.3,163
8.4,-0.15,183
8.4,0.0,118
8.4,0.15,86
8.4,0.3,112
8.4,0.45,103
8.4,0.6,105
8.4,0.75,108
8.4,0.9,96
8.4,1.05,96
8.4,1.2,92
8.4,1.35,91
8.4,1.5,72
8.55,-1.5,68
8.55,-1.35,63
8.55,-1.2,54
8.55,-1.05,55
8.55,-0.9,55
8.55,-0.75,51
8.55,-0.6,105
8.55,-0.45,83
8.55,-0.3,1
8.55,-0.15,33
8.55,0.0,143
8.55,0.15,122
8.55,0.3,138
8.55,0.45,140
8.55,0.6,139
8.55,0.75,139
8.55,0.9,138
8.55,1.05,138
8.55,1.2,119
8.55,1.35,119
8.55,1.5,118
8.7,-1.5,85
8.7,-1.35,85
8.7,-1.2,76
8.7,-1.05,76
8.7,-0.9,88
8.7,-0.75,71
8.7,-0.6,59
8.7,-0.45,62
8.7,-0.3,23
8.7,-0.15,87
8.7,0.0,88
8.7,0.15,136
8.7,0.3,209
8.7,0.45,172
8.7,0.6,160
8.7,0.75,151
8.7,0.9,148
8.7,1.05,123
8.7,1.2,121
8.7,1.35,119
8.7,1.5,133
8.85,-1.5,73
8.85,-1.35,85
8.85,-1.2,85
8.85,-1.05,81
8.85,-0.9,85
8.85,-0.75,107
8.85,-0.6,218
8.85,-0.45,169
8.85,-0.3,80
8.85,-0.15,26
8.85,0.0,106
8.85,0.15,255
8.85,0.3,161
8.85,0.45,165
8.85,0.6,162
8.85,0.75,153
8.85,0.9,148
8.85,1.05,141
8.85,1.2,139
8.85,1.35,138
8.85,1.5,132
9.0,-1.5,86
9.0,-1.35,86
9.0,-1.2,84
9.0,-1.05,81
9.0,-0.9,65
9.0,-0.75,82
9.0,-0.6,75
9.0,-0.45,58
9.0,-0.3,74
9.0,-0.15,61
9.0,0.0,94
9.0,0.15,95
9.0,0.3,153
9.0,0.45,164
9.0,0.6,145
9.0,0.75,137
9.0,0.9,133
9.0,1.05,122
9.0,1.2,120
9.0,1.35,119
9.0,1.5,118
9.15,-1.5,95
9.15,-1.35,99
9.15,-1.2,97
9.15,-1.05,88
9.15,-0.9,83
9.15,-0.75,101
9.15,-0.6,86
9.15,-0.45,73
9.15,-0.3,33
9.15,-0.15,58
9.15,0.0,58
9.15,0.15,173
9.15,0.3,173
9.15,0.45,101
9.15,0.6,96
9.15,0.75,112
9.15,0.9,107
9.15,1.05,107
9.15,1.2,108
9.15,1.35,108
9.15,1.5,109
9.3,-1.5,88
9.3,-1.35,87
9.3,-1.2,90
9.3,-1.05,90
9.3,-0.9,89
9.3,-0.75,118
9.3,-0.6,165
9.3,-0.45,64
9.3,-0.3,18
9.3,-0.15,57
9.3,0.0,124
9.3,0.15,94
9.3,0.3,149
9.3,0.45,77
9.3,0.6,57
9.3,0.75,73
9.3,0.9,78
9.3,1.05,81
9.3,1.2,103
9.3,1.35,85
9.3,1.5,86
9.45,-1.5,72
9.45,-1.35,71
9.45,-1.2,80
9.45,-1.05,77
9.45,-0.9,76
9.45,-0.75,0
9.45,-0.6,101
9.45,-0.45,81
9.45,-0.3,77
9.45,-0.15,115
9.45,0.0,255
9.45,0.15,79
9.45,0.3,36
9.45,0.45,0
9.45,0.6,32
9.45,0.75,50
9.45,0.9,56
9.45,1.05,60
9.45,1.2,63
9.45,1.35,84
9.45,1.5,86
9.6,-1.5,53
9.6,-1.35,68
9.6,-1.2,65
9.6,-1.05,59
9.6,-0.9,53
9.6,-0.75,61
9.6,-0.6,115
9.6,-0.45,53
9.6,-0.3,37
9.6,-0.15,151
9.6,0.0,139
9.6,0.15,83
9.6,0.3,42
9.6,0.45,29
9.6,0.6,34
9.6,0.75,43
9.6,0.9,51
9.6,1.05,56
9.6,1.2,59
9.6,1.35,62
9.6,1.5,60
9.75,-1.5,51
9.75,-1.35,34
9.75,-1.2,29
9.75,-1.05,26
9.75,-0.9,10
9.75,-0.75,30
9.75,-0.6,75
9.75,-0.45,173
9.75,-0.3,54
9.75,-0.15,213
9.75,0.0,132
9.75,0.15,100
9.75,0.3,63
9.75,0.45,18
9.75,0.6,13
9.75,0.75,32
9.75,0.9,49
9.75,1.05,40
9.75,1.2,43
9.75,1.35,44
9.75,1.5,58
9.9,-1.5,15
9.9,-1.35,15
9.9,-1.2,11
9.9,-1.05,25
9.9,-0.9,33
9.9,-0.75,35
9.9,-0.6,0
9.9,-0.45,121
9.9,-0.3,103
9.9,-0.15,38
9.9,0.0,150
9.9,0.15,141
9.9,0.3,80
9.9,0.45,40
9.9,0.6,26
9.9,0.75,35
9.9,0.9,49
9.9,1.05,53
9.9,1.2,45
9.9,1.35,46
9.9,1.5,47
10.05,-1.5,37
10.05,-1.35,32
10.05,-1.2,31
10.05,-1.05,27
10.05,-0.9,27
10.05,-0.75,21
10.05,-0.6,11
10.05,-0.45,70
10.05,-0.3,227
10.05,-0.15,146
10.05,0.0,255
10.05,0.15,66
10.05,0.3,63
10.05,0.45,71
10.05,0.6,56
10.05,0.75,55
10.05,0.9,54
10.05,1.05,56
10.05,1.2,58
10.05,1.35,59
10.05,1.5,60
10.2,-1.5,45
10.2,-1.35,43
10.2,-1.2,41
10.2,-1.05,39
10.2,-0.9,45
10.2,-0.75,44
10.2,-0.6,58
10.2,-0.45,42
10.2,-0.3,104
10.2,-0.15,118
10.2,0.0,82
10.2,0.15,70
10.2,0.3,67
10.2,0.45,59
10.2,0.6,65
10.2,0.75,69
10.2,0.9,71
10.2,1.05,68
10.2,1.2,69
10.2,1.35,69
10.2,1.5,64
10.35,-1.5,45
10.35,-1.35,43
10.35,-1.2,37
10.35,-1.05,21
10.35,-0.9,24
10.35,-0.75,92
10.35,-0.6,114
10.35,-0.45,100
10.35,-0.3,192
10.35,-0.15,59
10.35,0.0,61
10.35,0.15,58
10.35,0.3,43
10.35,0.45,49
10.35,0.6,79
10.35,0.75,82
10.35,0.9,81
10.35,1.05,79
10.35,1.2,78
10.35,1.35,77
10.35,1.5,72
10.5,-1.5,107
10.5,-1.35,99
10.5,-1.2,85
10.5,-1.05,49
10.5,-0.9,46
10.5,-0.75,51
10.5,-0.6,94
10.5,-0.45,202
10.5,-0.3,37
10.5,-0.15,48
10.5,0.0,61
10.5,0.15,53
10.5,0.3,85
10.5,0.45,143
10.5,0.6,109
10.5,0.75,96
10.5,0.9,89
10.5,1.05,85
10.5,1.2,82
10.5,1.35,80
10.5,1.5,79
10.65,-1.5,124
10.65,-1.35,122
10.65,-1.2,120
10.65,-1.05,121
10.65,-0.9,147
10.65,-0.75,128
10.65,-0.6,15
10.65,-0.45,37
10.65,-0.3,75
10.65,-0.15,98
10.65,0.0,104
10.65,0.15,81
10.65,0.3,168
10.65,0.45,170
10.65,0.6,130
10.65,0.75,106
10.65,0.9,98
10.65,1.05,99
10.65,1.2,97
10.65,1.35,95
10.65,1.5,94
10.8,-1.5,137
10.8,-1.35,157
10.8,-1.2,164
10.8,-1.05,195
10.8,-0.9,207
10.8,-0.75,252
10.8,-0.6,235
10.8,-0.45,150
10.8,-0.3,103
10.8,-0.15,161
10.8,0.0,203
10.8,0.15,97
10.8,0.3,101
10.8,0.45,135
10.8,0.6,129
10.8,0.75,122
10.8,0.9,118
10.8,1.05,106
10.8,1.2,103
10.8,1.35,98
10.8,1.5,96
10.95,-1.5,175
10.95,-1.35,181
10.95,-1.2,193
10.95,-1.05,205
10.95,-0.9,251
10.95,-0.75,255
10.95,-0.6,255
10.95,-0.45,151
10.95,-0.3,155
10.95,-0.15,162
10.95,0.0,72
10.95,0.15,93
10.95,0.3,114
10.95,0.45,123
10.95,0.6,120
10.95,0.75,118
10.95,0.9,116
10.95,1.05,117
10.95,1.2,105
10.95,1.35,115
10.95,1.5,114
11.1,-1.5,177
11.1,-1.35,198
11.1,-1.2,206
11.1,-1.05,206
11.1,-0.9,220
11.1,-0.75,240
11.1,-0.6,210
11.1,-0.45,116
11.1,-0.3,52
11.1,-0.15,48
11.1,0.0,59
11.1,0.15,98
11.1,0.3,120
11.1,0.45,122
11.1,0.6,125
11.1,0.75,126
11.1,0.9,116
11.1,1.05,135
11.1,1.2,136
11.1,1.35,136
11.1,1.5,136
11.25,-1.5,189
11.25,-1.35,205
11.25,-1.2,190
11.25,-1.05,188
11.25,-0.9,180
11.25,-0.75,169
11.25,-0.6,240
11.25,-0.45,74
11.25,-0.3,59
11.25,-0.15,44
11.25,0.0,60
11.25,0.15,137
11.25,0.3,112
11.25,0.45,123
11.25,0.6,143
11.25,0.75,138
11.25,0.9,140
11.25,1.05,140
11.25,1.2,140
11.25,1.35,139
11.25,1.5,139
11.4,-1.5,181
11.4,-1.35,178
11.4,-1.2,174
11.4,-1.05,166
11.4,-0.9,130
11.4,-0.75,90
11.4,-0.6,128
11.4,-0.45,88
11.4,-0.3,72
11.4,-0.15,61
11.4,0.0,77
11.4,0.15,146
11.4,0.3,142
11.4,0.45,126
11.4,0.6,142
11.4,0.75,143
11.4,0.9,143
11.4,1.05,143
11.4,1.2,143
11.4,1.35,143
11.4,1.5,142
11.55,-1.5,166
11.55,-1.35,163
11.55,-1.2,139
11.55,-1.05,137
11.55,-0.9,129
11.55,-0.75,110
11.55,-0.6,4
11.55,-0.45,124
11.55,-0.3,102
11.55,-0.15,95
11.55,0.0,97
11.55,0.15,141
11.55,0.3,157
11.55,0.45,156
11.55,0.6,148
11.55,0.75,141
11.55,0.9,143
11.55,1.05,143
11.55,1.2,143
11.55,1.35,143
11.55,1.5,137
11.7,-1.5,125
11.7,-1.35,126
11.7,-1.2,127
11.7,-1.05,132
11.7,-0.9,154
11.7,-0.75,177
11.7,-0.6,99
11.7,-0.45,143
11.7,-0.3,145
11.7,-0.15,107
11.7,0.0,60
11.7,0.15,160
11.7,0.3,213
11.7,0.45,187
11.7,0.6,152
11.7,0.75,136
11.7,0.9,121
11.7,1.05,124
11.7,1.2,120
11.7,1.35,116
11.7,1.5,112
11.85,-1.5,125
11.85,-1.35,126
11.85,-1.2,128
11.85,-1.05,121
11.85,-0.9,143
11.85,-0.75,106
11.85,-0.6,104
11.85,-0.45,159
11.85,-0.3,255
11.85,-0.15,135
11.85,0.0,48
11.85,0.15,197
11.85,0.3,255
11.85,0.45,189
11.85,0.6,103
11.85,0.75,118
11.85,0.9,122
11.85,1.05,106
11.85,1.2,100
11.85,1.35,105
11.85,1.5,101
12.0,-1.5,111
12.0,-1.35,114
12.0,-1.2,117
12.0,-1.05,128
12.0,-0.9,147
12.0,-0.75,157
12.0,-0.6,129
12.0,-0.45,93
12.0,-0.3,138
12.0,-0.15,150
12.0,0.0,147
12.0,0.15,223
12.0,0.3,255
12.0,0.45,171
12.0,0.6,76
12.0,0.75,107
12.0,0.9,112
12.0,1.05,110
12.0,1.2,105
12.0,1.35,87
12.0,1.5,93
12.15,-1.5,107
12.15,-1.35,112
12.15,-1.2,128
12.15,-1.05,126
12.15,-0.9,150
12.15,-0.75,181
12.15,-0.6,167
12.15,-0.45,55
12.15,-0.3,113
12.15,-0.15,140
12.15,0.0,141
12.15,0.15,171
12.15,0.3,182
12.15,0.45,146
12.15,0.6,113
12.15,0.75,105
12.15,0.9,92
12.15,1.05,87
12.15,1.2,94
12.15,1.35,90
12.15,1.5,87
12.3,-1.5,115
12.3,-1.35,121
12.3,-1.2,116
12.3,-1.05,125
12.3,-0.9,131
12.3,-0.75,140
12.3,-0.6,153
12.3,-0.45,255
12.3,-0.3,174
12.3,-0.15,125
12.3,0.0,117
12.3,0.15,90
12.3,0.3,81
12.3,0.45,82
12.3,0.6,80
12.3,0.75,69
12.3,0.9,74
12.3,1.05,73
12.3,1.2,71
12.3,1.35,67
12.3,1.5,64
12.45,-1.5,93
12.45,-1.35,100
12.45,-1.2,108
12.45,-1.05,116
12.45,-0.9,115
12.45,-0.75,115
12.45,-0.6,130
12.45,-0.45,134
12.45,-0.3,70
12.45,-0.15,91
12.45,0.0,65
12.45,0.15,39
12.45,0.3,12
12.45,0.45,28
12.45,0.6,38
12.45,0.75,47
12.45,0.9,48
12.45,1.05,51
12.45,1.2,57
12.45,1.35,54
12.45,1.5,51
12.6,-1.5,74
12.6,-1.35,88
12.6,-1.2,100
12.6,-1.05,96
12.6,-0.9,92
12.6,-0.75,78
12.6,-0.6,100
12.6,-0.45,92
12.6,-0.3,67
12.6,-0.15,70
12.6,0.0,61
12.6,0.15,20
12.6,0.3,0
12.6,0.45,8
12.6,0.6,7
12.6,0.75,23
12.6,0.9,40
12.6,1.05,47
12.6,1.2,39
12.6,1.35,34
12.6,1.5,34
12.75,-1.5,45
12.75,-1.35,63
12.75,-1.2,88
12.75,-1.05,94
12.75,-0.9,94
12.75,-0.75,80
12.75,-0.6,119
12.75,-0.45,78
12.75,-0.3,72
12.75,-0.15,67
12.75,0.0,47
12.75,0.15,24
12.75,0.3,5
12.75,0.45,7
12.75,0.6,7
12.75,0.75,12
12.75,0.9,25
12.75,1.05,30
12.75,1.2,35
12.75,1.35,19
12.75,1.5,13
12.9,-1.5,6
12.9,-1.35,32
12.9,-1.2,75
12.9,-1.05,95
12.9,-0.9,111
12.9,-0.75,132
12.9,-0.6,159
12.9,-0.45,7
12.9,-0.3,66
12.9,-0.15,66
12.9,0.0,46
12.9,0.15,17
12.9,0.3,5
12.9,0.45,10
12.9,0.6,15
12.9,0.75,23
12.9,0.9,30
12.9,1.05,25
12.9,1.2,19
12.9,1.35,5
12.9,1.5,0
13.05,-1.5,0
13.05,-1.35,23
13.05,-1.2,65
13.05,-1.05,96
13.05,-0.9,119
13.05,-0.75,155
13.05,-0.6,204
13.05,-0.45,114
13.05,-0.3,82
13.05,-0.15,70
13.05,0.0,50
13.05,0.15,27
13.05,0.3,18
13.05,0.45,14
13.05,0.6,19
13.05,0.75,27
13.05,0.9,30
13.05,1.05,30
13.05,1.2,15
13.05,1.35,3
13.05,1.5,0
