-3.0,-1.5,0
-3.0,-1.35,3
-3.0,-1.2,27
-3.0,-1.05,59
-3.0,-0.9,90
-3.0,-0.75,117
-3.0,-0.6,140
-3.0,-0.45,157
-3.0,-0.3,169
-3.0,-0.15,172
-3.0,0.0,167
-3.0,0.15,155
-3.0,0.3,139
-3.0,0.45,122
-3.0,0.6,106
-3.0,0.75,88
-3.0,0.9,68
-3.0,1.05,50
-3.0,1.2,24
-3.0,1.35,3
-3.0,1.5,0
-2.85,-1.5,3
-2.85,-1.35,12
-2.85,-1.2,37
-2.85,-1.05,69
-2.85,-0.9,101
-2.85,-0.75,130
-2.85,-0.6,156
-2.85,-0.45,179
-2.85,-0.3,196
-2.85,-0.15,202
-2.85,0.0,193
-2.85,0.15,173
-2.85,0.3,150
-2.85,0.45,128
-2.85,0.6,110
-2.85,0.75,92
-2.85,0.9,79
-2.85,1.05,56
-2.85,1.2,31
-2.85,1.35,11
-2.85,1.5,2
-2.7,-1.5,24
-2.7,-1.35,34
-2.7,-1.2,57
-2.7,-1.05,85
-2.7,-0.9,115
-2.7,-0.75,143
-2.7,-0.6,173
-2.7,-0.45,204
-2.7,-0.3,234
-2.7,-0.15,247
-2.7,0.0,231
-2.7,0.15,195
-2.7,0.3,159
-2.7,0.45,131
-2.7,0.6,111
-2.7,0.75,101
-2.7,0.9,85
-2.7,1.05,66
-2.7,1.2,47
-2.7,1.35,30
-2.7,1.5,22
-2.55,-1.5,49
-2.55,-1.35,60
-2.55,-1.2,83
-2.55,-1.05,107
-2.55,-0.9,126
-2.55,-0.75,153
-2.55,-0.6,186
-2.55,-0.45,228
-2.55,-0.3,255
-2.55,-0.15,255
-2.55,0.0,255
-2.55,0.15,215
-2.55,0.3,160
-2.55,0.45,127
-2.55,0.6,113
-2.55,0.75,100
-2.55,0.9,88
-2.55,1.05,76
-2.55,1.2,62
-2.55,1.35,50
-2.55,1.5,48
-2.4,-1.5,70
-2.4,-1.35,80
-2.4,-1.2,95
-2.4,-1.05,119
-2.4,-0.9,139
-2.4,-0.75,162
-2.4,-0.6,192
-2.4,-0.45,236
-2.4,-0.3,255
-2.4,-0.15,255
-2.4,0.0,255
-2.4,0.15,211
-2.4,0.3,146
-2.4,0.45,116
-2.4,0.6,103
-2.4,0.75,96
-2.4,0.9,89
-2.4,1.05,82
-2.4,1.2,73
-2.4,1.35,66
-2.4,1.5,67
-2.25,-1.5,85
-2.25,-1.35,94
-2.25,-1.2,106
-2.25,-1.05,126
-2.25,-0.9,140
-2.25,-0.75,157
-2.25,-0.6,179
-2.25,-0.45,214
-2.25,-0.3,255
-2.25,-0.15,255
-2.25,0.0,255
-2.25,0.15,158
-2.25,0.3,101
-2.25,0.45,88
-2.25,0.6,88
-2.25,0.75,88
-2.25,0.9,86
-2.25,1.05,83
-2.25,1.2,80
-2.25,1.35,83
-2.25,1.5,80
-2.1,-1.5,95
-2.1,-1.35,102
-2.1,-1.2,111
-2.1,-1.05,121
-2.1,-0.9,138
-2.1,-0.75,148
-2.1,-0.6,159
-2.1,-0.45,174
-2.1,-0.3,189
-2.1,-0.15,189
-2.1,0.0,148
-2.1,0.15,79
-2.1,0.3,37
-2.1,0.45,54
-2.1,0.6,72
-2.1,0.75,80
-2.1,0.9,83
-2.1,1.05,83
-2.1,1.2,82
-2.1,1.35,89
-2.1,1.5,88
-1.95,-1.5,100
-1.95,-1.35,106
-1.95,-1.2,113
-1.95,-1.05,120
-1.95,-0.9,127
-1.95,-0.75,139
-1.95,-0.6,143
-1.95,-0.45,145
-1.95,-0.3,141
-1.95,-0.15,123
-1.95,0.0,99
-1.95,0.15,49
-1.95,0.3,0
-1.95,0.45,40
-1.95,0.6,65
-1.95,0.75,75
-1.95,0.9,79
-1.95,1.05,82
-1.95,1.2,91
-1.95,1.35,90
-1.95,1.5,91
-1.8,-1.5,103
-1.8,-1.35,107
-1.8,-1.2,113
-1.8,-1.05,118
-1.8,-0.9,123
-1.8,-0.75,127
-1.8,-0.6,134
-1.8,-0.45,133
-1.8,-0.3,129
-1.8,-0.15,106
-1.8,0.0,68
-1.8,0.15,79
-1.8,0.3,54
-1.8,0.45,59
-1.8,0.6,70
-1.8,0.75,72
-1.8,0.9,77
-1.8,1.05,80
-1.8,1.2,89
-1.8,1.35,92
-1.8,1.5,94
-1.65,-1.5,103
-1.65,-1.35,107
-1.65,-1.2,111
-1.65,-1.05,115
-1.65,-0.9,119
-1.65,-0.75,123
-1.65,-0.6,130
-1.65,-0.45,129
-1.65,-0.3,130
-1.65,-0.15,151
-1.65,0.0,147
-1.65,0.15,104
-1.65,0.3,67
-1.65,0.45,62
-1.65,0.6,67
-1.65,0.75,73
-1.65,0.9,81
-1.65,1.05,90
-1.65,1.2,86
-1.65,1.35,90
-1.65,1.5,94
-1.5,-1.5,103
-1.5,-1.35,106
-1.5,-1.2,109
-1.5,-1.05,112
-1.5,-0.9,116
-1.5,-0.75,125
-1.5,-0.6,127
-1.5,-0.45,129
-1.5,-0.3,132
-1.5,-0.15,191
-1.5,0.0,120
-1.5,0.15,85
-1.5,0.3,9
-1.5,0.45,50
-1.5,0.6,61
-1.5,0.75,67
-1.5,0.9,78
-1.5,1.05,88
-1.5,1.2,92
-1.5,1.35,97
-1.5,1.5,101
-1.35,-1.5,103
-1.35,-1.35,103
-1.35,-1.2,106
-1.35,-1.05,111
-1.35,-0.9,113
-1.35,-0.75,115
-1.35,-0.6,123
-1.35,-0.45,126
-1.35,-0.3,133
-1.35,-0.15,143
-1.35,0.0,117
-1.35,0.15,74
-1.35,0.3,29
-1.35,0.45,50
-1.35,0.6,62
-1.35,0.75,71
-1.35,0.9,84
-1.35,1.05,100
-1.35,1.2,110
-1.35,1.35,118
-1.35,1.5,123
-1.2,-1.5,103
-1.2,-1.35,103
-1.2,-1.2,105
-1.2,-1.05,106
-1.2,-0.9,107
-1.2,-0.75,109
-1.2,-0.6,110
-1.2,-0.45,118
-1.2,-0.3,117
-1.2,-0.15,110
-1.2,0.0,92
-1.2,0.15,57
-1.2,0.3,30
-1.2,0.45,50
-1.2,0.6,69
-1.2,0.75,87
-1.2,0.9,101
-1.2,1.05,114
-1.2,1.2,122
-1.2,1.35,129
-1.2,1.5,133
-1.05,-1.5,103
-1.05,-1.35,111
-1.05,-1.2,111
-1.05,-1.05,111
-1.05,-0.9,110
-1.05,-0.75,97
-1.05,-0.6,97
-1.05,-0.45,97
-1.05,-0.3,95
-1.05,-0.15,93
-1.05,0.0,75
-1.05,0.15,43
-1.05,0.3,0
-1.05,0.45,49
-1.05,0.6,89
-1.05,0.75,108
-1.05,0.9,121
-1.05,1.05,130
-1.05,1.2,136
-1.05,1.35,138
-1.05,1.5,120
-0.9,-1.5,124
-0.9,-1.35,123
-0.9,-1.2,121
-0.9,-1.05,114
-0.9,-0.9,113
-0.9,-0.75,112
-0.9,-0.6,111
-0.9,-0.45,108
-0.9,-0.3,103
-0.9,-0.15,93
-0.9,0.0,80
-0.9,0.15,66
-0.9,0.3,62
-0.9,0.45,91
-0.9,0.6,123
-0.9,0.75,139
-0.9,0.9,147
-0.9,1.05,152
-0.9,1.2,153
-0.9,1.35,135
-0.9,1.5,132
-0.75,-1.5,114
-0.75,-1.35,114
-0.75,-1.2,113
-0.75,-1.05,112
-0.75,-0.9,111
-0.75,-0.75,110
-0.75,-0.6,108
-0.75,-0.45,104
-0.75,-0.3,99
-0.75,-0.15,91
-0.75,0.0,77
-0.75,0.15,62
-0.75,0.3,100
-0.75,0.45,151
-0.75,0.6,176
-0.75,0.75,176
-0.75,0.9,177
-0.75,1.05,176
-0.75,1.2,172
-0.75,1.35,165
-0.75,1.5,159
-0.6,-1.5,106
-0.6,-1.35,106
-0.6,-1.2,112
-0.6,-1.05,111
-0.6,-0.9,109
-0.6,-0.75,107
-0.6,-0.6,105
-0.6,-0.45,99
-0.6,-0.3,95
-0.6,-0.15,90
-0.6,0.0,88
-0.6,0.15,89
-0.6,0.3,133
-0.6,0.45,216
-0.6,0.6,232
-0.6,0.75,203
-0.6,0.9,201
-0.6,1.05,198
-0.6,1.2,187
-0.6,1.35,170
-0.6,1.5,159
-0.45,-1.5,106
-0.45,-1.35,112
-0.45,-1.2,112
-0.45,-1.05,112
-0.45,-0.9,104
-0.45,-0.75,102
-0.45,-0.6,99
-0.45,-0.45,95
-0.45,-0.3,91
-0.45,-0.15,90
-0.45,0.0,85
-0.45,0.15,93
-0.45,0.3,153
-0.45,0.45,223
-0.45,0.6,238
-0.45,0.75,219
-0.45,0.9,239
-0.45,1.05,232
-0.45,1.2,202
-0.45,1.35,179
-0.45,1.5,163
-0.3,-1.5,108
-0.3,-1.35,106
-0.3,-1.2,104
-0.3,-1.05,102
-0.3,-0.9,93
-0.3,-0.75,91
-0.3,-0.6,89
-0.3,-0.45,86
-0.3,-0.3,78
-0.3,-0.15,76
-0.3,0.0,53
-0.3,0.15,18
-0.3,0.3,144
-0.3,0.45,223
-0.3,0.6,246
-0.3,0.75,217
-0.3,0.9,245
-0.3,1.05,236
-0.3,1.2,203
-0.3,1.35,180
-0.3,1.5,165
-0.15,-1.5,94
-0.15,-1.35,93
-0.15,-1.2,88
-0.15,-1.05,86
-0.15,-0.9,92
-0.15,-0.75,90
-0.15,-0.6,87
-0.15,-0.45,81
-0.15,-0.3,75
-0.15,-0.15,67
-0.15,0.0,58
-0.15,0.15,38
-0.15,0.3,164
-0.15,0.45,244
-0.15,0.6,191
-0.15,0.75,183
-0.15,0.9,196
-0.15,1.05,198
-0.15,1.2,183
-0.15,1.35,171
-0.15,1.5,161
0.0,-1.5,90
0.0,-1.35,103
0.0,-1.2,101
0.0,-1.05,99
0.0,-0.9,82
0.0,-0.75,90
0.0,-0.6,86
0.0,-0.45,81
0.0,-0.3,73
0.0,-0.15,62
0.0,0.0,66
0.0,0.15,89
0.0,0.3,124
0.0,0.45,114
0.0,0.6,84
0.0,0.75,123
0.0,0.9,150
0.0,1.05,162
0.0,1.2,162
0.0,1.35,158
0.0,1.5,153
0.15,-1.5,89
0.15,-1.35,89
0.15,-1.2,91
0.15,-1.05,89
0.15,-0.9,99
0.15,-0.75,97
0.15,-0.6,77
0.15,-0.45,73
0.15,-0.3,69
0.15,-0.15,66
0.15,0.0,70
0.15,0.15,84
0.15,0.3,83
0.15,0.45,37
0.15,0.6,11
0.15,0.75,81
0.15,0.9,117
0.15,1.05,133
0.15,1.2,140
0.15,1.35,142
0.15,1.5,139
0.3,-1.5,89
0.3,-1.35,89
0.3,-1.2,89
0.3,-1.05,89
0.3,-0.9,89
0.3,-0.75,99
0.3,-0.6,98
0.3,-0.45,88
0.3,-0.3,83
0.3,-0.15,75
0.3,0.0,75
0.3,0.15,75
0.3,0.3,70
0.3,0.45,60
0.3,0.6,60
0.3,0.75,81
0.3,0.9,102
0.3,1.05,113
0.3,1.2,121
0.3,1.35,125
0.3,1.5,127
0.45,-1.5,94
0.45,-1.35,95
0.45,-1.2,95
0.45,-1.05,91
0.45,-0.9,92
0.45,-0.75,92
0.45,-0.6,91
0.45,-0.45,89
0.45,-0.3,86
0.45,-0.15,83
0.45,0.0,80
0.45,0.15,77
0.45,0.3,69
0.45,0.45,62
0.45,0.6,63
0.45,0.75,77
0.45,0.9,85
0.45,1.05,101
0.45,1.2,108
0.45,1.35,113
0.45,1.5,117
0.6,-1.5,94
0.6,-1.35,95
0.6,-1.2,95
0.6,-1.05,97
0.6,-0.9,98
0.6,-0.75,99
0.6,-0.6,99
0.6,-0.45,95
0.6,-0.3,92
0.6,-0.15,93
0.6,0.0,90
0.6,0.15,89
0.6,0.3,63
0.6,0.45,31
0.6,0.6,71
0.6,0.75,78
0.6,0.9,73
0.6,1.05,82
0.6,1.2,86
0.6,1.35,90
0.6,1.5,93
0.75,-1.5,91
0.75,-1.35,91
0.75,-1.2,95
0.75,-1.05,97
0.75,-0.9,99
0.75,-0.75,101
0.75,-0.6,103
0.75,-0.45,102
0.75,-0.3,94
0.75,-0.15,88
0.75,0.0,85
0.75,0.15,105
0.75,0.3,83
0.75,0.45,35
0.75,0.6,118
0.75,0.75,83
0.75,0.9,73
0.75,1.05,69
0.75,1.2,70
0.75,1.35,68
0.75,1.5,70
0.9,-1.5,91
0.9,-1.35,91
0.9,-1.2,94
0.9,-1.05,96
0.9,-0.9,98
0.9,-0.75,101
0.9,-0.6,106
0.9,-0.45,109
0.9,-0.3,92
0.9,-0.15,79
0.9,0.0,64
0.9,0.15,64
0.9,0.3,74
0.9,0.45,62
0.9,0.6,73
0.9,0.75,74
0.9,0.9,70
0.9,1.05,57
0.9,1.2,51
0.9,1.35,34
0.9,1.5,32
1.05,-1.5,91
1.05,-1.35,91
1.05,-1.2,92
1.05,-1.05,93
1.05,-0.9,95
1.05,-0.75,99
1.05,-0.6,107
1.05,-0.45,121
1.05,-0.3,160
1.05,-0.15,146
1.05,0.0,122
1.05,0.15,93
1.05,0.3,57
1.05,0.45,51
1.05,0.6,57
1.05,0.75,61
1.05,0.9,62
1.05,1.05,53
1.05,1.2,49
1.05,1.35,48
1.05,1.5,39
1.2,-1.5,82
1.2,-1.35,83
1.2,-1.2,86
1.2,-1.05,87
1.2,-0.9,88
1.2,-0.75,90
1.2,-0.6,96
1.2,-0.45,110
1.2,-0.3,149
1.2,-0.15,131
1.2,0.0,241
1.2,0.15,109
1.2,0.3,22
1.2,0.45,14
1.2,0.6,37
1.2,0.75,46
1.2,0.9,57
1.2,1.05,53
1.2,1.2,53
1.2,1.35,53
1.2,1.5,51
1.35,-1.5,76
1.35,-1.35,80
1.35,-1.2,80
1.35,-1.05,79
1.35,-0.9,82
1.35,-0.75,80
1.35,-0.6,79
1.35,-0.45,78
1.35,-0.3,78
1.35,-0.15,69
1.35,0.0,92
1.35,0.15,73
1.35,0.3,12
1.35,0.45,9
1.35,0.6,40
1.35,0.75,47
1.35,0.9,48
1.35,1.05,50
1.35,1.2,50
1.35,1.35,50
1.35,1.5,50
1.5,-1.5,74
1.5,-1.35,73
1.5,-1.2,76
1.5,-1.05,75
1.5,-0.9,73
1.5,-0.75,69
1.5,-0.6,64
1.5,-0.45,42
1.5,-0.3,34
1.5,-0.15,67
1.5,0.0,77
1.5,0.15,77
1.5,0.3,79
1.5,0.45,67
1.5,0.6,56
1.5,0.75,50
1.5,0.9,47
1.5,1.05,49
1.5,1.2,49
1.5,1.35,61
1.5,1.5,79
1.65,-1.5,59
1.65,-1.35,59
1.65,-1.2,59
1.65,-1.05,58
1.65,-0.9,57
1.65,-0.75,54
1.65,-0.6,53
1.65,-0.45,54
1.65,-0.3,41
1.65,-0.15,55
1.65,0.0,67
1.65,0.15,66
1.65,0.3,210
1.65,0.45,128
1.65,0.6,60
1.65,0.75,50
1.65,0.9,55
1.65,1.05,63
1.65,1.2,65
1.65,1.35,68
1.65,1.5,70
1.8,-1.5,52
1.8,-1.35,52
1.8,-1.2,52
1.8,-1.05,51
1.8,-0.9,40
1.8,-0.75,45
1.8,-0.6,50
1.8,-0.45,53
1.8,-0.3,56
1.8,-0.15,57
1.8,0.0,67
1.8,0.15,66
1.8,0.3,86
1.8,0.45,94
1.8,0.6,17
1.8,0.75,57
1.8,0.9,58
1.8,1.05,59
1.8,1.2,64
1.8,1.35,70
1.8,1.5,66
1.95,-1.5,52
1.95,-1.35,51
1.95,-1.2,51
1.95,-1.05,40
1.95,-0.9,40
1.95,-0.75,40
1.95,-0.6,42
1.95,-0.45,46
1.95,-0.3,49
1.95,-0.15,46
1.95,0.0,43
1.95,0.15,18
1.95,0.3,23
1.95,0.45,124
1.95,0.6,51
1.95,0.75,48
1.95,0.9,28
1.95,1.05,35
1.95,1.2,53
1.95,1.35,62
1.95,1.5,66
2.1,-1.5,65
2.1,-1.35,65
2.1,-1.2,64
2.1,-1.05,51
2.1,-0.9,51
2.1,-0.75,50
2.1,-0.6,40
2.1,-0.45,40
2.1,-0.3,40
2.1,-0.15,22
2.1,0.0,42
2.1,0.15,52
2.1,0.3,31
2.1,0.45,72
2.1,0.6,70
2.1,0.75,56
2.1,0.9,1
2.1,1.05,25
2.1,1.2,44
2.1,1.35,50
2.1,1.5,52
2.25,-1.5,65
2.25,-1.35,64
2.25,-1.2,63
2.25,-1.05,62
2.25,-0.9,64
2.25,-0.75,50
2.25,-0.6,49
2.25,-0.45,49
2.25,-0.3,46
2.25,-0.15,24
2.25,0.0,54
2.25,0.15,2
2.25,0.3,43
2.25,0.45,83
2.25,0.6,65
2.25,0.75,94
2.25,0.9,80
2.25,1.05,57
2.25,1.2,58
2.25,1.35,59
2.25,1.5,59
2.4,-1.5,72
2.4,-1.35,71
2.4,-1.2,66
2.4,-1.05,65
2.4,-0.9,66
2.4,-0.75,62
2.4,-0.6,54
2.4,-0.45,44
2.4,-0.3,56
2.4,-0.15,56
2.4,0.0,54
2.4,0.15,9
2.4,0.3,53
2.4,0.45,73
2.4,0.6,83
2.4,0.75,187
2.4,0.9,112
2.4,1.05,79
2.4,1.2,70
2.4,1.35,67
2.4,1.5,66
2.55,-1.5,73
2.55,-1.35,73
2.55,-1.2,68
2.55,-1.05,67
2.55,-0.9,65
2.55,-0.75,59
2.55,-0.6,41
2.55,-0.45,3
2.55,-0.3,85
2.55,-0.15,73
2.55,0.0,62
2.55,0.15,140
2.55,0.3,177
2.55,0.45,84
2.55,0.6,55
2.55,0.75,79
2.55,0.9,87
2.55,1.05,79
2.55,1.2,74
2.55,1.35,63
2.55,1.5,62
2.7,-1.5,88
2.7,-1.35,88
2.7,-1.2,87
2.7,-1.05,87
2.7,-0.9,85
2.7,-0.75,67
2.7,-0.6,60
2.7,-0.45,63
2.7,-0.3,85
2.7,-0.15,64
2.7,0.0,188
2.7,0.15,74
2.7,0.3,74
2.7,0.45,38
2.7,0.6,45
2.7,0.75,17
2.7,0.9,60
2.7,1.05,69
2.7,1.2,74
2.7,1.35,48
2.7,1.5,46
2.85,-1.5,93
2.85,-1.35,93
2.85,-1.2,93
2.85,-1.05,98
2.85,-0.9,86
2.85,-0.75,88
2.85,-0.6,104
2.85,-0.45,138
2.85,-0.3,176
2.85,-0.15,25
2.85,0.0,21
2.85,0.15,43
2.85,0.3,21
2.85,0.45,99
2.85,0.6,93
2.85,0.75,67
2.85,0.9,87
2.85,1.05,92
2.85,1.2,82
2.85,1.35,65
2.85,1.5,65
3.0,-1.5,72
3.0,-1.35,73
3.0,-1.2,74
3.0,-1.05,75
3.0,-0.9,78
3.0,-0.75,82
3.0,-0.6,92
3.0,-0.45,111
3.0,-0.3,109
3.0,-0.15,1
3.0,0.0,62
3.0,0.15,21
3.0,0.3,23
3.0,0.45,146
3.0,0.6,130
3.0,0.75,102
3.0,0.9,87
3.0,1.05,80
3.0,1.2,92
3.0,1.35,93
3.0,1.5,95
3.15,-1.5,46
3.15,-1.35,47
3.15,-1.2,67
3.15,-1.05,68
3.15,-0.9,74
3.15,-0.75,75
3.15,-0.6,75
3.15,-0.45,71
3.15,-0.3,58
3.15,-0.15,62
3.15,0.0,44
3.15,0.15,21
3.15,0.3,68
3.15,0.45,181
3.15,0.6,159
3.15,0.75,20
3.15,0.9,76
3.15,1.05,79
3.15,1.2,82
3.15,1.35,85
3.15,1.5,65
3.3,-1.5,70
3.3,-1.35,70
3.3,-1.2,74
3.3,-1.05,49
3.3,-0.9,49
3.3,-0.75,48
3.3,-0.6,36
3.3,-0.45,41
3.3,-0.3,53
3.3,-0.15,51
3.3,0.0,77
3.3,0.15,52
3.3,0.3,58
3.3,0.45,89
3.3,0.6,118
3.3,0.75,72
3.3,0.9,45
3.3,1.05,46
3.3,1.2,45
3.3,1.35,51
3.3,1.5,55
3.45,-1.5,90
3.45,-1.35,74
3.45,-1.2,64
3.45,-1.05,63
3.45,-0.9,62
3.45,-0.75,59
3.45,-0.6,54
3.45,-0.45,34
3.45,-0.3,21
3.45,-0.15,50
3.45,0.0,26
3.45,0.15,77
3.45,0.3,70
3.45,0.45,81
3.45,0.6,101
3.45,0.75,41
3.45,0.9,0
3.45,1.05,23
3.45,1.2,42
3.45,1.35,52
3.45,1.5,57
3.6,-1.5,76
3.6,-1.35,76
3.6,-1.2,76
3.6,-1.05,80
3.6,-0.9,79
3.6,-0.75,68
3.6,-0.6,60
3.6,-0.45,59
3.6,-0.3,74
3.6,-0.15,101
3.6,0.0,112
3.6,0.15,121
3.6,0.3,123
3.6,0.45,115
3.6,0.6,114
3.6,0.75,52
3.6,0.9,21
3.6,1.05,29
3.6,1.2,39
3.6,1.35,56
3.6,1.5,57
3.75,-1.5,81
3.75,-1.35,81
3.75,-1.2,81
3.75,-1.05,81
3.75,-0.9,81
3.75,-0.75,80
3.75,-0.6,75
3.75,-0.45,30
3.75,-0.3,126
3.75,-0.15,101
3.75,0.0,189
3.75,0.15,111
3.75,0.3,38
3.75,0.45,137
3.75,0.6,77
3.75,0.75,81
3.75,0.9,69
3.75,1.05,64
3.75,1.2,61
3.75,1.35,61
3.75,1.5,56
3.9,-1.5,85
3.9,-1.35,85
3.9,-1.2,85
3.9,-1.05,84
3.9,-0.9,84
3.9,-0.75,82
3.9,-0.6,74
3.9,-0.45,9
3.9,-0.3,170
3.9,-0.15,83
3.9,0.0,135
3.9,0.15,81
3.9,0.3,240
3.9,0.45,158
3.9,0.6,50
3.9,0.75,58
3.9,0.9,76
3.9,1.05,75
3.9,1.2,60
3.9,1.35,56
3.9,1.5,56
4.05,-1.5,75
4.05,-1.35,75
4.05,-1.2,75
4.05,-1.05,74
4.05,-0.9,74
4.05,-0.75,76
4.05,-0.6,74
4.05,-0.45,83
4.05,-0.3,81
4.05,-0.15,71
4.05,0.0,216
4.05,0.15,61
4.05,0.3,108
4.05,0.45,90
4.05,0.6,85
4.05,0.75,80
4.05,0.9,87
4.05,1.05,80
4.05,1.2,69
4.05,1.35,69
4.05,1.5,69
4.2,-1.5,79
4.2,-1.35,78
4.2,-1.2,78
4.2,-1.05,76
4.2,-0.9,75
4.2,-0.75,54
4.2,-0.6,54
4.2,-0.45,48
4.2,-0.3,62
4.2,-0.15,65
4.2,0.0,61
4.2,0.15,63
4.2,0.3,83
4.2,0.45,128
4.2,0.6,72
4.2,0.75,87
4.2,0.9,78
4.2,1.05,57
4.2,1.2,55
4.2,1.35,48
4.2,1.5,38
4.35,-1.5,81
4.35,-1.35,81
4.35,-1.2,80
4.35,-1.05,79
4.35,-0.9,76
4.35,-0.75,59
4.35,-0.6,54
4.35,-0.45,42
4.35,-0.3,22
4.35,-0.15,49
4.35,0.0,78
4.35,0.15,121
4.35,0.3,173
4.35,0.45,69
4.35,0.6,88
4.35,0.75,96
4.35,0.9,83
4.35,1.05,65
4.35,1.2,58
4.35,1.35,57
4.35,1.5,66
4.5,-1.5,89
4.5,-1.35,89
4.5,-1.2,89
4.5,-1.05,92
4.5,-0.9,80
4.5,-0.75,73
4.5,-0.6,71
4.5,-0.45,67
4.5,-0.3,74
4.5,-0.15,81
4.5,0.0,62
4.5,0.15,139
4.5,0.3,149
4.5,0.45,68
4.5,0.6,56
4.5,0.75,94
4.5,0.9,96
4.5,1.05,69
4.5,1.2,59
4.5,1.35,69
4.5,1.5,77
4.65,-1.5,89
4.65,-1.35,89
4.65,-1.2,89
4.65,-1.05,90
4.65,-0.9,92
4.65,-0.75,99
4.65,-0.6,105
4.65,-0.45,109
4.65,-0.3,88
4.65,-0.15,37
4.65,0.0,62
4.65,0.15,159
4.65,0.3,87
4.65,0.45,219
4.65,0.6,207
4.65,0.75,160
4.65,0.9,80
4.65,1.05,6
4.65,1.2,30
4.65,1.35,51
4.65,1.5,62
4.8,-1.5,91
4.8,-1.35,92
4.8,-1.2,93
4.8,-1.05,95
4.8,-0.9,98
4.8,-0.75,105
4.8,-0.6,133
4.8,-0.45,255
4.8,-0.3,52
4.8,-0.15,95
4.8,0.0,160
4.8,0.15,47
4.8,0.3,107
4.8,0.45,61
4.8,0.6,164
4.8,0.75,131
4.8,0.9,79
4.8,1.05,34
4.8,1.2,36
4.8,1.35,56
4.8,1.5,69
4.95,-1.5,80
4.95,-1.35,80
4.95,-1.2,81
4.95,-1.05,82
4.95,-0.9,80
4.95,-0.75,84
4.95,-0.6,103
4.95,-0.45,116
4.95,-0.3,113
4.95,-0.15,8
4.95,0.0,88
4.95,0.15,69
4.95,0.3,241
4.95,0.45,42
4.95,0.6,85
4.95,0.75,59
4.95,0.9,65
4.95,1.05,60
4.95,1.2,57
4.95,1.35,60
4.95,1.5,69
5.1,-1.5,103
5.1,-1.35,102
5.1,-1.2,73
5.1,-1.05,64
5.1,-0.9,64
5.1,-0.75,64
5.1,-0.6,61
5.1,-0.45,37
5.1,-0.3,16
5.1,-0.15,131
5.1,0.0,132
5.1,0.15,45
5.1,0.3,42
5.1,0.45,90
5.1,0.6,75
5.1,0.75,43
5.1,0.9,59
5.1,1.05,63
5.1,1.2,79
5.1,1.35,81
5.1,1.5,84
5.25,-1.5,89
5.25,-1.35,89
5.25,-1.2,97
5.25,-1.05,95
5.25,-0.9,95
5.25,-0.75,88
5.25,-0.6,56
5.25,-0.45,39
5.25,-0.3,77
5.25,-0.15,133
5.25,0.0,45
5.25,0.15,92
5.25,0.3,11
5.25,0.45,205
5.25,0.6,125
5.25,0.75,84
5.25,0.9,71
5.25,1.05,71
5.25,1.2,69
5.25,1.35,68
5.25,1.5,67
5.4,-1.5,79
5.4,-1.35,79
5.4,-1.2,79
5.4,-1.05,97
5.4,-0.9,97
5.4,-0.75,87
5.4,-0.6,72
5.4,-0.45,60
5.4,-0.3,124
5.4,-0.15,58
5.4,0.0,54
5.4,0.15,56
5.4,0.3,87
5.4,0.45,0
5.4,0.6,75
5.4,0.75,79
5.4,0.9,77
5.4,1.05,75
5.4,1.2,64
5.4,1.35,63
5.4,1.5,63
5.55,-1.5,59
5.55,-1.35,65
5.55,-1.2,61
5.55,-1.05,63
5.55,-0.9,67
5.55,-0.75,78
5.55,-0.6,96
5.55,-0.45,140
5.55,-0.3,47
5.55,-0.15,63
5.55,0.0,132
5.55,0.15,16
5.55,0.3,105
5.55,0.45,85
5.55,0.6,49
5.55,0.75,68
5.55,0.9,68
5.55,1.05,54
5.55,1.2,63
5.55,1.35,73
5.55,1.5,73
5.7,-1.5,75
5.7,-1.35,60
5.7,-1.2,61
5.7,-1.05,63
5.7,-0.9,67
5.7,-0.75,77
5.7,-0.6,92
5.7,-0.45,111
5.7,-0.3,48
5.7,-0.15,147
5.7,0.0,42
5.7,0.15,105
5.7,0.3,53
5.7,0.45,28
5.7,0.6,105
5.7,0.75,103
5.7,0.9,108
5.7,1.05,116
5.7,1.2,118
5.7,1.35,120
5.7,1.5,101
5.85,-1.5,74
5.85,-1.35,75
5.85,-1.2,75
5.85,-1.05,77
5.85,-0.9,77
5.85,-0.75,77
5.85,-0.6,64
5.85,-0.45,58
5.85,-0.3,97
5.85,-0.15,142
5.85,0.0,131
5.85,0.15,18
5.85,0.3,70
5.85,0.45,175
5.85,0.6,114
5.85,0.75,84
5.85,0.9,101
5.85,1.05,111
5.85,1.2,117
5.85,1.35,118
5.85,1.5,104
6.0,-1.5,72
6.0,-1.35,77
6.0,-1.2,77
6.0,-1.05,77
6.0,-0.9,76
6.0,-0.75,76
6.0,-0.6,73
6.0,-0.45,58
6.0,-0.3,60
6.0,-0.15,65
6.0,0.0,26
6.0,0.15,115
6.0,0.3,59
6.0,0.45,74
6.0,0.6,221
6.0,0.75,95
6.0,0.9,94
6.0,1.05,99
6.0,1.2,79
6.0,1.35,79
6.0,1.5,79
6.15,-1.5,69
6.15,-1.35,69
6.15,-1.2,45
6.15,-1.05,46
6.15,-0.9,64
6.15,-0.75,67
6.15,-0.6,76
6.15,-0.45,149
6.15,-0.3,78
6.15,-0.15,37
6.15,0.0,52
6.15,0.15,14
6.15,0.3,241
6.15,0.45,85
6.15,0.6,62
6.15,0.75,65
6.15,0.9,64
6.15,1.05,63
6.15,1.2,66
6.15,1.35,66
6.15,1.5,66
6.3,-1.5,39
6.3,-1.35,39
6.3,-1.2,39
6.3,-1.05,39
6.3,-0.9,43
6.3,-0.75,42
6.3,-0.6,51
6.3,-0.45,25
6.3,-0.3,37
6.3,-0.15,134
6.3,0.0,92
6.3,0.15,81
6.3,0.3,124
6.3,0.45,0
6.3,0.6,41
6.3,0.75,51
6.3,0.9,61
6.3,1.05,58
6.3,1.2,58
6.3,1.35,57
6.3,1.5,65
6.45,-1.5,42
6.45,-1.35,37
6.45,-1.2,36
6.45,-1.05,35
6.45,-0.9,32
6.45,-0.75,37
6.45,-0.6,25
6.45,-0.45,27
6.45,-0.3,66
6.45,-0.15,63
6.45,0.0,46
6.45,0.15,89
6.45,0.3,2
6.45,0.45,43
6.45,0.6,51
6.45,0.75,57
6.45,0.9,54
6.45,1.05,54
6.45,1.2,54
6.45,1.35,65
6.45,1.5,65
6.6,-1.5,67
6.6,-1.35,65
6.6,-1.2,63
6.6,-1.05,59
6.6,-0.9,37
6.6,-0.75,22
6.6,-0.6,9
6.6,-0.45,28
6.6,-0.3,11
6.6,-0.15,68
6.6,0.0,143
6.6,0.15,44
6.6,0.3,67
6.6,0.45,9
6.6,0.6,53
6.6,0.75,65
6.6,0.9,63
6.6,1.05,63
6.6,1.2,54
6.6,1.35,54
6.6,1.5,54
6.75,-1.5,80
6.75,-1.35,79
6.75,-1.2,78
6.75,-1.05,67
6.75,-0.9,64
6.75,-0.75,51
6.75,-0.6,44
6.75,-0.45,8
6.75,-0.3,32
6.75,-0.15,23
6.75,0.0,50
6.75,0.15,41
6.75,0.3,26
6.75,0.45,132
6.75,0.6,83
6.75,0.75,71
6.75,0.9,61
6.75,1.05,61
6.75,1.2,65
6.75,1.35,66
6.75,1.5,66
6.9,-1.5,119
6.9,-1.35,119
6.9,-1.2,114
6.9,-1.05,114
6.9,-0.9,113
6.9,-0.75,102
6.9,-0.6,94
6.9,-0.45,76
6.9,-0.3,27
6.9,-0.15,14
6.9,0.0,16
6.9,0.15,33
6.9,0.3,112
6.9,0.45,105
6.9,0.6,62
6.9,0.75,71
6.9,0.9,81
6.9,1.05,72
6.9,1.2,72
6.9,1.35,71
6.9,1.5,66
7.05,-1.5,117
7.05,-1.35,118
7.05,-1.2,120
7.05,-1.05,123
7.05,-0.9,131
7.05,-0.75,129
7.05,-0.6,140
7.05,-0.45,139
7.05,-0.3,56
7.05,-0.15,13
7.05,0.0,158
7.05,0.15,69
7.05,0.3,23
7.05,0.45,37
7.05,0.6,43
7.05,0.75,68
7.05,0.9,64
7.05,1.05,60
7.05,1.2,60
7.05,1.35,72
7.05,1.5,72
7.2,-1.5,102
7.2,-1.35,104
7.2,-1.2,110
7.2,-1.05,113
7.2,-0.9,131
7.2,-0.75,141
7.2,-0.6,173
7.2,-0.45,217
7.2,-0.3,83
7.2,-0.15,148
7.2,0.0,70
7.2,0.15,19
7.2,0.3,15
7.2,0.45,71
7.2,0.6,28
7.2,0.75,68
7.2,0.9,56
7.2,1.05,72
7.2,1.2,72
7.2,1.35,72
7.2,1.5,72
7.35,-1.5,80
7.35,-1.35,80
7.35,-1.2,104
7.35,-1.05,104
7.35,-0.9,113
7.35,-0.75,112
7.35,-0.6,113
7.35,-0.45,117
7.35,-0.3,194
7.35,-0.15,38
7.35,0.0,0
7.35,0.15,104
7.35,0.3,0
7.35,0.45,64
7.35,0.6,0
7.35,0.75,26
7.35,0.9,43
7.35,1.05,55
7.35,1.2,59
7.35,1.35,60
7.35,1.5,60
7.5,-1.5,61
7.5,-1.35,61
7.5,-1.2,60
7.5,-1.05,63
7.5,-0.9,43
7.5,-0.75,42
7.5,-0.6,44
7.5,-0.45,29
7.5,-0.3,85
7.5,-0.15,44
7.5,0.0,7
7.5,0.15,139
7.5,0.3,54
7.5,0.45,53
7.5,0.6,28
7.5,0.75,62
7.5,0.9,26
7.5,1.05,55
7.5,1.2,59
7.5,1.35,59
7.5,1.5,59
7.65,-1.5,37
7.65,-1.35,37
7.65,-1.2,32
7.65,-1.05,32
7.65,-0.9,31
7.65,-0.75,30
7.65,-0.6,28
7.65,-0.45,32
7.65,-0.3,26
7.65,-0.15,18
7.65,0.0,59
7.65,0.15,7
7.65,0.3,61
7.65,0.45,64
7.65,0.6,129
7.65,0.75,196
7.65,0.9,73
7.65,1.05,61
7.65,1.2,60
7.65,1.35,60
7.65,1.5,46
7.8,-1.5,54
7.8,-1.35,53
7.8,-1.2,52
7.8,-1.05,51
7.8,-0.9,32
7.8,-0.75,36
7.8,-0.6,34
7.8,-0.45,28
7.8,-0.3,0
7.8,-0.15,58
7.8,0.0,59
7.8,0.15,37
7.8,0.3,58
7.8,0.45,45
7.8,0.6,93
7.8,0.75,41
7.8,0.9,38
7.8,1.05,50
7.8,1.2,59
7.8,1.35,60
7.8,1.5,60
7.95,-1.5,55
7.95,-1.35,55
7.95,-1.2,65
7.95,-1.05,66
7.95,-0.9,72
7.95,-0.75,90
7.95,-0.6,84
7.95,-0.45,51
7.95,-0.3,254
7.95,-0.15,45
7.95,0.0,2
7.95,0.15,19
7.95,0.3,75
7.95,0.45,45
7.95,0.6,70
7.95,0.75,10
7.95,0.9,15
7.95,1.05,31
7.95,1.2,40
7.95,1.35,44
7.95,1.5,46
8.1,-1.5,45
8.1,-1.35,65
8.1,-1.2,77
8.1,-1.05,77
8.1,-0.9,80
8.1,-0.75,87
8.1,-0.6,105
8.1,-0.45,97
8.1,-0.3,51
8.1,-0.15,89
8.1,0.0,74
8.1,0.15,44
8.1,0.3,42
8.1,0.45,78
8.1,0.6,27
8.1,0.75,27
8.1,0.9,19
8.1,1.05,27
8.1,1.2,30
8.1,1.35,28
8.1,1.5,30
8.25,-1.5,65
8.25,-1.35,65
8.25,-1.2,65
8.25,-1.05,62
8.25,-0.9,62
8.25,-0.75,66
8.25,-0.6,87
8.25,-0.45,143
8.25,-0.3,32
8.25,-0.15,78
8.25,0.0,99
8.25,0.15,20
8.25,0.3,48
8.25,0.45,43
8.25,0.6,67
8.25,0.75,36
8.25,0.9,37
8.25,1.05,25
8.25,1.2,21
8.25,1.35,21
8.25,1.5,12
8.4,-1.5,78
8.4,-1.35,73
8.4,-1.2,71
8.4,-1.05,69
8.4,-0.9,64
8.4,-0.75,54
8.4,-0.6,25
8.4,-0.45,61
8.4,-0.3,56
8.4,-0.15,83
8.4,0.0,224
8.4,0.15,10
8.4,0.3,13
8.4,0.45,30
8.4,0.6,0
8.4,0.75,43
8.4,0.9,28
8.4,1.05,23
8.4,1.2,17
8.4,1.35,17
8.4,1.5,12
8.55,-1.5,91
8.55,-1.35,90
8.55,-1.2,88
8.55,-1.05,84
8.55,-0.9,63
8.55,-0.75,55
8.55,-0.6,33
8.55,-0.45,69
8.55,-0.3,67
8.55,-0.15,90
8.55,0.0,18
8.55,0.15,60
8.55,0.3,69
8.55,0.45,132
8.55,0.6,58
8.55,0.75,28
8.55,0.9,29
8.55,1.05,30
8.55,1.2,26
8.55,1.35,22
8.55,1.5,21
8.7,-1.5,91
8.7,-1.35,76
8.7,-1.2,75
8.7,-1.05,74
8.7,-0.9,72
8.7,-0.75,72
8.7,-0.6,72
8.7,-0.45,72
8.7,-0.3,57
8.7,-0.15,11
8.7,0.0,0
8.7,0.15,67
8.7,0.3,71
8.7,0.45,136
8.7,0.6,60
8.7,0.75,3
8.7,0.9,29
8.7,1.05,22
8.7,1.2,32
8.7,1.35,32
8.7,1.5,31
8.85,-1.5,75
8.85,-1.35,75
8.85,-1.2,74
8.85,-1.05,60
8.85,-0.9,73
8.85,-0.75,62
8.85,-0.6,46
8.85,-0.45,30
8.85,-0.3,12
8.85,-0.15,52
8.85,0.0,22
8.85,0.15,19
8.85,0.3,10
8.85,0.45,25
8.85,0.6,47
8.85,0.75,34
8.85,0.9,22
8.85,1.05,30
8.85,1.2,31
8.85,1.35,32
8.85,1.5,32
9.0,-1.5,73
9.0,-1.35,73
9.0,-1.2,73
9.0,-1.05,77
9.0,-0.9,77
9.0,-0.75,62
9.0,-0.6,94
9.0,-0.45,146
9.0,-0.3,151
9.0,-0.15,33
9.0,0.0,56
9.0,0.15,189
9.0,0.3,40
9.0,0.45,34
9.0,0.6,0
9.0,0.75,95
9.0,0.9,43
9.0,1.05,42
9.0,1.2,41
9.0,1.35,42
9.0,1.5,32
9.15,-1.5,77
9.15,-1.35,77
9.15,-1.2,77
9.15,-1.05,77
9.15,-0.9,63
9.15,-0.75,58
9.15,-0.6,71
9.15,-0.45,80
9.15,-0.3,60
9.15,-0.15,46
9.15,0.0,84
9.15,0.15,143
9.15,0.3,78
9.15,0.45,50
9.15,0.6,68
9.15,0.75,79
9.15,0.9,33
9.15,1.05,41
9.15,1.2,44
9.15,1.35,45
9.15,1.5,51
9.3,-1.5,75
9.3,-1.35,75
9.3,-1.2,75
9.3,-1.05,75
9.3,-0.9,77
9.3,-0.75,71
9.3,-0.6,29
9.3,-0.45,17
9.3,-0.3,52
9.3,-0.15,130
9.3,0.0,200
9.3,0.15,184
9.3,0.3,156
9.3,0.45,134
9.3,0.6,96
9.3,0.75,1
9.3,0.9,33
9.3,1.05,65
9.3,1.2,76
9.3,1.35,77
9.3,1.5,77
9.45,-1.5,75
9.45,-1.35,75
9.45,-1.2,79
9.45,-1.05,85
9.45,-0.9,99
9.45,-0.75,147
9.45,-0.6,43
9.45,-0.45,43
9.45,-0.3,71
9.45,-0.15,75
9.45,0.0,85
9.45,0.15,121
9.45,0.3,94
9.45,0.45,64
9.45,0.6,90
9.45,0.75,109
9.45,0.9,85
9.45,1.05,69
9.45,1.2,77
9.45,1.35,77
9.45,1.5,77
9.6,-1.5,112
9.6,-1.35,112
9.6,-1.2,102
9.6,-1.05,105
9.6,-0.9,115
9.6,-0.75,138
9.6,-0.6,75
9.6,-0.45,62
9.6,-0.3,65
9.6,-0.15,0
9.6,0.0,21
9.6,0.15,121
9.6,0.3,54
9.6,0.45,34
9.6,0.6,44
9.6,0.75,215
9.6,0.9,113
9.6,1.05,79
9.6,1.2,73
9.6,1.35,69
9.6,1.5,69
9.75,-1.5,128
9.75,-1.35,128
9.75,-1.2,116
9.75,-1.05,118
9.75,-0.9,122
9.75,-0.75,117
9.75,-0.6,90
9.75,-0.45,151
9.75,-0.3,114
9.75,-0.15,175
9.75,0.0,24
9.75,0.15,52
9.75,0.3,55
9.75,0.45,52
9.75,0.6,69
9.75,0.75,18
9.75,0.9,83
9.75,1.05,68
9.75,1.2,69
9.75,1.35,75
9.75,1.5,69
9.9,-1.5,135
9.9,-1.35,135
9.9,-1.2,135
9.9,-1.05,134
9.9,-0.9,136
9.9,-0.75,134
9.9,-0.6,138
9.9,-0.45,243
9.9,-0.3,129
9.9,-0.15,107
9.9,0.0,100
9.9,0.15,25
9.9,0.3,43
9.9,0.45,131
9.9,0.6,77
9.9,0.75,89
9.9,0.9,68
9.9,1.05,72
9.9,1.2,75
9.9,1.35,80
9.9,1.5,79
10.05,-1.5,136
10.05,-1.35,154
10.05,-1.2,152
10.05,-1.05,150
10.05,-0.9,149
10.05,-0.75,147
10.05,-0.6,144
10.05,-0.45,161
10.05,-0.3,127
10.05,-0.15,47
10.05,0.0,190
10.05,0.15,57
10.05,0.3,41
10.05,0.45,109
10.05,0.6,93
10.05,0.75,81
10.05,0.9,61
10.05,1.05,59
10.05,1.2,59
10.05,1.35,63
10.05,1.5,87
10.2,-1.5,154
10.2,-1.35,154
10.2,-1.2,169
10.2,-1.05,149
10.2,-0.9,132
10.2,-0.75,99
10.2,-0.6,76
10.2,-0.45,102
10.2,-0.3,169
10.2,-0.15,32
10.2,0.0,30
10.2,0.15,31
10.2,0.3,9
10.2,0.45,10
10.2,0.6,29
10.2,0.75,104
10.2,0.9,54
10.2,1.05,61
10.2,1.2,64
10.2,1.35,59
10.2,1.5,59
10.35,-1.5,154
10.35,-1.35,140
10.35,-1.2,120
10.35,-1.05,120
10.35,-0.9,110
10.35,-0.75,124
10.35,-0.6,217
10.35,-0.45,97
10.35,-0.3,47
10.35,-0.15,25
10.35,0.0,21
10.35,0.15,43
10.35,0.3,52
10.35,0.45,23
10.35,0.6,49
10.35,0.75,59
10.35,0.9,50
10.35,1.05,58
10.35,1.2,60
10.35,1.35,64
10.35,1.5,64
10.5,-1.5,109
10.5,-1.35,128
10.5,-1.2,129
10.5,-1.05,131
10.5,-0.9,122
10.5,-0.75,115
10.5,-0.6,130
10.5,-0.45,78
10.5,-0.3,61
10.5,-0.15,55
10.5,0.0,46
10.5,0.15,83
10.5,0.3,120
10.5,0.45,120
10.5,0.6,38
10.5,0.75,89
10.5,0.9,94
10.5,1.05,89
10.5,1.2,102
10.5,1.35,84
10.5,1.5,84
10.65,-1.5,126
10.65,-1.35,127
10.65,-1.2,128
10.65,-1.05,130
10.65,-0.9,133
10.65,-0.75,125
10.65,-0.6,141
10.65,-0.45,115
10.65,-0.3,123
10.65,-0.15,139
10.65,0.0,46
10.65,0.15,70
10.65,0.3,37
10.65,0.45,107
10.65,0.6,110
10.65,0.75,206
10.65,0.9,129
10.65,1.05,118
10.65,1.2,111
10.65,1.35,87
10.65,1.5,85
10.8,-1.5,116
10.8,-1.35,121
10.8,-1.2,122
10.8,-1.05,124
10.8,-0.9,138
10.8,-0.75,138
10.8,-0.6,165
10.8,-0.45,178
10.8,-0.3,172
10.8,-0.15,115
10.8,0.0,130
10.8,0.15,106
10.8,0.3,142
10.8,0.45,142
10.8,0.6,114
10.8,0.75,142
10.8,0.9,139
10.8,1.05,130
10.8,1.2,121
10.8,1.35,120
10.8,1.5,107
10.95,-1.5,103
10.95,-1.35,122
10.95,-1.2,122
10.95,-1.05,126
10.95,-0.9,124
10.95,-0.75,116
10.95,-0.6,147
10.95,-0.45,255
10.95,-0.3,223
10.95,-0.15,253
10.95,0.0,165
10.95,0.15,212
10.95,0.3,184
10.95,0.45,255
10.95,0.6,154
10.95,0.75,208
10.95,0.9,179
10.95,1.05,140
10.95,1.2,135
10.95,1.35,108
10.95,1.5,99
11.1,-1.5,116
11.1,-1.35,92
11.1,-1.2,96
11.1,-1.05,95
11.1,-0.9,97
11.1,-0.75,88
11.1,-0.6,37
11.1,-0.45,84
11.1,-0.3,142
11.1,-0.15,228
11.1,0.0,148
11.1,0.15,205
11.1,0.3,129
11.1,0.45,181
11.1,0.6,144
11.1,0.75,175
11.1,0.9,159
11.1,1.05,145
11.1,1.2,137
11.1,1.35,130
11.1,1.5,130
11.25,-1.5,82
11.25,-1.35,81
11.25,-1.2,78
11.25,-1.05,55
11.25,-0.9,53
11.25,-0.75,51
11.25,-0.6,58
11.25,-0.45,181
11.25,-0.3,70
11.25,-0.15,33
11.25,0.0,89
11.25,0.15,165
11.25,0.3,178
11.25,0.45,138
11.25,0.6,53
11.25,0.75,62
11.25,0.9,106
11.25,1.05,121
11.25,1.2,122
11.25,1.35,126
11.25,1.5,129
11.4,-1.5,82
11.4,-1.35,79
11.4,-1.2,76
11.4,-1.05,49
11.4,-0.9,45
11.4,-0.75,27
11.4,-0.6,33
11.4,-0.45,37
11.4,-0.3,29
11.4,-0.15,44
11.4,0.0,60
11.4,0.15,125
11.4,0.3,208
11.4,0.45,184
11.4,0.6,74
11.4,0.75,79
11.4,0.9,94
11.4,1.05,97
11.4,1.2,100
11.4,1.35,101
11.4,1.5,100
11.55,-1.5,57
11.55,-1.35,57
11.55,-1.2,56
11.55,-1.05,55
11.55,-0.9,53
11.55,-0.75,33
11.55,-0.6,17
11.55,-0.45,14
11.55,-0.3,70
11.55,-0.15,72
11.55,0.0,16
11.55,0.15,93
11.55,0.3,246
11.55,0.45,167
11.55,0.6,120
11.55,0.75,83
11.55,0.9,104
11.55,1.05,96
11.55,1.2,103
11.55,1.35,97
11.55,1.5,95
11.7,-1.5,48
11.7,-1.35,48
11.7,-1.2,50
11.7,-1.05,52
11.7,-0.9,61
11.7,-0.75,56
11.7,-0.6,52
11.7,-0.45,40
11.7,-0.3,12
11.7,-0.15,61
11.7,0.0,39
11.7,0.15,65
11.7,0.3,116
11.7,0.45,97
11.7,0.6,129
11.7,0.75,193
11.7,0.9,165
11.7,1.05,107
11.7,1.2,91
11.7,1.35,81
11.7,1.5,99
11.85,-1.5,48
11.85,-1.35,50
11.85,-1.2,54
11.85,-1.05,59
11.85,-0.9,77
11.85,-0.75,111
11.85,-0.6,255
11.85,-0.45,50
11.85,-0.3,68
11.85,-0.15,115
11.85,0.0,75
11.85,0.15,69
11.85,0.3,94
11.85,0.45,59
11.85,0.6,17
11.85,0.75,62
11.85,0.9,99
11.85,1.05,104
11.85,1.2,101
11.85,1.35,99
11.85,1.5,98
12.0,-1.5,47
12.0,-1.35,50
12.0,-1.2,54
12.0,-1.05,63
12.0,-0.9,72
12.0,-0.75,89
12.0,-0.6,94
12.0,-0.45,66
12.0,-0.3,89
12.0,-0.15,159
12.0,0.0,116
12.0,0.15,72
12.0,0.3,54
12.0,0.45,38
12.0,0.6,27
12.0,0.75,8
12.0,0.9,57
12.0,1.05,85
12.0,1.2,92
12.0,1.35,93
12.0,1.5,93
12.15,-1.5,43
12.15,-1.35,46
12.15,-1.2,50
12.15,-1.05,52
12.15,-0.9,57
12.15,-0.75,57
12.15,-0.6,43
12.15,-0.45,47
12.15,-0.3,92
12.15,-0.15,180
12.15,0.0,20
12.15,0.15,80
12.15,0.3,12
12.15,0.45,9
12.15,0.6,28
12.15,0.75,38
12.15,0.9,63
12.15,1.05,68
12.15,1.2,68
12.15,1.35,68
12.15,1.5,85
12.3,-1.5,43
12.3,-1.35,45
12.3,-1.2,48
12.3,-1.05,52
12.3,-0.9,48
12.3,-0.75,39
12.3,-0.6,24
12.3,-0.45,5
12.3,-0.3,31
12.3,-0.15,195
12.3,0.0,156
12.3,0.15,87
12.3,0.3,88
12.3,0.45,39
12.3,0.6,30
12.3,0.75,39
12.3,0.9,115
12.3,1.05,82
12.3,1.2,83
12.3,1.35,80
12.3,1.5,77
12.45,-1.5,60
12.45,-1.35,69
12.45,-1.2,74
12.45,-1.05,76
12.45,-0.9,51
12.45,-0.75,46
12.45,-0.6,43
12.45,-0.45,22
12.45,-0.3,31
12.45,-0.15,120
12.45,0.0,212
12.45,0.15,93
12.45,0.3,51
12.45,0.45,11
12.45,0.6,0
12.45,0.75,51
12.45,0.9,94
12.45,1.05,83
12.45,1.2,75
12.45,1.35,67
12.45,1.5,60
12.6,-1.5,62
12.6,-1.35,51
12.6,-1.2,62
12.6,-1.05,75
12.6,-0.9,80
12.6,-0.75,82
12.6,-0.6,83
12.6,-0.45,72
12.6,-0.3,47
12.6,-0.15,61
12.6,0.0,96
12.6,0.15,88
12.6,0.3,43
12.6,0.45,28
12.6,0.6,18
12.6,0.75,20
12.6,0.9,67
12.6,1.05,83
12.6,1.2,79
12.6,1.35,68
12.6,1.5,57
12.75,-1.5,28
12.75,-1.35,42
12.75,-1.2,61
12.75,-1.05,77
12.75,-0.9,89
12.75,-0.75,99
12.75,-0.6,116
12.75,-0.45,166
12.75,-0.3,73
12.75,-0.15,61
12.75,0.0,49
12.75,0.15,44
12.75,0.3,54
12.75,0.45,72
12.75,0.6,9
12.75,0.75,64
12.75,0.9,120
12.75,1.05,118
12.75,1.2,83
12.75,1.35,57
12.75,1.5,39
12.9,-1.5,2
12.9,-1.35,19
12.9,-1.2,55
12.9,-1.05,80
12.9,-0.9,102
12.9,-0.75,107
12.9,-0.6,113
12.9,-0.45,105
12.9,-0.3,83
12.9,-0.15,84
12.9,0.0,24
12.9,0.15,18
12.9,0.3,53
12.9,0.45,83
12.9,0.6,41
12.9,0.75,104
12.9,0.9,255
12.9,1.05,156
12.9,1.2,95
12.9,1.35,41
12.9,1.5,8
13.05,-1.5,0
13.05,-1.35,16
13.05,-1.2,54
13.05,-1.05,81
13.05,-0.9,95
13.05,-0.75,104
13.05,-0.6,105
13.05,-0.45,100
13.05,-0.3,88
13.05,-0.15,81
13.05,0.0,48
13.05,0.15,38
13.05,0.3,58
13.05,0.45,53
13.05,0.6,56
13.05,0.75,96
13.05,0.9,159
13.05,1.05,134
13.05,1.2,87
13.05,1.35,31
13.05,1.5,0
