-3.0,-1.5,0
-3.0,-1.35,15
-3.0,-1.2,41
-3.0,-1.05,48
-3.0,-0.9,51
-3.0,-0.75,53
-3.0,-0.6,53
-3.0,-0.45,57
-3.0,-0.3,73
-3.0,-0.15,89
-3.0,0.0,98
-3.0,0.15,92
-3.0,0.3,82
-3.0,0.45,75
-3.0,0.6,82
-3.0,0.75,94
-3.0,0.9,84
-3.0,1.05,64
-3.0,1.2,39
-3.0,1.35,10
-3.0,1.5,0
-2.85,-1.5,13
-2.85,-1.35,30
-2.85,-1.2,48
-2.85,-1.05,50
-2.85,-0.9,50
-2.85,-0.75,52
-2.85,-0.6,51
-2.85,-0.45,53
-2.85,-0.3,67
-2.85,-0.15,101
-2.85,0.0,127
-2.85,0.15,106
-2.85,0.3,80
-2.85,0.45,63
-2.85,0.6,63
-2.85,0.75,133
-2.85,0.9,93
-2.85,1.05,68
-2.85,1.2,45
-2.85,1.35,20
-2.85,1.5,7
-2.7,-1.5,37
-2.7,-1.35,44
-2.7,-1.2,50
-2.7,-1.05,52
-2.7,-0.9,49
-2.7,-0.75,50
-2.7,-0.6,52
-2.7,-0.45,52
-2.7,-0.3,69
-2.7,-0.15,111
-2.7,0.0,188
-2.7,0.15,96
-2.7,0.3,72
-2.7,0.45,63
-2.7,0.6,84
-2.7,0.75,118
-2.7,0.9,81
-2.7,1.05,65
-2.7,1.2,51
-2.7,1.35,35
-2.7,1.5,25
-2.55,-1.5,49
-2.55,-1.35,55
-2.55,-1.2,56
-2.55,-1.05,53
-2.55,-0.9,48
-2.55,-0.75,49
-2.55,-0.6,54
-2.55,-0.45,53
-2.55,-0.3,76
-2.55,-0.15,94
-2.55,0.0,113
-2.55,0.15,75
-2.55,0.3,61
-2.55,0.45,63
-2.55,0.6,46
-2.55,0.75,27
-2.55,0.9,49
-2.55,1.05,55
-2.55,1.2,50
-2.55,1.35,43
-2.55,1.5,37
-2.4,-1.5,60
-2.4,-1.35,62
-2.4,-1.2,60
-2.4,-1.05,52
-2.4,-0.9,32
-2.4,-0.75,9
-2.4,-0.6,47
-2.4,-0.45,65
-2.4,-0.3,73
-2.4,-0.15,74
-2.4,0.0,68
-2.4,0.15,57
-2.4,0.3,57
-2.4,0.45,57
-2.4,0.6,31
-2.4,0.75,9
-2.4,0.9,35
-2.4,1.05,46
-2.4,1.2,48
-2.4,1.35,45
-2.4,1.5,42
-2.25,-1.5,69
-2.25,-1.35,74
-2.25,-1.2,74
-2.25,-1.05,66
-2.25,-0.9,44
-2.25,-0.75,27
-2.25,-0.6,53
-2.25,-0.45,79
-2.25,-0.3,77
-2.25,-0.15,60
-2.25,0.0,60
-2.25,0.15,59
-2.25,0.3,59
-2.25,0.45,58
-2.25,0.6,49
-2.25,0.75,35
-2.25,0.9,39
-2.25,1.05,44
-2.25,1.2,46
-2.25,1.35,36
-2.25,1.5,34
-2.1,-1.5,78
-2.1,-1.35,86
-2.1,-1.2,96
-2.1,-1.05,101
-2.1,-0.9,74
-2.1,-0.75,51
-2.1,-0.6,72
-2.1,-0.45,92
-2.1,-0.3,94
-2.1,-0.15,78
-2.1,0.0,61
-2.1,0.15,56
-2.1,0.3,60
-2.1,0.45,60
-2.1,0.6,45
-2.1,0.75,43
-2.1,0.9,44
-2.1,1.05,34
-2.1,1.2,35
-2.1,1.35,34
-2.1,1.5,33
-1.95,-1.5,78
-1.95,-1.35,96
-1.95,-1.2,122
-1.95,-1.05,165
-1.95,-0.9,143
-1.95,-0.75,86
-1.95,-0.6,94
-1.95,-0.45,118
-1.95,-0.3,168
-1.95,-0.15,178
-1.95,0.0,77
-1.95,0.15,61
-1.95,0.3,56
-1.95,0.45,55
-1.95,0.6,60
-1.95,0.75,44
-1.95,0.9,42
-1.95,1.05,42
-1.95,1.2,31
-1.95,1.35,31
-1.95,1.5,31
-1.8,-1.5,79
-1.8,-1.35,93
-1.8,-1.2,121
-1.8,-1.05,172
-1.8,-0.9,160
-1.8,-0.75,103
-1.8,-0.6,102
-1.8,-0.45,119
-1.8,-0.3,204
-1.8,-0.15,255
-1.8,0.0,119
-1.8,0.15,49
-1.8,0.3,33
-1.8,0.45,50
-1.8,0.6,50
-1.8,0.75,46
-1.8,0.9,38
-1.8,1.05,36
-1.8,1.2,37
-1.8,1.35,34
-1.8,1.5,31
-1.65,-1.5,88
-1.65,-1.35,94
-1.65,-1.2,96
-1.65,-1.05,105
-1.65,-0.9,106
-1.65,-0.75,100
-1.65,-0.6,96
-1.65,-0.45,93
-1.65,-0.3,92
-1.65,-0.15,123
-1.65,0.0,114
-1.65,0.15,46
-1.65,0.3,25
-1.65,0.45,51
-1.65,0.6,44
-1.65,0.75,37
-1.65,0.9,34
-1.65,1.05,32
-1.65,1.2,32
-1.65,1.35,31
-1.65,1.5,32
-1.5,-1.5,89
-1.5,-1.35,80
-1.5,-1.2,59
-1.5,-1.05,30
-1.5,-0.9,57
-1.5,-0.75,80
-1.5,-0.6,79
-1.5,-0.45,57
-1.5,-0.3,57
-1.5,-0.15,85
-1.5,0.0,161
-1.5,0.15,153
-1.5,0.3,79
-1.5,0.45,53
-1.5,0.6,26
-1.5,0.75,10
-1.5,0.9,15
-1.5,1.05,19
-1.5,1.2,21
-1.5,1.35,32
-1.5,1.5,32
-1.35,-1.5,89
-1.35,-1.35,78
-1.35,-1.2,50
-1.35,-1.05,6
-1.35,-0.9,38
-1.35,-0.75,64
-1.35,-0.6,79
-1.35,-0.45,78
-1.35,-0.3,82
-1.35,-0.15,91
-1.35,0.0,119
-1.35,0.15,129
-1.35,0.3,84
-1.35,0.45,39
-1.35,0.6,7
-1.35,0.75,0
-1.35,0.9,15
-1.35,1.05,21
-1.35,1.2,26
-1.35,1.35,29
-1.35,1.5,32
-1.2,-1.5,106
-1.2,-1.35,97
-1.2,-1.2,82
-1.2,-1.05,67
-1.2,-0.9,69
-1.2,-0.75,22
-1.2,-0.6,53
-1.2,-0.45,113
-1.2,-0.3,104
-1.2,-0.15,72
-1.2,0.0,51
-1.2,0.15,64
-1.2,0.3,57
-1.2,0.45,38
-1.2,0.6,22
-1.2,0.75,13
-1.2,0.9,15
-1.2,1.05,19
-1.2,1.2,25
-1.2,1.35,30
-1.2,1.5,32
-1.05,-1.5,125
-1.05,-1.35,122
-1.05,-1.2,120
-1.05,-1.05,115
-1.05,-0.9,103
-1.05,-0.75,85
-1.05,-0.6,120
-1.05,-0.45,190
-1.05,-0.3,128
-1.05,-0.15,72
-1.05,0.0,51
-1.05,0.15,54
-1.05,0.3,46
-1.05,0.45,46
-1.05,0.6,34
-1.05,0.75,16
-1.05,0.9,2
-1.05,1.05,12
-1.05,1.2,23
-1.05,1.35,30
-1.05,1.5,35
-0.9,-1.5,125
-0.9,-1.35,128
-0.9,-1.2,137
-0.9,-1.05,153
-0.9,-0.9,143
-0.9,-0.75,52
-0.9,-0.6,196
-0.9,-0.45,187
-0.9,-0.3,142
-0.9,-0.15,68
-0.9,0.0,32
-0.9,0.15,24
-0.9,0.3,42
-0.9,0.45,42
-0.9,0.6,32
-0.9,0.75,15
-0.9,0.9,2
-0.9,1.05,12
-0.9,1.2,21
-0.9,1.35,37
-0.9,1.5,42
-0.75,-1.5,113
-0.75,-1.35,128
-0.75,-1.2,138
-0.75,-1.05,181
-0.75,-0.9,189
-0.75,-0.75,207
-0.75,-0.6,215
-0.75,-0.45,255
-0.75,-0.3,148
-0.75,-0.15,53
-0.75,0.0,48
-0.75,0.15,47
-0.75,0.3,50
-0.75,0.45,61
-0.75,0.6,34
-0.75,0.75,16
-0.75,0.9,24
-0.75,1.05,29
-0.75,1.2,37
-0.75,1.35,42
-0.75,1.5,46
-0.6,-1.5,103
-0.6,-1.35,101
-0.6,-1.2,95
-0.6,-1.05,113
-0.6,-0.9,163
-0.6,-0.75,172
-0.6,-0.6,181
-0.6,-0.45,146
-0.6,-0.3,53
-0.6,-0.15,68
-0.6,0.0,50
-0.6,0.15,53
-0.6,0.3,60
-0.6,0.45,91
-0.6,0.6,59
-0.6,0.75,6
-0.6,0.9,33
-0.6,1.05,42
-0.6,1.2,48
-0.6,1.35,50
-0.6,1.5,52
-0.45,-1.5,103
-0.45,-1.35,95
-0.45,-1.2,75
-0.45,-1.05,69
-0.45,-0.9,124
-0.45,-0.75,145
-0.45,-0.6,179
-0.45,-0.45,189
-0.45,-0.3,139
-0.45,-0.15,93
-0.45,0.0,71
-0.45,0.15,68
-0.45,0.3,93
-0.45,0.45,193
-0.45,0.6,134
-0.45,0.75,69
-0.45,0.9,58
-0.45,1.05,56
-0.45,1.2,56
-0.45,1.35,56
-0.45,1.5,56
-0.3,-1.5,88
-0.3,-1.35,80
-0.3,-1.2,90
-0.3,-1.05,93
-0.3,-0.9,99
-0.3,-0.75,111
-0.3,-0.6,104
-0.3,-0.45,115
-0.3,-0.3,107
-0.3,-0.15,103
-0.3,0.0,103
-0.3,0.15,82
-0.3,0.3,114
-0.3,0.45,143
-0.3,0.6,123
-0.3,0.75,86
-0.3,0.9,69
-0.3,1.05,62
-0.3,1.2,60
-0.3,1.35,57
-0.3,1.5,57
-0.15,-1.5,76
-0.15,-1.35,74
-0.15,-1.2,72
-0.15,-1.05,81
-0.15,-0.9,83
-0.15,-0.75,60
-0.15,-0.6,64
-0.15,-0.45,76
-0.15,-0.3,72
-0.15,-0.15,119
-0.15,0.0,119
-0.15,0.15,166
-0.15,0.3,255
-0.15,0.45,102
-0.15,0.6,86
-0.15,0.75,77
-0.15,0.9,63
-0.15,1.05,60
-0.15,1.2,60
-0.15,1.35,61
-0.15,1.5,61
0.0,-1.5,73
0.0,-1.35,68
0.0,-1.2,66
0.0,-1.05,62
0.0,-0.9,78
0.0,-0.75,82
0.0,-0.6,60
0.0,-0.45,81
0.0,-0.3,3
0.0,-0.15,224
0.0,0.0,90
0.0,0.15,89
0.0,0.3,77
0.0,0.45,1
0.0,0.6,55
0.0,0.75,63
0.0,0.9,52
0.0,1.05,55
0.0,1.2,60
0.0,1.35,63
0.0,1.5,64
0.15,-1.5,59
0.15,-1.35,55
0.15,-1.2,43
0.15,-1.05,8
0.15,-0.9,62
0.15,-0.75,110
0.15,-0.6,182
0.15,-0.45,103
0.15,-0.3,84
0.15,-0.15,59
0.15,0.0,60
0.15,0.15,70
0.15,0.3,50
0.15,0.45,43
0.15,0.6,54
0.15,0.75,68
0.15,0.9,54
0.15,1.05,61
0.15,1.2,70
0.15,1.35,72
0.15,1.5,74
0.3,-1.5,54
0.3,-1.35,51
0.3,-1.2,46
0.3,-1.05,37
0.3,-0.9,71
0.3,-0.75,100
0.3,-0.6,171
0.3,-0.45,52
0.3,-0.3,73
0.3,-0.15,70
0.3,0.0,63
0.3,0.15,48
0.3,0.3,0
0.3,0.45,49
0.3,0.6,63
0.3,0.75,67
0.3,0.9,72
0.3,1.05,71
0.3,1.2,80
0.3,1.35,84
0.3,1.5,96
0.45,-1.5,46
0.45,-1.35,44
0.45,-1.2,41
0.45,-1.05,25
0.45,-0.9,18
0.45,-0.75,91
0.45,-0.6,80
0.45,-0.45,0
0.45,-0.3,47
0.45,-0.15,94
0.45,0.0,65
0.45,0.15,73
0.45,0.3,62
0.45,0.45,77
0.45,0.6,83
0.45,0.75,88
0.45,0.9,77
0.45,1.05,83
0.45,1.2,88
0.45,1.35,86
0.45,1.5,84
0.6,-1.5,38
0.6,-1.35,36
0.6,-1.2,34
0.6,-1.05,32
0.6,-0.9,38
0.6,-0.75,23
0.6,-0.6,41
0.6,-0.45,46
0.6,-0.3,46
0.6,-0.15,59
0.6,0.0,70
0.6,0.15,86
0.6,0.3,147
0.6,0.45,129
0.6,0.6,110
0.6,0.75,101
0.6,0.9,95
0.6,1.05,86
0.6,1.2,85
0.6,1.35,88
0.6,1.5,88
0.75,-1.5,21
0.75,-1.35,18
0.75,-1.2,22
0.75,-1.05,25
0.75,-0.9,33
0.75,-0.75,44
0.75,-0.6,70
0.75,-0.45,65
0.75,-0.3,55
0.75,-0.15,19
0.75,0.0,101
0.75,0.15,157
0.75,0.3,219
0.75,0.45,134
0.75,0.6,111
0.75,0.75,103
0.75,0.9,103
0.75,1.05,103
0.75,1.2,103
0.75,1.35,92
0.75,1.5,92
0.9,-1.5,12
0.9,-1.35,11
0.9,-1.2,3
0.9,-1.05,8
0.9,-0.9,13
0.9,-0.75,11
0.9,-0.6,116
0.9,-0.45,108
0.9,-0.3,88
0.9,-0.15,117
0.9,0.0,169
0.9,0.15,177
0.9,0.3,70
0.9,0.45,110
0.9,0.6,77
0.9,0.75,90
0.9,0.9,101
0.9,1.05,103
0.9,1.2,103
0.9,1.35,90
0.9,1.5,89
1.05,-1.5,14
1.05,-1.35,10
1.05,-1.2,2
1.05,-1.05,8
1.05,-0.9,10
1.05,-0.75,4
1.05,-0.6,1
1.05,-0.45,21
1.05,-0.3,106
1.05,-0.15,150
1.05,0.0,175
1.05,0.15,88
1.05,0.3,95
1.05,0.45,99
1.05,0.6,60
1.05,0.75,81
1.05,0.9,93
1.05,1.05,86
1.05,1.2,87
1.05,1.35,87
1.05,1.5,87
1.2,-1.5,14
1.2,-1.35,14
1.2,-1.2,14
1.2,-1.05,17
1.2,-0.9,21
1.2,-0.75,35
1.2,-0.6,35
1.2,-0.45,57
1.2,-0.3,66
1.2,-0.15,175
1.2,0.0,128
1.2,0.15,62
1.2,0.3,94
1.2,0.45,79
1.2,0.6,78
1.2,0.75,68
1.2,0.9,80
1.2,1.05,82
1.2,1.2,83
1.2,1.35,84
1.2,1.5,84
1.35,-1.5,11
1.35,-1.35,11
1.35,-1.2,11
1.35,-1.05,12
1.35,-0.9,11
1.35,-0.75,20
1.35,-0.6,29
1.35,-0.45,51
1.35,-0.3,54
1.35,-0.15,69
1.35,0.0,62
1.35,0.15,66
1.35,0.3,68
1.35,0.45,92
1.35,0.6,80
1.35,0.75,70
1.35,0.9,59
1.35,1.05,65
1.35,1.2,66
1.35,1.35,66
1.35,1.5,53
1.5,-1.5,13
1.5,-1.35,13
1.5,-1.2,13
1.5,-1.05,11
1.5,-0.9,4
1.5,-0.75,12
1.5,-0.6,37
1.5,-0.45,25
1.5,-0.3,41
1.5,-0.15,49
1.5,0.0,72
1.5,0.15,125
1.5,0.3,14
1.5,0.45,65
1.5,0.6,77
1.5,0.75,68
1.5,0.9,66
1.5,1.05,55
1.5,1.2,52
1.5,1.35,55
1.5,1.5,52
1.65,-1.5,20
1.65,-1.35,21
1.65,-1.2,20
1.65,-1.05,19
1.65,-0.9,6
1.65,-0.75,16
1.65,-0.6,26
1.65,-0.45,12
1.65,-0.3,34
1.65,-0.15,22
1.65,0.0,46
1.65,0.15,66
1.65,0.3,80
1.65,0.45,77
1.65,0.6,61
1.65,0.75,50
1.65,0.9,49
1.65,1.05,50
1.65,1.2,51
1.65,1.35,52
1.65,1.5,53
1.8,-1.5,22
1.8,-1.35,22
1.8,-1.2,25
1.8,-1.05,25
1.8,-0.9,32
1.8,-0.75,45
1.8,-0.6,30
1.8,-0.45,20
1.8,-0.3,44
1.8,-0.15,32
1.8,0.0,28
1.8,0.15,65
1.8,0.3,207
1.8,0.45,90
1.8,0.6,21
1.8,0.75,14
1.8,0.9,35
1.8,1.05,44
1.8,1.2,47
1.8,1.35,49
1.8,1.5,47
1.95,-1.5,20
1.95,-1.35,20
1.95,-1.2,21
1.95,-1.05,27
1.95,-0.9,45
1.95,-0.75,90
1.95,-0.6,0
1.95,-0.45,34
1.95,-0.3,142
1.95,-0.15,79
1.95,0.0,48
1.95,0.15,55
1.95,0.3,77
1.95,0.45,60
1.95,0.6,28
1.95,0.75,19
1.95,0.9,29
1.95,1.05,38
1.95,1.2,42
1.95,1.35,43
1.95,1.5,45
2.1,-1.5,20
2.1,-1.35,18
2.1,-1.2,14
2.1,-1.05,13
2.1,-0.9,29
2.1,-0.75,43
2.1,-0.6,50
2.1,-0.45,14
2.1,-0.3,76
2.1,-0.15,55
2.1,0.0,45
2.1,0.15,29
2.1,0.3,27
2.1,0.45,22
2.1,0.6,31
2.1,0.75,26
2.1,0.9,26
2.1,1.05,31
2.1,1.2,34
2.1,1.35,36
2.1,1.5,37
2.25,-1.5,16
2.25,-1.35,15
2.25,-1.2,6
2.25,-1.05,0
2.25,-0.9,13
2.25,-0.75,4
2.25,-0.6,36
2.25,-0.45,48
2.25,-0.3,29
2.25,-0.15,4
2.25,0.0,41
2.25,0.15,21
2.25,0.3,18
2.25,0.45,18
2.25,0.6,25
2.25,0.75,23
2.25,0.9,25
2.25,1.05,21
2.25,1.2,23
2.25,1.35,30
2.25,1.5,32
2.4,-1.5,16
2.4,-1.35,16
2.4,-1.2,11
2.4,-1.05,11
2.4,-0.9,16
2.4,-0.75,11
2.4,-0.6,32
2.4,-0.45,46
2.4,-0.3,39
2.4,-0.15,44
2.4,0.0,30
2.4,0.15,34
2.4,0.3,29
2.4,0.45,29
2.4,0.6,18
2.4,0.75,2
2.4,0.9,7
2.4,1.05,13
2.4,1.2,24
2.4,1.35,26
2.4,1.5,28
2.55,-1.5,14
2.55,-1.35,14
2.55,-1.2,11
2.55,-1.05,0
2.55,-0.9,20
2.55,-0.75,31
2.55,-0.6,36
2.55,-0.45,44
2.55,-0.3,39
2.55,-0.15,48
2.55,0.0,12
2.55,0.15,42
2.55,0.3,49
2.55,0.45,34
2.55,0.6,25
2.55,0.75,7
2.55,0.9,11
2.55,1.05,17
2.55,1.2,17
2.55,1.35,17
2.55,1.5,17
2.7,-1.5,23
2.7,-1.35,20
2.7,-1.2,14
2.7,-1.05,9
2.7,-0.9,22
2.7,-0.75,40
2.7,-0.6,48
2.7,-0.45,59
2.7,-0.3,66
2.7,-0.15,56
2.7,0.0,65
2.7,0.15,79
2.7,0.3,58
2.7,0.45,42
2.7,0.6,48
2.7,0.75,32
2.7,0.9,21
2.7,1.05,20
2.7,1.2,18
2.7,1.35,18
2.7,1.5,17
2.85,-1.5,26
2.85,-1.35,25
2.85,-1.2,26
2.85,-1.05,25
2.85,-0.9,21
2.85,-0.75,1
2.85,-0.6,50
2.85,-0.45,59
2.85,-0.3,30
2.85,-0.15,76
2.85,0.0,33
2.85,0.15,45
2.85,0.3,29
2.85,0.45,22
2.85,0.6,87
2.85,0.75,7
2.85,0.9,18
2.85,1.05,22
2.85,1.2,35
2.85,1.35,35
2.85,1.5,37
3.0,-1.5,28
3.0,-1.35,29
3.0,-1.2,29
3.0,-1.05,28
3.0,-0.9,18
3.0,-0.75,79
3.0,-0.6,116
3.0,-0.45,33
3.0,-0.3,175
3.0,-0.15,98
3.0,0.0,37
3.0,0.15,0
3.0,0.3,8
3.0,0.45,0
3.0,0.6,1
3.0,0.75,17
3.0,0.9,25
3.0,1.05,32
3.0,1.2,36
3.0,1.35,39
3.0,1.5,40
3.15,-1.5,27
3.15,-1.35,27
3.15,-1.2,28
3.15,-1.05,34
3.15,-0.9,39
3.15,-0.75,52
3.15,-0.6,60
3.15,-0.45,131
3.15,-0.3,120
3.15,-0.15,59
3.15,0.0,95
3.15,0.15,44
3.15,0.3,0
3.15,0.45,12
3.15,0.6,22
3.15,0.75,31
3.15,0.9,39
3.15,1.05,40
3.15,1.2,42
3.15,1.35,43
3.15,1.5,60
3.3,-1.5,30
3.3,-1.35,40
3.3,-1.2,27
3.3,-1.05,26
3.3,-0.9,30
3.3,-0.75,34
3.3,-0.6,102
3.3,-0.45,255
3.3,-0.3,131
3.3,-0.15,83
3.3,0.0,81
3.3,0.15,53
3.3,0.3,37
3.3,0.45,50
3.3,0.6,58
3.3,0.75,60
3.3,0.9,70
3.3,1.05,70
3.3,1.2,68
3.3,1.35,68
3.3,1.5,68
3.45,-1.5,53
3.45,-1.35,52
3.45,-1.2,51
3.45,-1.05,43
3.45,-0.9,19
3.45,-0.75,14
3.45,-0.6,94
3.45,-0.45,57
3.45,-0.3,84
3.45,-0.15,74
3.45,0.0,86
3.45,0.15,37
3.45,0.3,47
3.45,0.45,122
3.45,0.6,151
3.45,0.75,125
3.45,0.9,116
3.45,1.05,109
3.45,1.2,105
3.45,1.35,83
3.45,1.5,81
3.6,-1.5,64
3.6,-1.35,66
3.6,-1.2,68
3.6,-1.05,71
3.6,-0.9,82
3.6,-0.75,111
3.6,-0.6,185
3.6,-0.45,255
3.6,-0.3,96
3.6,-0.15,52
3.6,0.0,62
3.6,0.15,90
3.6,0.3,138
3.6,0.45,166
3.6,0.6,103
3.6,0.75,134
3.6,0.9,125
3.6,1.05,115
3.6,1.2,113
3.6,1.35,108
3.6,1.5,105
3.75,-1.5,75
3.75,-1.35,81
3.75,-1.2,93
3.75,-1.05,133
3.75,-0.9,151
3.75,-0.75,132
3.75,-0.6,149
3.75,-0.45,238
3.75,-0.3,159
3.75,-0.15,76
3.75,0.0,46
3.75,0.15,74
3.75,0.3,149
3.75,0.45,126
3.75,0.6,166
3.75,0.75,145
3.75,0.9,129
3.75,1.05,120
3.75,1.2,112
3.75,1.35,107
3.75,1.5,102
3.9,-1.5,99
3.9,-1.35,106
3.9,-1.2,120
3.9,-1.05,145
3.9,-0.9,186
3.9,-0.75,108
3.9,-0.6,65
3.9,-0.45,169
3.9,-0.3,52
3.9,-0.15,38
3.9,0.0,51
3.9,0.15,233
3.9,0.3,89
3.9,0.45,146
3.9,0.6,255
3.9,0.75,136
3.9,0.9,117
3.9,1.05,108
3.9,1.2,105
3.9,1.35,103
3.9,1.5,102
4.05,-1.5,142
4.05,-1.35,146
4.05,-1.2,133
4.05,-1.05,119
4.05,-0.9,110
4.05,-0.75,77
4.05,-0.6,38
4.05,-0.45,34
4.05,-0.3,65
4.05,-0.15,144
4.05,0.0,136
4.05,0.15,255
4.05,0.3,113
4.05,0.45,83
4.05,0.6,13
4.05,0.75,71
4.05,0.9,90
4.05,1.05,94
4.05,1.2,95
4.05,1.35,92
4.05,1.5,92
4.2,-1.5,127
4.2,-1.35,129
4.2,-1.2,131
4.2,-1.05,129
4.2,-0.9,120
4.2,-0.75,68
4.2,-0.6,75
4.2,-0.45,11
4.2,-0.3,130
4.2,-0.15,89
4.2,0.0,163
4.2,0.15,75
4.2,0.3,70
4.2,0.45,63
4.2,0.6,7
4.2,0.75,39
4.2,0.9,63
4.2,1.05,68
4.2,1.2,82
4.2,1.35,84
4.2,1.5,85
4.35,-1.5,111
4.35,-1.35,117
4.35,-1.2,121
4.35,-1.05,126
4.35,-0.9,137
4.35,-0.75,166
4.35,-0.6,255
4.35,-0.45,138
4.35,-0.3,92
4.35,-0.15,92
4.35,0.0,11
4.35,0.15,54
4.35,0.3,174
4.35,0.45,74
4.35,0.6,45
4.35,0.75,44
4.35,0.9,53
4.35,1.05,58
4.35,1.2,63
4.35,1.35,65
4.35,1.5,63
4.5,-1.5,102
4.5,-1.35,102
4.5,-1.2,93
4.5,-1.05,101
4.5,-0.9,132
4.5,-0.75,166
4.5,-0.6,149
4.5,-0.45,109
4.5,-0.3,68
4.5,-0.15,195
4.5,0.0,177
4.5,0.15,101
4.5,0.3,90
4.5,0.45,67
4.5,0.6,39
4.5,0.75,26
4.5,0.9,40
4.5,1.05,45
4.5,1.2,51
4.5,1.35,53
4.5,1.5,56
4.65,-1.5,98
4.65,-1.35,94
4.65,-1.2,91
4.65,-1.05,107
4.65,-0.9,114
4.65,-0.75,104
4.65,-0.6,46
4.65,-0.45,158
4.65,-0.3,70
4.65,-0.15,47
4.65,0.0,247
4.65,0.15,63
4.65,0.3,57
4.65,0.45,37
4.65,0.6,14
4.65,0.75,14
4.65,0.9,31
4.65,1.05,36
4.65,1.2,34
4.65,1.35,42
4.65,1.5,45
4.8,-1.5,98
4.8,-1.35,92
4.8,-1.2,75
4.8,-1.05,59
4.8,-0.9,68
4.8,-0.75,52
4.8,-0.6,109
4.8,-0.45,91
4.8,-0.3,137
4.8,-0.15,22
4.8,0.0,18
4.8,0.15,145
4.8,0.3,6
4.8,0.45,29
4.8,0.6,21
4.8,0.75,14
4.8,0.9,15
4.8,1.05,18
4.8,1.2,22
4.8,1.35,24
4.8,1.5,25
4.95,-1.5,85
4.95,-1.35,80
4.95,-1.2,69
4.95,-1.05,7
4.95,-0.9,88
4.95,-0.75,107
4.95,-0.6,206
4.95,-0.45,64
4.95,-0.3,121
4.95,-0.15,72
4.95,0.0,54
4.95,0.15,43
4.95,0.3,145
4.95,0.45,54
4.95,0.6,33
4.95,0.75,10
4.95,0.9,3
4.95,1.05,14
4.95,1.2,20
4.95,1.35,22
4.95,1.5,35
5.1,-1.5,81
5.1,-1.35,78
5.1,-1.2,73
5.1,-1.05,85
5.1,-0.9,112
5.1,-0.75,147
5.1,-0.6,206
5.1,-0.45,115
5.1,-0.3,99
5.1,-0.15,33
5.1,0.0,197
5.1,0.15,41
5.1,0.3,20
5.1,0.45,29
5.1,0.6,33
5.1,0.75,21
5.1,0.9,11
5.1,1.05,25
5.1,1.2,32
5.1,1.35,36
5.1,1.5,38
5.25,-1.5,84
5.25,-1.35,84
5.25,-1.2,97
5.25,-1.05,104
5.25,-0.9,138
5.25,-0.75,255
5.25,-0.6,207
5.25,-0.45,126
5.25,-0.3,57
5.25,-0.15,63
5.25,0.0,10
5.25,0.15,13
5.25,0.3,21
5.25,0.45,34
5.25,0.6,43
5.25,0.75,48
5.25,0.9,43
5.25,1.05,43
5.25,1.2,59
5.25,1.35,64
5.25,1.5,67
5.4,-1.5,90
5.4,-1.35,90
5.4,-1.2,86
5.4,-1.05,87
5.4,-0.9,69
5.4,-0.75,99
5.4,-0.6,18
5.4,-0.45,65
5.4,-0.3,113
5.4,-0.15,35
5.4,0.0,25
5.4,0.15,23
5.4,0.3,52
5.4,0.45,46
5.4,0.6,58
5.4,0.75,68
5.4,0.9,73
5.4,1.05,76
5.4,1.2,77
5.4,1.35,79
5.4,1.5,80
5.55,-1.5,70
5.55,-1.35,69
5.55,-1.2,66
5.55,-1.05,68
5.55,-0.9,33
5.55,-0.75,63
5.55,-0.6,91
5.55,-0.45,69
5.55,-0.3,50
5.55,-0.15,14
5.55,0.0,26
5.55,0.15,84
5.55,0.3,70
5.55,0.45,122
5.55,0.6,121
5.55,0.75,106
5.55,0.9,99
5.55,1.05,97
5.55,1.2,97
5.55,1.35,89
5.55,1.5,81
5.7,-1.5,65
5.7,-1.35,63
5.7,-1.2,42
5.7,-1.05,42
5.7,-0.9,46
5.7,-0.75,79
5.7,-0.6,51
5.7,-0.45,38
5.7,-0.3,78
5.7,-0.15,45
5.7,0.0,29
5.7,0.15,82
5.7,0.3,255
5.7,0.45,171
5.7,0.6,180
5.7,0.75,150
5.7,0.9,129
5.7,1.05,112
5.7,1.2,105
5.7,1.35,100
5.7,1.5,98
5.85,-1.5,35
5.85,-1.35,33
5.85,-1.2,33
5.85,-1.05,34
5.85,-0.9,39
5.85,-0.75,25
5.85,-0.6,7
5.85,-0.45,33
5.85,-0.3,79
5.85,-0.15,17
5.85,0.0,54
5.85,0.15,49
5.85,0.3,81
5.85,0.45,252
5.85,0.6,177
5.85,0.75,145
5.85,0.9,126
5.85,1.05,116
5.85,1.2,109
5.85,1.35,105
5.85,1.5,103
6.0,-1.5,35
6.0,-1.35,39
6.0,-1.2,42
6.0,-1.05,32
6.0,-0.9,32
6.0,-0.75,38
6.0,-0.6,52
6.0,-0.45,255
6.0,-0.3,95
6.0,-0.15,29
6.0,0.0,47
6.0,0.15,30
6.0,0.3,65
6.0,0.45,85
6.0,0.6,112
6.0,0.75,114
6.0,0.9,112
6.0,1.05,108
6.0,1.2,111
6.0,1.35,107
6.0,1.5,105
6.15,-1.5,44
6.15,-1.35,44
6.15,-1.2,42
6.15,-1.05,45
6.15,-0.9,45
6.15,-0.75,41
6.15,-0.6,66
6.15,-0.45,117
6.15,-0.3,18
6.15,-0.15,82
6.15,0.0,48
6.15,0.15,57
6.15,0.3,49
6.15,0.45,54
6.15,0.6,72
6.15,0.75,78
6.15,0.9,82
6.15,1.05,85
6.15,1.2,85
6.15,1.35,101
6.15,1.5,102
6.3,-1.5,44
6.3,-1.35,47
6.3,-1.2,48
6.3,-1.05,50
6.3,-0.9,41
6.3,-0.75,49
6.3,-0.6,62
6.3,-0.45,105
6.3,-0.3,12
6.3,-0.15,53
6.3,0.0,67
6.3,0.15,51
6.3,0.3,53
6.3,0.45,41
6.3,0.6,33
6.3,0.75,46
6.3,0.9,64
6.3,1.05,73
6.3,1.2,77
6.3,1.35,80
6.3,1.5,81
6.45,-1.5,57
6.45,-1.35,54
6.45,-1.2,54
6.45,-1.05,48
6.45,-0.9,73
6.45,-0.75,170
6.45,-0.6,35
6.45,-0.45,67
6.45,-0.3,45
6.45,-0.15,39
6.45,0.0,40
6.45,0.15,39
6.45,0.3,47
6.45,0.45,45
6.45,0.6,2
6.45,0.75,27
6.45,0.9,52
6.45,1.05,60
6.45,1.2,65
6.45,1.35,78
6.45,1.5,81
6.6,-1.5,70
6.6,-1.35,62
6.6,-1.2,45
6.6,-1.05,34
6.6,-0.9,71
6.6,-0.75,78
6.6,-0.6,61
6.6,-0.45,76
6.6,-0.3,53
6.6,-0.15,102
6.6,0.0,38
6.6,0.15,33
6.6,0.3,75
6.6,0.45,70
6.6,0.6,29
6.6,0.75,34
6.6,0.9,47
6.6,1.05,64
6.6,1.2,85
6.6,1.35,91
6.6,1.5,91
6.75,-1.5,93
6.75,-1.35,73
6.75,-1.2,52
6.75,-1.05,47
6.75,-0.9,88
6.75,-0.75,194
6.75,-0.6,133
6.75,-0.45,116
6.75,-0.3,48
6.75,-0.15,159
6.75,0.0,46
6.75,0.15,18
6.75,0.3,49
6.75,0.45,41
6.75,0.6,25
6.75,0.75,40
6.75,0.9,50
6.75,1.05,54
6.75,1.2,54
6.75,1.35,56
6.75,1.5,57
6.9,-1.5,103
6.9,-1.35,94
6.9,-1.2,84
6.9,-1.05,80
6.9,-0.9,91
6.9,-0.75,184
6.9,-0.6,59
6.9,-0.45,82
6.9,-0.3,103
6.9,-0.15,36
6.9,0.0,17
6.9,0.15,51
6.9,0.3,73
6.9,0.45,39
6.9,0.6,10
6.9,0.75,48
6.9,0.9,55
6.9,1.05,59
6.9,1.2,60
6.9,1.35,55
6.9,1.5,55
7.05,-1.5,103
7.05,-1.35,102
7.05,-1.2,105
7.05,-1.05,108
7.05,-0.9,70
7.05,-0.75,96
7.05,-0.6,76
7.05,-0.45,72
7.05,-0.3,77
7.05,-0.15,63
7.05,0.0,163
7.05,0.15,127
7.05,0.3,67
7.05,0.45,60
7.05,0.6,61
7.05,0.75,65
7.05,0.9,63
7.05,1.05,63
7.05,1.2,56
7.05,1.35,56
7.05,1.5,72
7.2,-1.5,102
7.2,-1.35,111
7.2,-1.2,121
7.2,-1.05,165
7.2,-0.9,255
7.2,-0.75,106
7.2,-0.6,234
7.2,-0.45,33
7.2,-0.3,49
7.2,-0.15,29
7.2,0.0,46
7.2,0.15,89
7.2,0.3,36
7.2,0.45,94
7.2,0.6,106
7.2,0.75,91
7.2,0.9,80
7.2,1.05,70
7.2,1.2,72
7.2,1.35,72
7.2,1.5,72
7.35,-1.5,89
7.35,-1.35,90
7.35,-1.2,105
7.35,-1.05,146
7.35,-0.9,178
7.35,-0.75,118
7.35,-0.6,69
7.35,-0.45,74
7.35,-0.3,32
7.35,-0.15,28
7.35,0.0,28
7.35,0.15,2
7.35,0.3,81
7.35,0.45,180
7.35,0.6,126
7.35,0.75,87
7.35,0.9,78
7.35,1.05,72
7.35,1.2,70
7.35,1.35,69
7.35,1.5,69
7.5,-1.5,85
7.5,-1.35,103
7.5,-1.2,88
7.5,-1.05,92
7.5,-0.9,109
7.5,-0.75,104
7.5,-0.6,86
7.5,-0.45,67
7.5,-0.3,40
7.5,-0.15,11
7.5,0.0,44
7.5,0.15,3
7.5,0.3,169
7.5,0.45,45
7.5,0.6,64
7.5,0.75,61
7.5,0.9,55
7.5,1.05,51
7.5,1.2,49
7.5,1.35,66
7.5,1.5,67
7.65,-1.5,85
7.65,-1.35,85
7.65,-1.2,78
7.65,-1.05,56
7.65,-0.9,31
7.65,-0.75,72
7.65,-0.6,104
7.65,-0.45,61
7.65,-0.3,55
7.65,-0.15,1
7.65,0.0,172
7.65,0.15,92
7.65,0.3,74
7.65,0.45,48
7.65,0.6,45
7.65,0.75,47
7.65,0.9,44
7.65,1.05,45
7.65,1.2,47
7.65,1.35,51
7.65,1.5,52
7.8,-1.5,99
7.8,-1.35,85
7.8,-1.2,61
7.8,-1.05,46
7.8,-0.9,44
7.8,-0.75,67
7.8,-0.6,100
7.8,-0.45,94
7.8,-0.3,27
7.8,-0.15,16
7.8,0.0,38
7.8,0.15,36
7.8,0.3,58
7.8,0.45,56
7.8,0.6,45
7.8,0.75,26
7.8,0.9,22
7.8,1.05,34
7.8,1.2,43
7.8,1.35,48
7.8,1.5,50
7.95,-1.5,99
7.95,-1.35,80
7.95,-1.2,50
7.95,-1.05,16
7.95,-0.9,118
7.95,-0.75,102
7.95,-0.6,51
7.95,-0.45,84
7.95,-0.3,39
7.95,-0.15,22
7.95,0.0,34
7.95,0.15,40
7.95,0.3,42
7.95,0.45,38
7.95,0.6,28
7.95,0.75,6
7.95,0.9,8
7.95,1.05,34
7.95,1.2,48
7.95,1.35,56
7.95,1.5,73
8.1,-1.5,99
8.1,-1.35,95
8.1,-1.2,92
8.1,-1.05,112
8.1,-0.9,173
8.1,-0.75,185
8.1,-0.6,56
8.1,-0.45,4
8.1,-0.3,3
8.1,-0.15,43
8.1,0.0,37
8.1,0.15,34
8.1,0.3,45
8.1,0.45,48
8.1,0.6,36
8.1,0.75,23
8.1,0.9,19
8.1,1.05,32
8.1,1.2,47
8.1,1.35,54
8.1,1.5,55
8.25,-1.5,107
8.25,-1.35,109
8.25,-1.2,118
8.25,-1.05,142
8.25,-0.9,200
8.25,-0.75,20
8.25,-0.6,96
8.25,-0.45,48
8.25,-0.3,87
8.25,-0.15,52
8.25,0.0,61
8.25,0.15,136
8.25,0.3,64
8.25,0.45,48
8.25,0.6,44
8.25,0.75,36
8.25,0.9,28
8.25,1.05,40
8.25,1.2,43
8.25,1.35,43
8.25,1.5,45
8.4,-1.5,109
8.4,-1.35,111
8.4,-1.2,116
8.4,-1.05,129
8.4,-0.9,128
8.4,-0.75,108
8.4,-0.6,122
8.4,-0.45,49
8.4,-0.3,106
8.4,-0.15,70
8.4,0.0,21
8.4,0.15,35
8.4,0.3,45
8.4,0.45,49
8.4,0.6,47
8.4,0.75,43
8.4,0.9,52
8.4,1.05,53
8.4,1.2,53
8.4,1.35,53
8.4,1.5,47
8.55,-1.5,93
8.55,-1.35,93
8.55,-1.2,105
8.55,-1.05,95
8.55,-0.9,61
8.55,-0.75,32
8.55,-0.6,83
8.55,-0.45,55
8.55,-0.3,25
8.55,-0.15,7
8.55,0.0,11
8.55,0.15,40
8.55,0.3,37
8.55,0.45,45
8.55,0.6,55
8.55,0.75,59
8.55,0.9,63
8.55,1.05,52
8.55,1.2,52
8.55,1.35,52
8.55,1.5,51
8.7,-1.5,29
8.7,-1.35,29
8.7,-1.2,27
8.7,-1.05,54
8.7,-0.9,29
8.7,-0.75,20
8.7,-0.6,29
8.7,-0.45,19
8.7,-0.3,16
8.7,-0.15,36
8.7,0.0,0
8.7,0.15,31
8.7,0.3,31
8.7,0.45,34
8.7,0.6,51
8.7,0.75,60
8.7,0.9,66
8.7,1.05,66
8.7,1.2,64
8.7,1.35,61
8.7,1.5,59
8.85,-1.5,35
8.85,-1.35,20
8.85,-1.2,18
8.85,-1.05,18
8.85,-0.9,20
8.85,-0.75,27
8.85,-0.6,36
8.85,-0.45,20
8.85,-0.3,22
8.85,-0.15,21
8.85,0.0,21
8.85,0.15,40
8.85,0.3,26
8.85,0.45,29
8.85,0.6,57
8.85,0.75,84
8.85,0.9,87
8.85,1.05,79
8.85,1.2,72
8.85,1.35,67
8.85,1.5,63
9.0,-1.5,41
9.0,-1.35,37
9.0,-1.2,29
9.0,-1.05,4
9.0,-0.9,25
9.0,-0.75,48
9.0,-0.6,24
9.0,-0.45,36
9.0,-0.3,36
9.0,-0.15,22
9.0,0.0,17
9.0,0.15,26
9.0,0.3,42
9.0,0.45,48
9.0,0.6,86
9.0,0.75,160
9.0,0.9,119
9.0,1.05,92
9.0,1.2,78
9.0,1.35,71
9.0,1.5,66
9.15,-1.5,77
9.15,-1.35,70
9.15,-1.2,50
9.15,-1.05,7
9.15,-0.9,33
9.15,-0.75,14
9.15,-0.6,20
9.15,-0.45,32
9.15,-0.3,18
9.15,-0.15,13
9.15,0.0,42
9.15,0.15,31
9.15,0.3,15
9.15,0.45,29
9.15,0.6,98
9.15,0.75,177
9.15,0.9,124
9.15,1.05,92
9.15,1.2,80
9.15,1.35,75
9.15,1.5,70
9.3,-1.5,98
9.3,-1.35,93
9.3,-1.2,84
9.3,-1.05,74
9.3,-0.9,69
9.3,-0.75,54
9.3,-0.6,103
9.3,-0.45,120
9.3,-0.3,23
9.3,-0.15,175
9.3,0.0,49
9.3,0.15,0
9.3,0.3,35
9.3,0.45,40
9.3,0.6,64
9.3,0.75,94
9.3,0.9,92
9.3,1.05,80
9.3,1.2,72
9.3,1.35,66
9.3,1.5,62
9.45,-1.5,98
9.45,-1.35,97
9.45,-1.2,103
9.45,-1.05,118
9.45,-0.9,134
9.45,-0.75,210
9.45,-0.6,146
9.45,-0.45,69
9.45,-0.3,113
9.45,-0.15,64
9.45,0.0,8
9.45,0.15,19
9.45,0.3,27
9.45,0.45,36
9.45,0.6,46
9.45,0.75,62
9.45,0.9,62
9.45,1.05,61
9.45,1.2,58
9.45,1.35,55
9.45,1.5,52
9.6,-1.5,95
9.6,-1.35,113
9.6,-1.2,116
9.6,-1.05,139
9.6,-0.9,193
9.6,-0.75,141
9.6,-0.6,66
9.6,-0.45,61
9.6,-0.3,107
9.6,-0.15,85
9.6,0.0,43
9.6,0.15,27
9.6,0.3,8
9.6,0.45,26
9.6,0.6,33
9.6,0.75,42
9.6,0.9,47
9.6,1.05,49
9.6,1.2,50
9.6,1.35,50
9.6,1.5,50
9.75,-1.5,95
9.75,-1.35,95
9.75,-1.2,100
9.75,-1.05,103
9.75,-0.9,93
9.75,-0.75,104
9.75,-0.6,58
9.75,-0.45,42
9.75,-0.3,51
9.75,-0.15,86
9.75,0.0,62
9.75,0.15,33
9.75,0.3,47
9.75,0.45,31
9.75,0.6,37
9.75,0.75,48
9.75,0.9,54
9.75,1.05,54
9.75,1.2,57
9.75,1.35,55
9.75,1.5,55
9.9,-1.5,100
9.9,-1.35,100
9.9,-1.2,86
9.9,-1.05,78
9.9,-0.9,60
9.9,-0.75,16
9.9,-0.6,42
9.9,-0.45,65
9.9,-0.3,126
9.9,-0.15,97
9.9,0.0,67
9.9,0.15,36
9.9,0.3,32
9.9,0.45,31
9.9,0.6,34
9.9,0.75,36
9.9,0.9,41
9.9,1.05,54
9.9,1.2,57
9.9,1.35,59
9.9,1.5,56
10.05,-1.5,100
10.05,-1.35,98
10.05,-1.2,89
10.05,-1.05,69
10.05,-0.9,53
10.05,-0.75,45
10.05,-0.6,98
10.05,-0.45,34
10.05,-0.3,61
10.05,-0.15,54
10.05,0.0,65
10.05,0.15,68
10.05,0.3,34
10.05,0.45,12
10.05,0.6,38
10.05,0.75,38
10.05,0.9,39
10.05,1.05,56
10.05,1.2,66
10.05,1.35,68
10.05,1.5,70
10.2,-1.5,98
10.2,-1.35,92
10.2,-1.2,95
10.2,-1.05,94
10.2,-0.9,87
10.2,-0.75,119
10.2,-0.6,119
10.2,-0.45,34
10.2,-0.3,34
10.2,-0.15,27
10.2,0.0,21
10.2,0.15,74
10.2,0.3,133
10.2,0.45,62
10.2,0.6,61
10.2,0.75,74
10.2,0.9,78
10.2,1.05,80
10.2,1.2,78
10.2,1.35,79
10.2,1.5,87
10.35,-1.5,92
10.35,-1.35,92
10.35,-1.2,95
10.35,-1.05,92
10.35,-0.9,102
10.35,-0.75,117
10.35,-0.6,129
10.35,-0.45,70
10.35,-0.3,77
10.35,-0.15,55
10.35,0.0,65
10.35,0.15,86
10.35,0.3,111
10.35,0.45,103
10.35,0.6,95
10.35,0.75,93
10.35,0.9,92
10.35,1.05,92
10.35,1.2,91
10.35,1.35,87
10.35,1.5,86
10.5,-1.5,94
10.5,-1.35,94
10.5,-1.2,93
10.5,-1.05,83
10.5,-0.9,59
10.5,-0.75,112
10.5,-0.6,126
10.5,-0.45,46
10.5,-0.3,86
10.5,-0.15,86
10.5,0.0,70
10.5,0.15,231
10.5,0.3,199
10.5,0.45,139
10.5,0.6,120
10.5,0.75,109
10.5,0.9,102
10.5,1.05,97
10.5,1.2,95
10.5,1.35,93
10.5,1.5,92
10.65,-1.5,87
10.65,-1.35,91
10.65,-1.2,91
10.65,-1.05,82
10.65,-0.9,80
10.65,-0.75,28
10.65,-0.6,84
10.65,-0.45,38
10.65,-0.3,79
10.65,-0.15,47
10.65,0.0,86
10.65,0.15,171
10.65,0.3,187
10.65,0.45,172
10.65,0.6,136
10.65,0.75,116
10.65,0.9,105
10.65,1.05,96
10.65,1.2,92
10.65,1.35,92
10.65,1.5,101
10.8,-1.5,85
10.8,-1.35,85
10.8,-1.2,83
10.8,-1.05,77
10.8,-0.9,69
10.8,-0.75,131
10.8,-0.6,100
10.8,-0.45,30
10.8,-0.3,5
10.8,-0.15,21
10.8,0.0,76
10.8,0.15,120
10.8,0.3,187
10.8,0.45,181
10.8,0.6,142
10.8,0.75,118
10.8,0.9,108
10.8,1.05,113
10.8,1.2,112
10.8,1.35,112
10.8,1.5,108
10.95,-1.5,85
10.95,-1.35,81
10.95,-1.2,81
10.95,-1.05,81
10.95,-0.9,90
10.95,-0.75,80
10.95,-0.6,0
10.95,-0.45,15
10.95,-0.3,21
10.95,-0.15,52
10.95,0.0,58
10.95,0.15,105
10.95,0.3,115
10.95,0.45,111
10.95,0.6,108
10.95,0.75,110
10.95,0.9,110
10.95,1.05,112
10.95,1.2,114
10.95,1.35,130
10.95,1.5,133
11.1,-1.5,63
11.1,-1.35,62
11.1,-1.2,60
11.1,-1.05,64
11.1,-0.9,90
11.1,-0.75,97
11.1,-0.6,79
11.1,-0.45,20
11.1,-0.3,53
11.1,-0.15,69
11.1,0.0,130
11.1,0.15,118
11.1,0.3,64
11.1,0.45,57
11.1,0.6,63
11.1,0.75,83
11.1,0.9,101
11.1,1.05,110
11.1,1.2,114
11.1,1.35,117
11.1,1.5,120
11.25,-1.5,62
11.25,-1.35,60
11.25,-1.2,50
11.25,-1.05,56
11.25,-0.9,49
11.25,-0.75,111
11.25,-0.6,111
11.25,-0.45,30
11.25,-0.3,60
11.25,-0.15,66
11.25,0.0,117
11.25,0.15,113
11.25,0.3,63
11.25,0.45,6
11.25,0.6,38
11.25,0.75,78
11.25,0.9,96
11.25,1.05,108
11.25,1.2,115
11.25,1.35,120
11.25,1.5,120
11.4,-1.5,58
11.4,-1.35,43
11.4,-1.2,35
11.4,-1.05,22
11.4,-0.9,0
11.4,-0.75,28
11.4,-0.6,22
11.4,-0.45,36
11.4,-0.3,64
11.4,-0.15,61
11.4,0.0,92
11.4,0.15,90
11.4,0.3,73
11.4,0.45,54
11.4,0.6,61
11.4,0.75,80
11.4,0.9,93
11.4,1.05,101
11.4,1.2,106
11.4,1.35,109
11.4,1.5,111
11.55,-1.5,58
11.55,-1.35,52
11.55,-1.2,48
11.55,-1.05,41
11.55,-0.9,39
11.55,-0.75,2
11.55,-0.6,35
11.55,-0.45,37
11.55,-0.3,54
11.55,-0.15,49
11.55,0.0,60
11.55,0.15,74
11.55,0.3,83
11.55,0.45,43
11.55,0.6,65
11.55,0.75,100
11.55,0.9,105
11.55,1.05,109
11.55,1.2,111
11.55,1.35,111
11.55,1.5,107
11.7,-1.5,57
11.7,-1.35,56
11.7,-1.2,60
11.7,-1.05,61
11.7,-0.9,63
11.7,-0.75,64
11.7,-0.6,152
11.7,-0.45,131
11.7,-0.3,24
11.7,-0.15,33
11.7,0.0,34
11.7,0.15,80
11.7,0.3,99
11.7,0.45,232
11.7,0.6,188
11.7,0.75,124
11.7,0.9,116
11.7,1.05,111
11.7,1.2,109
11.7,1.35,107
11.7,1.5,107
11.85,-1.5,65
11.85,-1.35,66
11.85,-1.2,63
11.85,-1.05,76
11.85,-0.9,93
11.85,-0.75,98
11.85,-0.6,133
11.85,-0.45,139
11.85,-0.3,32
11.85,-0.15,40
11.85,0.0,60
11.85,0.15,75
11.85,0.3,37
11.85,0.45,111
11.85,0.6,150
11.85,0.75,143
11.85,0.9,139
11.85,1.05,133
11.85,1.2,119
11.85,1.35,110
11.85,1.5,107
12.0,-1.5,64
12.0,-1.35,75
12.0,-1.2,77
12.0,-1.05,100
12.0,-0.9,107
12.0,-0.75,81
12.0,-0.6,112
12.0,-0.45,77
12.0,-0.3,34
12.0,-0.15,76
12.0,0.0,92
12.0,0.15,96
12.0,0.3,37
12.0,0.45,79
12.0,0.6,145
12.0,0.75,183
12.0,0.9,169
12.0,1.05,140
12.0,1.2,125
12.0,1.35,114
12.0,1.5,105
12.15,-1.5,64
12.15,-1.35,68
12.15,-1.2,72
12.15,-1.05,92
12.15,-0.9,107
12.15,-0.75,80
12.15,-0.6,75
12.15,-0.45,23
12.15,-0.3,35
12.15,-0.15,146
12.15,0.0,149
12.15,0.15,149
12.15,0.3,83
12.15,0.45,92
12.15,0.6,195
12.15,0.75,255
12.15,0.9,200
12.15,1.05,158
12.15,1.2,127
12.15,1.35,113
12.15,1.5,103
12.3,-1.5,57
12.3,-1.35,62
12.3,-1.2,70
12.3,-1.05,78
12.3,-0.9,138
12.3,-0.75,114
12.3,-0.6,139
12.3,-0.45,103
12.3,-0.3,118
12.3,-0.15,165
12.3,0.0,112
12.3,0.15,13
12.3,0.3,57
12.3,0.45,69
12.3,0.6,137
12.3,0.75,217
12.3,0.9,181
12.3,1.05,141
12.3,1.2,120
12.3,1.35,106
12.3,1.5,95
12.45,-1.5,70
12.45,-1.35,73
12.45,-1.2,73
12.45,-1.05,79
12.45,-0.9,85
12.45,-0.75,65
12.45,-0.6,11
12.45,-0.45,42
12.45,-0.3,40
12.45,-0.15,4
12.45,0.0,63
12.45,0.15,53
12.45,0.3,72
12.45,0.45,70
12.45,0.6,85
12.45,0.75,128
12.45,0.9,138
12.45,1.05,128
12.45,1.2,114
12.45,1.35,93
12.45,1.5,82
12.6,-1.5,42
12.6,-1.35,46
12.6,-1.2,63
12.6,-1.05,57
12.6,-0.9,51
12.6,-0.75,25
12.6,-0.6,150
12.6,-0.45,23
12.6,-0.3,20
12.6,-0.15,29
12.6,0.0,49
12.6,0.15,54
12.6,0.3,96
12.6,0.45,122
12.6,0.6,97
12.6,0.75,107
12.6,0.9,114
12.6,1.05,109
12.6,1.2,96
12.6,1.35,79
12.6,1.5,61
12.75,-1.5,42
12.75,-1.35,55
12.75,-1.2,63
12.75,-1.05,63
12.75,-0.9,57
12.75,-0.75,54
12.75,-0.6,53
12.75,-0.45,56
12.75,-0.3,34
12.75,-0.15,20
12.75,0.0,36
12.75,0.15,46
12.75,0.3,83
12.75,0.45,102
12.75,0.6,100
12.75,0.75,101
12.75,0.9,100
12.75,1.05,93
12.75,1.2,74
12.75,1.35,49
12.75,1.5,34
12.9,-1.5,9
12.9,-1.35,34
12.9,-1.2,62
12.9,-1.05,61
12.9,-0.9,61
12.9,-0.75,53
12.9,-0.6,102
12.9,-0.45,34
12.9,-0.3,41
12.9,-0.15,26
12.9,0.0,26
12.9,0.15,39
12.9,0.3,63
12.9,0.45,84
12.9,0.6,87
12.9,0.75,85
12.9,0.9,81
12.9,1.05,80
12.9,1.2,54
12.9,1.35,21
12.9,1.5,4
13.05,-1.5,0
13.05,-1.35,19
13.05,-1.2,50
13.05,-1.05,62
13.05,-0.9,66
13.05,-0.75,68
13.05,-0.6,79
13.05,-0.45,51
13.05,-0.3,45
13.05,-0.15,43
13.05,0.0,43
13.05,0.15,52
13.05,0.3,46
13.05,0.45,68
13.05,0.6,79
13.05,0.75,79
13.05,0.9,74
13.05,1.05,61
13.05,1.2,46
13.05,1.35,13
13.05,1.5,0
