-3.0,-1.5,0
-3.0,-1.35,17
-3.0,-1.2,60
-3.0,-1.05,85
-3.0,-0.9,97
-3.0,-0.75,104
-3.0,-0.6,108
-3.0,-0.45,109
-3.0,-0.3,107
-3.0,-0.15,101
-3.0,0.0,94
-3.0,0.15,92
-3.0,0.3,84
-3.0,0.45,81
-3.0,0.6,69
-3.0,0.75,61
-3.0,0.9,50
-3.0,1.05,33
-3.0,1.2,16
-3.0,1.35,0
-3.0,1.5,0
-2.85,-1.5,18
-2.85,-1.35,42
-2.85,-1.2,77
-2.85,-1.05,95
-2.85,-0.9,101
-2.85,-0.75,105
-2.85,-0.6,113
-2.85,-0.45,117
-2.85,-0.3,108
-2.85,-0.15,96
-2.85,0.0,87
-2.85,0.15,86
-2.85,0.3,88
-2.85,0.45,81
-2.85,0.6,70
-2.85,0.75,63
-2.85,0.9,55
-2.85,1.05,39
-2.85,1.2,22
-2.85,1.35,5
-2.85,1.5,0
-2.7,-1.5,63
-2.7,-1.35,81
-2.7,-1.2,101
-2.7,-1.05,107
-2.7,-0.9,101
-2.7,-0.75,89
-2.7,-0.6,119
-2.7,-0.45,132
-2.7,-0.3,109
-2.7,-0.15,84
-2.7,0.0,74
-2.7,0.15,79
-2.7,0.3,84
-2.7,0.45,74
-2.7,0.6,73
-2.7,0.75,70
-2.7,0.9,61
-2.7,1.05,48
-2.7,1.2,33
-2.7,1.35,20
-2.7,1.5,13
-2.55,-1.5,90
-2.55,-1.35,102
-2.55,-1.2,117
-2.55,-1.05,122
-2.55,-0.9,104
-2.55,-0.75,29
-2.55,-0.6,187
-2.55,-0.45,172
-2.55,-0.3,106
-2.55,-0.15,72
-2.55,0.0,60
-2.55,0.15,74
-2.55,0.3,82
-2.55,0.45,84
-2.55,0.6,76
-2.55,0.75,71
-2.55,0.9,64
-2.55,1.05,55
-2.55,1.2,45
-2.55,1.35,31
-2.55,1.5,26
-2.4,-1.5,104
-2.4,-1.35,109
-2.4,-1.2,118
-2.4,-1.05,121
-2.4,-0.9,113
-2.4,-0.75,125
-2.4,-0.6,255
-2.4,-0.45,166
-2.4,-0.3,104
-2.4,-0.15,63
-2.4,0.0,72
-2.4,0.15,80
-2.4,0.3,83
-2.4,0.45,83
-2.4,0.6,75
-2.4,0.75,70
-2.4,0.9,46
-2.4,1.05,45
-2.4,1.2,48
-2.4,1.35,42
-2.4,1.5,36
-2.25,-1.5,112
-2.25,-1.35,114
-2.25,-1.2,112
-2.25,-1.05,111
-2.25,-0.9,109
-2.25,-0.75,97
-2.25,-0.6,90
-2.25,-0.45,112
-2.25,-0.3,121
-2.25,-0.15,98
-2.25,0.0,87
-2.25,0.15,86
-2.25,0.3,68
-2.25,0.45,63
-2.25,0.6,53
-2.25,0.75,50
-2.25,0.9,46
-2.25,1.05,56
-2.25,1.2,53
-2.25,1.35,47
-2.25,1.5,44
-2.1,-1.5,118
-2.1,-1.35,119
-2.1,-1.2,116
-2.1,-1.05,107
-2.1,-0.9,101
-2.1,-0.75,94
-2.1,-0.6,90
-2.1,-0.45,96
-2.1,-0.3,107
-2.1,-0.15,86
-2.1,0.0,74
-2.1,0.15,67
-2.1,0.3,57
-2.1,0.45,53
-2.1,0.6,49
-2.1,0.75,46
-2.1,0.9,58
-2.1,1.05,54
-2.1,1.2,52
-2.1,1.35,51
-2.1,1.5,46
-1.95,-1.5,124
-1.95,-1.35,124
-1.95,-1.2,124
-1.95,-1.05,104
-1.95,-0.9,108
-1.95,-0.75,94
-1.95,-0.6,64
-1.95,-0.45,89
-1.95,-0.3,81
-1.95,-0.15,67
-1.95,0.0,65
-1.95,0.15,58
-1.95,0.3,54
-1.95,0.45,48
-1.95,0.6,53
-1.95,0.75,50
-1.95,0.9,51
-1.95,1.05,49
-1.95,1.2,50
-1.95,1.35,50
-1.95,1.5,50
-1.8,-1.5,124
-1.8,-1.35,121
-1.8,-1.2,116
-1.8,-1.05,110
-1.8,-0.9,98
-1.8,-0.75,92
-1.8,-0.6,85
-1.8,-0.45,96
-1.8,-0.3,69
-1.8,-0.15,60
-1.8,0.0,62
-1.8,0.15,60
-1.8,0.3,57
-1.8,0.45,49
-1.8,0.6,38
-1.8,0.75,36
-1.8,0.9,42
-1.8,1.05,47
-1.8,1.2,50
-1.8,1.35,52
-1.8,1.5,52
-1.65,-1.5,128
-1.65,-1.35,124
-1.65,-1.2,116
-1.65,-1.05,112
-1.65,-0.9,108
-1.65,-0.75,107
-1.65,-0.6,96
-1.65,-0.45,21
-1.65,-0.3,43
-1.65,-0.15,59
-1.65,0.0,61
-1.65,0.15,64
-1.65,0.3,53
-1.65,0.45,30
-1.65,0.6,10
-1.65,0.75,28
-1.65,0.9,44
-1.65,1.05,55
-1.65,1.2,58
-1.65,1.35,64
-1.65,1.5,66
-1.5,-1.5,139
-1.5,-1.35,134
-1.5,-1.2,132
-1.5,-1.05,126
-1.5,-0.9,116
-1.5,-0.75,127
-1.5,-0.6,149
-1.5,-0.45,127
-1.5,-0.3,1
-1.5,-0.15,57
-1.5,0.0,64
-1.5,0.15,62
-1.5,0.3,61
-1.5,0.45,26
-1.5,0.6,0
-1.5,0.75,22
-1.5,0.9,46
-1.5,1.05,60
-1.5,1.2,67
-1.5,1.35,71
-1.5,1.5,73
-1.35,-1.5,148
-1.35,-1.35,144
-1.35,-1.2,131
-1.35,-1.05,126
-1.35,-0.9,126
-1.35,-0.75,127
-1.35,-0.6,175
-1.35,-0.45,177
-1.35,-0.3,83
-1.35,-0.15,83
-1.35,0.0,71
-1.35,0.15,79
-1.35,0.3,85
-1.35,0.45,63
-1.35,0.6,39
-1.35,0.75,46
-1.35,0.9,60
-1.35,1.05,69
-1.35,1.2,75
-1.35,1.35,79
-1.35,1.5,80
-1.2,-1.5,169
-1.2,-1.35,165
-1.2,-1.2,153
-1.2,-1.05,137
-1.2,-0.9,128
-1.2,-0.75,93
-1.2,-0.6,81
-1.2,-0.45,113
-1.2,-0.3,110
-1.2,-0.15,117
-1.2,0.0,98
-1.2,0.15,126
-1.2,0.3,116
-1.2,0.45,95
-1.2,0.6,79
-1.2,0.75,73
-1.2,0.9,75
-1.2,1.05,77
-1.2,1.2,80
-1.2,1.35,80
-1.2,1.5,80
-1.05,-1.5,183
-1.05,-1.35,187
-1.05,-1.2,188
-1.05,-1.05,167
-1.05,-0.9,151
-1.05,-0.75,117
-1.05,-0.6,91
-1.05,-0.45,125
-1.05,-0.3,137
-1.05,-0.15,155
-1.05,0.0,154
-1.05,0.15,224
-1.05,0.3,126
-1.05,0.45,107
-1.05,0.6,95
-1.05,0.75,86
-1.05,0.9,82
-1.05,1.05,81
-1.05,1.2,80
-1.05,1.35,80
-1.05,1.5,80
-0.9,-1.5,199
-0.9,-1.35,221
-0.9,-1.2,232
-0.9,-1.05,198
-0.9,-0.9,193
-0.9,-0.75,209
-0.9,-0.6,137
-0.9,-0.45,103
-0.9,-0.3,169
-0.9,-0.15,191
-0.9,0.0,196
-0.9,0.15,64
-0.9,0.3,102
-0.9,0.45,108
-0.9,0.6,103
-0.9,0.75,84
-0.9,0.9,83
-0.9,1.05,80
-0.9,1.2,78
-0.9,1.35,69
-0.9,1.5,68
-0.75,-1.5,208
-0.75,-1.35,230
-0.75,-1.2,249
-0.75,-1.05,199
-0.75,-0.9,205
-0.75,-0.75,248
-0.75,-0.6,255
-0.75,-0.45,223
-0.75,-0.3,207
-0.75,-0.15,135
-0.75,0.0,135
-0.75,0.15,125
-0.75,0.3,105
-0.75,0.45,103
-0.75,0.6,97
-0.75,0.75,81
-0.75,0.9,73
-0.75,1.05,70
-0.75,1.2,69
-0.75,1.35,82
-0.75,1.5,82
-0.6,-1.5,199
-0.6,-1.35,209
-0.6,-1.2,212
-0.6,-1.05,189
-0.6,-0.9,93
-0.6,-0.75,198
-0.6,-0.6,255
-0.6,-0.45,255
-0.6,-0.3,255
-0.6,-0.15,181
-0.6,0.0,132
-0.6,0.15,119
-0.6,0.3,111
-0.6,0.45,110
-0.6,0.6,90
-0.6,0.75,107
-0.6,0.9,81
-0.6,1.05,81
-0.6,1.2,81
-0.6,1.35,83
-0.6,1.5,83
-0.45,-1.5,181
-0.45,-1.35,188
-0.45,-1.2,209
-0.45,-1.05,255
-0.45,-0.9,79
-0.45,-0.75,159
-0.45,-0.6,234
-0.45,-0.45,209
-0.45,-0.3,185
-0.45,-0.15,148
-0.45,0.0,118
-0.45,0.15,88
-0.45,0.3,84
-0.45,0.45,77
-0.45,0.6,86
-0.45,0.75,89
-0.45,0.9,99
-0.45,1.05,99
-0.45,1.2,99
-0.45,1.35,71
-0.45,1.5,73
-0.3,-1.5,153
-0.3,-1.35,148
-0.3,-1.2,158
-0.3,-1.05,182
-0.3,-0.9,187
-0.3,-0.75,174
-0.3,-0.6,171
-0.3,-0.45,162
-0.3,-0.3,102
-0.3,-0.15,121
-0.3,0.0,95
-0.3,0.15,35
-0.3,0.3,55
-0.3,0.45,67
-0.3,0.6,72
-0.3,0.75,83
-0.3,0.9,92
-0.3,1.05,97
-0.3,1.2,96
-0.3,1.35,98
-0.3,1.5,85
-0.15,-1.5,137
-0.15,-1.35,112
-0.15,-1.2,60
-0.15,-1.05,113
-0.15,-0.9,248
-0.15,-0.75,187
-0.15,-0.6,111
-0.15,-0.45,114
-0.15,-0.3,85
-0.15,-0.15,121
-0.15,0.0,255
-0.15,0.15,0
-0.15,0.3,55
-0.15,0.45,76
-0.15,0.6,79
-0.15,0.75,88
-0.15,0.9,96
-0.15,1.05,85
-0.15,1.2,87
-0.15,1.35,72
-0.15,1.5,72
0.0,-1.5,134
0.0,-1.35,97
0.0,-1.2,34
0.0,-1.05,83
0.0,-0.9,173
0.0,-0.75,135
0.0,-0.6,75
0.0,-0.45,99
0.0,-0.3,132
0.0,-0.15,151
0.0,0.0,86
0.0,0.15,83
0.0,0.3,79
0.0,0.45,68
0.0,0.6,68
0.0,0.75,83
0.0,0.9,75
0.0,1.05,86
0.0,1.2,86
0.0,1.35,86
0.0,1.5,80
0.15,-1.5,134
0.15,-1.35,124
0.15,-1.2,115
0.15,-1.05,127
0.15,-0.9,118
0.15,-0.75,64
0.15,-0.6,59
0.15,-0.45,100
0.15,-0.3,141
0.15,-0.15,252
0.15,0.0,98
0.15,0.15,99
0.15,0.3,89
0.15,0.45,69
0.15,0.6,69
0.15,0.75,90
0.15,0.9,98
0.15,1.05,98
0.15,1.2,95
0.15,1.35,91
0.15,1.5,88
0.3,-1.5,134
0.3,-1.35,140
0.3,-1.2,153
0.3,-1.05,163
0.3,-0.9,140
0.3,-0.75,191
0.3,-0.6,81
0.3,-0.45,106
0.3,-0.3,143
0.3,-0.15,177
0.3,0.0,123
0.3,0.15,104
0.3,0.3,88
0.3,0.45,90
0.3,0.6,109
0.3,0.75,135
0.3,0.9,129
0.3,1.05,113
0.3,1.2,103
0.3,1.35,96
0.3,1.5,92
0.45,-1.5,139
0.45,-1.35,142
0.45,-1.2,171
0.45,-1.05,229
0.45,-0.9,191
0.45,-0.75,59
0.45,-0.6,70
0.45,-0.45,123
0.45,-0.3,92
0.45,-0.15,77
0.45,0.0,73
0.45,0.15,91
0.45,0.3,105
0.45,0.45,105
0.45,0.6,163
0.45,0.75,225
0.45,0.9,166
0.45,1.05,134
0.45,1.2,120
0.45,1.35,109
0.45,1.5,104
0.6,-1.5,113
0.6,-1.35,131
0.6,-1.2,164
0.6,-1.05,213
0.6,-0.9,160
0.6,-0.75,62
0.6,-0.6,12
0.6,-0.45,130
0.6,-0.3,77
0.6,-0.15,79
0.6,0.0,67
0.6,0.15,89
0.6,0.3,63
0.6,0.45,38
0.6,0.6,130
0.6,0.75,200
0.6,0.9,158
0.6,1.05,133
0.6,1.2,121
0.6,1.35,114
0.6,1.5,110
0.75,-1.5,97
0.75,-1.35,117
0.75,-1.2,127
0.75,-1.05,121
0.75,-0.9,74
0.75,-0.75,28
0.75,-0.6,69
0.75,-0.45,218
0.75,-0.3,77
0.75,-0.15,103
0.75,0.0,205
0.75,0.15,107
0.75,0.3,65
0.75,0.45,78
0.75,0.6,93
0.75,0.75,121
0.75,0.9,124
0.75,1.05,118
0.75,1.2,103
0.75,1.35,98
0.75,1.5,94
0.9,-1.5,81
0.9,-1.35,80
0.9,-1.2,76
0.9,-1.05,56
0.9,-0.9,0
0.9,-0.75,14
0.9,-0.6,114
0.9,-0.45,86
0.9,-0.3,108
0.9,-0.15,90
0.9,0.0,53
0.9,0.15,59
0.9,0.3,79
0.9,0.45,93
0.9,0.6,88
0.9,0.75,97
0.9,0.9,104
0.9,1.05,97
0.9,1.2,95
0.9,1.35,93
0.9,1.5,91
1.05,-1.5,54
1.05,-1.35,50
1.05,-1.2,56
1.05,-1.05,42
1.05,-0.9,20
1.05,-0.75,31
1.05,-0.6,71
1.05,-0.45,85
1.05,-0.3,83
1.05,-0.15,108
1.05,0.0,95
1.05,0.15,32
1.05,0.3,70
1.05,0.45,61
1.05,0.6,78
1.05,0.75,87
1.05,0.9,82
1.05,1.05,84
1.05,1.2,85
1.05,1.35,88
1.05,1.5,87
1.2,-1.5,46
1.2,-1.35,44
1.2,-1.2,24
1.2,-1.05,12
1.2,-0.9,17
1.2,-0.75,21
1.2,-0.6,18
1.2,-0.45,60
1.2,-0.3,64
1.2,-0.15,64
1.2,0.0,73
1.2,0.15,83
1.2,0.3,86
1.2,0.45,68
1.2,0.6,70
1.2,0.75,68
1.2,0.9,71
1.2,1.05,81
1.2,1.2,82
1.2,1.35,83
1.2,1.5,79
1.35,-1.5,10
1.35,-1.35,10
1.35,-1.2,9
1.35,-1.05,9
1.35,-0.9,8
1.35,-0.75,8
1.35,-0.6,38
1.35,-0.45,70
1.35,-0.3,127
1.35,-0.15,107
1.35,0.0,244
1.35,0.15,97
1.35,0.3,82
1.35,0.45,78
1.35,0.6,75
1.35,0.75,60
1.35,0.9,73
1.35,1.05,71
1.35,1.2,73
1.35,1.35,69
1.35,1.5,69
1.5,-1.5,10
1.5,-1.35,8
1.5,-1.2,8
1.5,-1.05,6
1.5,-0.9,14
1.5,-0.75,16
1.5,-0.6,55
1.5,-0.45,33
1.5,-0.3,122
1.5,-0.15,84
1.5,0.0,102
1.5,0.15,94
1.5,0.3,83
1.5,0.45,78
1.5,0.6,72
1.5,0.75,51
1.5,0.9,52
1.5,1.05,68
1.5,1.2,66
1.5,1.35,67
1.5,1.5,64
1.65,-1.5,10
1.65,-1.35,10
1.65,-1.2,4
1.65,-1.05,0
1.65,-0.9,18
1.65,-0.75,44
1.65,-0.6,22
1.65,-0.45,19
1.65,-0.3,66
1.65,-0.15,76
1.65,0.0,59
1.65,0.15,71
1.65,0.3,41
1.65,0.45,35
1.65,0.6,40
1.65,0.75,37
1.65,0.9,46
1.65,1.05,42
1.65,1.2,51
1.65,1.35,48
1.65,1.5,63
1.8,-1.5,6
1.8,-1.35,6
1.8,-1.2,7
1.8,-1.05,8
1.8,-0.9,11
1.8,-0.75,3
1.8,-0.6,26
1.8,-0.45,30
1.8,-0.3,0
1.8,-0.15,60
1.8,0.0,120
1.8,0.15,59
1.8,0.3,17
1.8,0.45,30
1.8,0.6,33
1.8,0.75,33
1.8,0.9,38
1.8,1.05,39
1.8,1.2,40
1.8,1.35,63
1.8,1.5,63
1.95,-1.5,15
1.95,-1.35,14
1.95,-1.2,14
1.95,-1.05,15
1.95,-0.9,15
1.95,-0.75,16
1.95,-0.6,56
1.95,-0.45,54
1.95,-0.3,79
1.95,-0.15,39
1.95,0.0,36
1.95,0.15,48
1.95,0.3,57
1.95,0.45,29
1.95,0.6,23
1.95,0.75,46
1.95,0.9,51
1.95,1.05,54
1.95,1.2,57
1.95,1.35,55
1.95,1.5,56
2.1,-1.5,16
2.1,-1.35,20
2.1,-1.2,20
2.1,-1.05,22
2.1,-0.9,28
2.1,-0.75,32
2.1,-0.6,16
2.1,-0.45,87
2.1,-0.3,66
2.1,-0.15,48
2.1,0.0,17
2.1,0.15,57
2.1,0.3,39
2.1,0.45,17
2.1,0.6,25
2.1,0.75,34
2.1,0.9,40
2.1,1.05,47
2.1,1.2,50
2.1,1.35,51
2.1,1.5,52
2.25,-1.5,16
2.25,-1.35,13
2.25,-1.2,15
2.25,-1.05,19
2.25,-0.9,29
2.25,-0.75,24
2.25,-0.6,60
2.25,-0.45,65
2.25,-0.3,62
2.25,-0.15,47
2.25,0.0,20
2.25,0.15,31
2.25,0.3,44
2.25,0.45,16
2.25,0.6,5
2.25,0.75,34
2.25,0.9,44
2.25,1.05,45
2.25,1.2,47
2.25,1.35,57
2.25,1.5,59
2.4,-1.5,20
2.4,-1.35,20
2.4,-1.2,13
2.4,-1.05,0
2.4,-0.9,20
2.4,-0.75,38
2.4,-0.6,45
2.4,-0.45,78
2.4,-0.3,61
2.4,-0.15,29
2.4,0.0,63
2.4,0.15,148
2.4,0.3,236
2.4,0.45,76
2.4,0.6,46
2.4,0.75,52
2.4,0.9,59
2.4,1.05,64
2.4,1.2,67
2.4,1.35,65
2.4,1.5,66
2.55,-1.5,20
2.55,-1.35,17
2.55,-1.2,12
2.55,-1.05,5
2.55,-0.9,19
2.55,-0.75,31
2.55,-0.6,38
2.55,-0.45,78
2.55,-0.3,75
2.55,-0.15,64
2.55,0.0,127
2.55,0.15,74
2.55,0.3,89
2.55,0.45,77
2.55,0.6,81
2.55,0.75,81
2.55,0.9,84
2.55,1.05,86
2.55,1.2,76
2.55,1.35,77
2.55,1.5,73
2.7,-1.5,29
2.7,-1.35,27
2.7,-1.2,22
2.7,-1.05,21
2.7,-0.9,5
2.7,-0.75,48
2.7,-0.6,76
2.7,-0.45,76
2.7,-0.3,124
2.7,-0.15,69
2.7,0.0,49
2.7,0.15,43
2.7,0.3,31
2.7,0.45,75
2.7,0.6,87
2.7,0.75,87
2.7,0.9,98
2.7,1.05,98
2.7,1.2,85
2.7,1.35,84
2.7,1.5,84
2.85,-1.5,40
2.85,-1.35,37
2.85,-1.2,28
2.85,-1.05,25
2.85,-0.9,5
2.85,-0.75,68
2.85,-0.6,68
2.85,-0.45,60
2.85,-0.3,21
2.85,-0.15,28
2.85,0.0,29
2.85,0.15,105
2.85,0.3,90
2.85,0.45,108
2.85,0.6,123
2.85,0.75,122
2.85,0.9,115
2.85,1.05,108
2.85,1.2,105
2.85,1.35,84
2.85,1.5,94
3.0,-1.5,53
3.0,-1.35,52
3.0,-1.2,48
3.0,-1.05,38
3.0,-0.9,5
3.0,-0.75,65
3.0,-0.6,29
3.0,-0.45,47
3.0,-0.3,60
3.0,-0.15,47
3.0,0.0,45
3.0,0.15,81
3.0,0.3,154
3.0,0.45,217
3.0,0.6,133
3.0,0.75,112
3.0,0.9,102
3.0,1.05,88
3.0,1.2,85
3.0,1.35,84
3.0,1.5,84
3.15,-1.5,81
3.15,-1.35,80
3.15,-1.2,92
3.15,-1.05,92
3.15,-0.9,89
3.15,-0.75,94
3.15,-0.6,53
3.15,-0.45,105
3.15,-0.3,125
3.15,-0.15,33
3.15,0.0,17
3.15,0.15,106
3.15,0.3,120
3.15,0.45,131
3.15,0.6,141
3.15,0.75,127
3.15,0.9,109
3.15,1.05,109
3.15,1.2,109
3.15,1.35,104
3.15,1.5,104
3.3,-1.5,76
3.3,-1.35,83
3.3,-1.2,88
3.3,-1.05,114
3.3,-0.9,213
3.3,-0.75,99
3.3,-0.6,70
3.3,-0.45,160
3.3,-0.3,149
3.3,-0.15,58
3.3,0.0,57
3.3,0.15,14
3.3,0.3,15
3.3,0.45,84
3.3,0.6,97
3.3,0.75,95
3.3,0.9,94
3.3,1.05,92
3.3,1.2,93
3.3,1.35,94
3.3,1.5,104
3.45,-1.5,44
3.45,-1.35,83
3.45,-1.2,95
3.45,-1.05,90
3.45,-0.9,49
3.45,-0.75,129
3.45,-0.6,69
3.45,-0.45,64
3.45,-0.3,59
3.45,-0.15,57
3.45,0.0,117
3.45,0.15,0
3.45,0.3,98
3.45,0.45,82
3.45,0.6,72
3.45,0.75,71
3.45,0.9,78
3.45,1.05,94
3.45,1.2,93
3.45,1.35,96
3.45,1.5,97
3.6,-1.5,60
3.6,-1.35,58
3.6,-1.2,55
3.6,-1.05,46
3.6,-0.9,37
3.6,-0.75,93
3.6,-0.6,60
3.6,-0.45,22
3.6,-0.3,187
3.6,-0.15,67
3.6,0.0,142
3.6,0.15,115
3.6,0.3,176
3.6,0.45,94
3.6,0.6,69
3.6,0.75,69
3.6,0.9,71
3.6,1.05,88
3.6,1.2,94
3.6,1.35,94
3.6,1.5,95
3.75,-1.5,47
3.75,-1.35,30
3.75,-1.2,28
3.75,-1.05,15
3.75,-0.9,0
3.75,-0.75,31
3.75,-0.6,205
3.75,-0.45,77
3.75,-0.3,107
3.75,-0.15,82
3.75,0.0,51
3.75,0.15,51
3.75,0.3,55
3.75,0.45,69
3.75,0.6,85
3.75,0.75,80
3.75,0.9,81
3.75,1.05,86
3.75,1.2,86
3.75,1.35,86
3.75,1.5,86
3.9,-1.5,28
3.9,-1.35,25
3.9,-1.2,23
3.9,-1.05,37
3.9,-0.9,57
3.9,-0.75,46
3.9,-0.6,160
3.9,-0.45,98
3.9,-0.3,191
3.9,-0.15,54
3.9,0.0,53
3.9,0.15,53
3.9,0.3,69
3.9,0.45,78
3.9,0.6,86
3.9,0.75,99
3.9,0.9,98
3.9,1.05,94
3.9,1.2,92
3.9,1.35,91
3.9,1.5,91
4.05,-1.5,29
4.05,-1.35,23
4.05,-1.2,0
4.05,-1.05,54
4.05,-0.9,127
4.05,-0.75,60
4.05,-0.6,74
4.05,-0.45,105
4.05,-0.3,79
4.05,-0.15,235
4.05,0.0,74
4.05,0.15,87
4.05,0.3,80
4.05,0.45,178
4.05,0.6,122
4.05,0.75,100
4.05,0.9,82
4.05,1.05,74
4.05,1.2,73
4.05,1.35,73
4.05,1.5,79
4.2,-1.5,33
4.2,-1.35,28
4.2,-1.2,36
4.2,-1.05,59
4.2,-0.9,72
4.2,-0.75,72
4.2,-0.6,44
4.2,-0.45,72
4.2,-0.3,131
4.2,-0.15,118
4.2,0.0,62
4.2,0.15,106
4.2,0.3,109
4.2,0.45,159
4.2,0.6,134
4.2,0.75,126
4.2,0.9,105
4.2,1.05,88
4.2,1.2,80
4.2,1.35,73
4.2,1.5,73
4.35,-1.5,38
4.35,-1.35,38
4.35,-1.2,37
4.35,-1.05,35
4.35,-0.9,20
4.35,-0.75,90
4.35,-0.6,167
4.35,-0.45,206
4.35,-0.3,219
4.35,-0.15,56
4.35,0.0,161
4.35,0.15,44
4.35,0.3,112
4.35,0.45,132
4.35,0.6,118
4.35,0.75,108
4.35,0.9,89
4.35,1.05,66
4.35,1.2,58
4.35,1.35,78
4.35,1.5,78
4.5,-1.5,65
4.5,-1.35,61
4.5,-1.2,62
4.5,-1.05,51
4.5,-0.9,50
4.5,-0.75,127
4.5,-0.6,115
4.5,-0.45,105
4.5,-0.3,153
4.5,-0.15,10
4.5,0.0,234
4.5,0.15,123
4.5,0.3,172
4.5,0.45,115
4.5,0.6,132
4.5,0.75,112
4.5,0.9,81
4.5,1.05,41
4.5,1.2,37
4.5,1.35,56
4.5,1.5,74
4.65,-1.5,65
4.65,-1.35,77
4.65,-1.2,72
4.65,-1.05,80
4.65,-0.9,39
4.65,-0.75,153
4.65,-0.6,255
4.65,-0.45,134
4.65,-0.3,86
4.65,-0.15,49
4.65,0.0,192
4.65,0.15,133
4.65,0.3,99
4.65,0.45,115
4.65,0.6,109
4.65,0.75,104
4.65,0.9,64
4.65,1.05,1
4.65,1.2,5
4.65,1.35,38
4.65,1.5,62
4.8,-1.5,74
4.8,-1.35,87
4.8,-1.2,85
4.8,-1.05,107
4.8,-0.9,17
4.8,-0.75,216
4.8,-0.6,255
4.8,-0.45,35
4.8,-0.3,38
4.8,-0.15,69
4.8,0.0,227
4.8,0.15,41
4.8,0.3,97
4.8,0.45,100
4.8,0.6,84
4.8,0.75,85
4.8,0.9,60
4.8,1.05,21
4.8,1.2,21
4.8,1.35,45
4.8,1.5,62
4.95,-1.5,49
4.95,-1.35,76
4.95,-1.2,87
4.95,-1.05,92
4.95,-0.9,123
4.95,-0.75,255
4.95,-0.6,236
4.95,-0.45,104
4.95,-0.3,35
4.95,-0.15,112
4.95,0.0,25
4.95,0.15,59
4.95,0.3,255
4.95,0.45,121
4.95,0.6,68
4.95,0.75,68
4.95,0.9,55
4.95,1.05,40
4.95,1.2,41
4.95,1.35,45
4.95,1.5,51
5.1,-1.5,71
5.1,-1.35,70
5.1,-1.2,68
5.1,-1.05,62
5.1,-0.9,64
5.1,-0.75,100
5.1,-0.6,81
5.1,-0.45,132
5.1,-0.3,37
5.1,-0.15,35
5.1,0.0,58
5.1,0.15,25
5.1,0.3,36
5.1,0.45,70
5.1,0.6,68
5.1,0.75,68
5.1,0.9,64
5.1,1.05,57
5.1,1.2,52
5.1,1.35,50
5.1,1.5,45
5.25,-1.5,52
5.25,-1.35,48
5.25,-1.2,45
5.25,-1.05,30
5.25,-0.9,1
5.25,-0.75,23
5.25,-0.6,57
5.25,-0.45,38
5.25,-0.3,34
5.25,-0.15,24
5.25,0.0,22
5.25,0.15,0
5.25,0.3,2
5.25,0.45,30
5.25,0.6,61
5.25,0.75,68
5.25,0.9,63
5.25,1.05,60
5.25,1.2,56
5.25,1.35,62
5.25,1.5,61
5.4,-1.5,32
5.4,-1.35,32
5.4,-1.2,32
5.4,-1.05,26
5.4,-0.9,17
5.4,-0.75,20
5.4,-0.6,88
5.4,-0.45,84
5.4,-0.3,103
5.4,-0.15,51
5.4,0.0,3
5.4,0.15,31
5.4,0.3,52
5.4,0.45,51
5.4,0.6,64
5.4,0.75,66
5.4,0.9,66
5.4,1.05,72
5.4,1.2,69
5.4,1.35,67
5.4,1.5,66
5.55,-1.5,41
5.55,-1.35,38
5.55,-1.2,36
5.55,-1.05,28
5.55,-0.9,43
5.55,-0.75,115
5.55,-0.6,78
5.55,-0.45,34
5.55,-0.3,10
5.55,-0.15,95
5.55,0.0,36
5.55,0.15,3
5.55,0.3,79
5.55,0.45,89
5.55,0.6,101
5.55,0.75,89
5.55,0.9,87
5.55,1.05,80
5.55,1.2,77
5.55,1.35,75
5.55,1.5,74
5.7,-1.5,45
5.7,-1.35,44
5.7,-1.2,43
5.7,-1.05,28
5.7,-0.9,44
5.7,-0.75,46
5.7,-0.6,54
5.7,-0.45,20
5.7,-0.3,45
5.7,-0.15,160
5.7,0.0,34
5.7,0.15,37
5.7,0.3,60
5.7,0.45,92
5.7,0.6,106
5.7,0.75,92
5.7,0.9,86
5.7,1.05,83
5.7,1.2,60
5.7,1.35,57
5.7,1.5,55
5.85,-1.5,52
5.85,-1.35,52
5.85,-1.2,45
5.85,-1.05,51
5.85,-0.9,88
5.85,-0.75,6
5.85,-0.6,93
5.85,-0.45,11
5.85,-0.3,80
5.85,-0.15,20
5.85,0.0,255
5.85,0.15,51
5.85,0.3,49
5.85,0.45,49
5.85,0.6,87
5.85,0.75,89
5.85,0.9,88
5.85,1.05,88
5.85,1.2,88
5.85,1.35,64
5.85,1.5,66
6.0,-1.5,49
6.0,-1.35,49
6.0,-1.2,52
6.0,-1.05,59
6.0,-0.9,103
6.0,-0.75,73
6.0,-0.6,234
6.0,-0.45,153
6.0,-0.3,45
6.0,-0.15,59
6.0,0.0,66
6.0,0.15,77
6.0,0.3,68
6.0,0.45,78
6.0,0.6,99
6.0,0.75,82
6.0,0.9,74
6.0,1.05,69
6.0,1.2,73
6.0,1.35,71
6.0,1.5,69
6.15,-1.5,64
6.15,-1.35,62
6.15,-1.2,60
6.15,-1.05,45
6.15,-0.9,74
6.15,-0.75,73
6.15,-0.6,202
6.15,-0.45,129
6.15,-0.3,82
6.15,-0.15,48
6.15,0.0,131
6.15,0.15,52
6.15,0.3,60
6.15,0.45,87
6.15,0.6,125
6.15,0.75,106
6.15,0.9,93
6.15,1.05,73
6.15,1.2,69
6.15,1.35,69
6.15,1.5,69
6.3,-1.5,65
6.3,-1.35,65
6.3,-1.2,57
6.3,-1.05,39
6.3,-0.9,84
6.3,-0.75,88
6.3,-0.6,178
6.3,-0.45,48
6.3,-0.3,64
6.3,-0.15,78
6.3,0.0,43
6.3,0.15,27
6.3,0.3,76
6.3,0.45,81
6.3,0.6,99
6.3,0.75,97
6.3,0.9,90
6.3,1.05,75
6.3,1.2,72
6.3,1.35,70
6.3,1.5,69
6.45,-1.5,65
6.45,-1.35,65
6.45,-1.2,65
6.45,-1.05,67
6.45,-0.9,83
6.45,-0.75,113
6.45,-0.6,4
6.45,-0.45,47
6.45,-0.3,78
6.45,-0.15,229
6.45,0.0,43
6.45,0.15,42
6.45,0.3,92
6.45,0.45,65
6.45,0.6,64
6.45,0.75,65
6.45,0.9,62
6.45,1.05,67
6.45,1.2,65
6.45,1.35,63
6.45,1.5,63
6.6,-1.5,53
6.6,-1.35,53
6.6,-1.2,51
6.6,-1.05,54
6.6,-0.9,54
6.6,-0.75,63
6.6,-0.6,80
6.6,-0.45,119
6.6,-0.3,52
6.6,-0.15,0
6.6,0.0,59
6.6,0.15,51
6.6,0.3,55
6.6,0.45,49
6.6,0.6,56
6.6,0.75,58
6.6,0.9,58
6.6,1.05,58
6.6,1.2,58
6.6,1.35,65
6.6,1.5,64
6.75,-1.5,50
6.75,-1.35,45
6.75,-1.2,43
6.75,-1.05,43
6.75,-0.9,28
6.75,-0.75,25
6.75,-0.6,61
6.75,-0.45,85
6.75,-0.3,44
6.75,-0.15,99
6.75,0.0,8
6.75,0.15,9
6.75,0.3,49
6.75,0.45,62
6.75,0.6,70
6.75,0.75,75
6.75,0.9,77
6.75,1.05,78
6.75,1.2,62
6.75,1.35,58
6.75,1.5,58
6.9,-1.5,50
6.9,-1.35,50
6.9,-1.2,42
6.9,-1.05,25
6.9,-0.9,29
6.9,-0.75,50
6.9,-0.6,20
6.9,-0.45,117
6.9,-0.3,96
6.9,-0.15,67
6.9,0.0,115
6.9,0.15,95
6.9,0.3,52
6.9,0.45,53
6.9,0.6,60
6.9,0.75,63
6.9,0.9,78
6.9,1.05,53
6.9,1.2,54
6.9,1.35,55
6.9,1.5,56
7.05,-1.5,44
7.05,-1.35,42
7.05,-1.2,35
7.05,-1.05,16
7.05,-0.9,32
7.05,-0.75,64
7.05,-0.6,5
7.05,-0.45,72
7.05,-0.3,53
7.05,-0.15,28
7.05,0.0,24
7.05,0.15,61
7.05,0.3,36
7.05,0.45,43
7.05,0.6,46
7.05,0.75,57
7.05,0.9,59
7.05,1.05,42
7.05,1.2,43
7.05,1.35,39
7.05,1.5,40
7.2,-1.5,82
7.2,-1.35,72
7.2,-1.2,70
7.2,-1.05,75
7.2,-0.9,97
7.2,-0.75,147
7.2,-0.6,85
7.2,-0.45,11
7.2,-0.3,158
7.2,-0.15,73
7.2,0.0,39
7.2,0.15,24
7.2,0.3,24
7.2,0.45,35
7.2,0.6,26
7.2,0.75,29
7.2,0.9,30
7.2,1.05,35
7.2,1.2,35
7.2,1.35,35
7.2,1.5,39
7.35,-1.5,118
7.35,-1.35,113
7.35,-1.2,114
7.35,-1.05,114
7.35,-0.9,114
7.35,-0.75,128
7.35,-0.6,229
7.35,-0.45,57
7.35,-0.3,66
7.35,-0.15,31
7.35,0.0,24
7.35,0.15,27
7.35,0.3,23
7.35,0.45,22
7.35,0.6,28
7.35,0.75,45
7.35,0.9,45
7.35,1.05,45
7.35,1.2,44
7.35,1.35,44
7.35,1.5,43
7.5,-1.5,137
7.5,-1.35,137
7.5,-1.2,123
7.5,-1.05,121
7.5,-0.9,108
7.5,-0.75,128
7.5,-0.6,90
7.5,-0.45,113
7.5,-0.3,83
7.5,-0.15,106
7.5,0.0,88
7.5,0.15,67
7.5,0.3,0
7.5,0.45,40
7.5,0.6,58
7.5,0.75,55
7.5,0.9,47
7.5,1.05,44
7.5,1.2,44
7.5,1.35,45
7.5,1.5,44
7.65,-1.5,107
7.65,-1.35,108
7.65,-1.2,118
7.65,-1.05,101
7.65,-0.9,92
7.65,-0.75,118
7.65,-0.6,115
7.65,-0.45,170
7.65,-0.3,19
7.65,-0.15,92
7.65,0.0,30
7.65,0.15,136
7.65,0.3,13
7.65,0.45,58
7.65,0.6,105
7.65,0.75,65
7.65,0.9,53
7.65,1.05,52
7.65,1.2,51
7.65,1.35,50
7.65,1.5,49
7.8,-1.5,118
7.8,-1.35,118
7.8,-1.2,116
7.8,-1.05,114
7.8,-0.9,98
7.8,-0.75,127
7.8,-0.6,75
7.8,-0.45,59
7.8,-0.3,255
7.8,-0.15,40
7.8,0.0,94
7.8,0.15,57
7.8,0.3,17
7.8,0.45,24
7.8,0.6,70
7.8,0.75,63
7.8,0.9,58
7.8,1.05,56
7.8,1.2,55
7.8,1.35,54
7.8,1.5,50
7.95,-1.5,113
7.95,-1.35,118
7.95,-1.2,117
7.95,-1.05,117
7.95,-0.9,149
7.95,-0.75,155
7.95,-0.6,105
7.95,-0.45,81
7.95,-0.3,72
7.95,-0.15,7
7.95,0.0,37
7.95,0.15,33
7.95,0.3,26
7.95,0.45,38
7.95,0.6,50
7.95,0.75,55
7.95,0.9,59
7.95,1.05,59
7.95,1.2,59
7.95,1.35,58
7.95,1.5,50
8.1,-1.5,90
8.1,-1.35,108
8.1,-1.2,92
8.1,-1.05,65
8.1,-0.9,136
8.1,-0.75,121
8.1,-0.6,123
8.1,-0.45,59
8.1,-0.3,164
8.1,-0.15,17
8.1,0.0,46
8.1,0.15,50
8.1,0.3,47
8.1,0.45,56
8.1,0.6,55
8.1,0.75,52
8.1,0.9,52
8.1,1.05,52
8.1,1.2,64
8.1,1.35,65
8.1,1.5,65
8.25,-1.5,82
8.25,-1.35,82
8.25,-1.2,81
8.25,-1.05,77
8.25,-0.9,117
8.25,-0.75,96
8.25,-0.6,95
8.25,-0.45,152
8.25,-0.3,181
8.25,-0.15,73
8.25,0.0,96
8.25,0.15,111
8.25,0.3,80
8.25,0.45,91
8.25,0.6,71
8.25,0.75,75
8.25,0.9,76
8.25,1.05,72
8.25,1.2,72
8.25,1.35,72
8.25,1.5,72
8.4,-1.5,82
8.4,-1.35,82
8.4,-1.2,79
8.4,-1.05,73
8.4,-0.9,64
8.4,-0.75,49
8.4,-0.6,86
8.4,-0.45,56
8.4,-0.3,28
8.4,-0.15,50
8.4,0.0,187
8.4,0.15,100
8.4,0.3,105
8.4,0.45,110
8.4,0.6,95
8.4,0.75,97
8.4,0.9,85
8.4,1.05,85
8.4,1.2,89
8.4,1.35,89
8.4,1.5,89
8.55,-1.5,76
8.55,-1.35,62
8.55,-1.2,52
8.55,-1.05,41
8.55,-0.9,61
8.55,-0.75,64
8.55,-0.6,39
8.55,-0.45,57
8.55,-0.3,125
8.55,-0.15,78
8.55,0.0,78
8.55,0.15,96
8.55,0.3,110
8.55,0.45,126
8.55,0.6,115
8.55,0.75,107
8.55,0.9,118
8.55,1.05,110
8.55,1.2,93
8.55,1.35,92
8.55,1.5,91
8.7,-1.5,73
8.7,-1.35,55
8.7,-1.2,40
8.7,-1.05,0
8.7,-0.9,68
8.7,-0.75,156
8.7,-0.6,58
8.7,-0.45,52
8.7,-0.3,44
8.7,-0.15,39
8.7,0.0,65
8.7,0.15,111
8.7,0.3,108
8.7,0.45,123
8.7,0.6,126
8.7,0.75,122
8.7,0.9,120
8.7,1.05,110
8.7,1.2,105
8.7,1.35,112
8.7,1.5,112
8.85,-1.5,81
8.85,-1.35,76
8.85,-1.2,69
8.85,-1.05,58
8.85,-0.9,105
8.85,-0.75,127
8.85,-0.6,208
8.85,-0.45,48
8.85,-0.3,61
8.85,-0.15,36
8.85,0.0,36
8.85,0.15,101
8.85,0.3,165
8.85,0.45,152
8.85,0.6,124
8.85,0.75,122
8.85,0.9,118
8.85,1.05,124
8.85,1.2,123
8.85,1.35,124
8.85,1.5,112
9.0,-1.5,85
9.0,-1.35,88
9.0,-1.2,73
9.0,-1.05,79
9.0,-0.9,107
9.0,-0.75,109
9.0,-0.6,108
9.0,-0.45,40
9.0,-0.3,109
9.0,-0.15,56
9.0,0.0,25
9.0,0.15,71
9.0,0.3,103
9.0,0.45,118
9.0,0.6,118
9.0,0.75,118
9.0,0.9,122
9.0,1.05,122
9.0,1.2,126
9.0,1.35,126
9.0,1.5,117
9.15,-1.5,74
9.15,-1.35,89
9.15,-1.2,88
9.15,-1.05,97
9.15,-0.9,109
9.15,-0.75,6
9.15,-0.6,160
9.15,-0.45,110
9.15,-0.3,30
9.15,-0.15,51
9.15,0.0,93
9.15,0.15,59
9.15,0.3,96
9.15,0.45,121
9.15,0.6,128
9.15,0.75,134
9.15,0.9,141
9.15,1.05,144
9.15,1.2,146
9.15,1.35,146
9.15,1.5,146
9.3,-1.5,74
9.3,-1.35,61
9.3,-1.2,93
9.3,-1.05,78
9.3,-0.9,83
9.3,-0.75,85
9.3,-0.6,62
9.3,-0.45,140
9.3,-0.3,117
9.3,-0.15,142
9.3,0.0,255
9.3,0.15,111
9.3,0.3,110
9.3,0.45,131
9.3,0.6,131
9.3,0.75,139
9.3,0.9,144
9.3,1.05,145
9.3,1.2,146
9.3,1.35,146
9.3,1.5,146
9.45,-1.5,59
9.45,-1.35,59
9.45,-1.2,62
9.45,-1.05,57
9.45,-0.9,38
9.45,-0.75,28
9.45,-0.6,51
9.45,-0.45,82
9.45,-0.3,43
9.45,-0.15,22
9.45,0.0,98
9.45,0.15,117
9.45,0.3,127
9.45,0.45,138
9.45,0.6,145
9.45,0.75,164
9.45,0.9,178
9.45,1.05,168
9.45,1.2,167
9.45,1.35,166
9.45,1.5,166
9.6,-1.5,61
9.6,-1.35,60
9.6,-1.2,57
9.6,-1.05,39
9.6,-0.9,43
9.6,-0.75,43
9.6,-0.6,26
9.6,-0.45,20
9.6,-0.3,0
9.6,-0.15,121
9.6,0.0,125
9.6,0.15,236
9.6,0.3,152
9.6,0.45,166
9.6,0.6,189
9.6,0.75,192
9.6,0.9,183
9.6,1.05,177
9.6,1.2,173
9.6,1.35,171
9.6,1.5,156
9.75,-1.5,61
9.75,-1.35,61
9.75,-1.2,61
9.75,-1.05,61
9.75,-0.9,57
9.75,-0.75,60
9.75,-0.6,92
9.75,-0.45,45
9.75,-0.3,56
9.75,-0.15,102
9.75,0.0,76
9.75,0.15,24
9.75,0.3,129
9.75,0.45,176
9.75,0.6,245
9.75,0.75,222
9.75,0.9,181
9.75,1.05,163
9.75,1.2,152
9.75,1.35,146
9.75,1.5,146
9.9,-1.5,39
9.9,-1.35,40
9.9,-1.2,60
9.9,-1.05,60
9.9,-0.9,70
9.9,-0.75,79
9.9,-0.6,79
9.9,-0.45,60
9.9,-0.3,35
9.9,-0.15,54
9.9,0.0,80
9.9,0.15,159
9.9,0.3,159
9.9,0.45,181
9.9,0.6,228
9.9,0.75,212
9.9,0.9,184
9.9,1.05,164
9.9,1.2,154
9.9,1.35,147
9.9,1.5,146
10.05,-1.5,39
10.05,-1.35,44
10.05,-1.2,45
10.05,-1.05,73
10.05,-0.9,78
10.05,-0.75,83
10.05,-0.6,81
10.05,-0.45,80
10.05,-0.3,16
10.05,-0.15,35
10.05,0.0,72
10.05,0.15,167
10.05,0.3,218
10.05,0.45,205
10.05,0.6,185
10.05,0.75,182
10.05,0.9,171
10.05,1.05,161
10.05,1.2,153
10.05,1.35,148
10.05,1.5,144
10.2,-1.5,53
10.2,-1.35,57
10.2,-1.2,60
10.2,-1.05,59
10.2,-0.9,57
10.2,-0.75,66
10.2,-0.6,83
10.2,-0.45,102
10.2,-0.3,66
10.2,-0.15,80
10.2,0.0,86
10.2,0.15,81
10.2,0.3,181
10.2,0.45,182
10.2,0.6,162
10.2,0.75,156
10.2,0.9,152
10.2,1.05,151
10.2,1.2,147
10.2,1.35,139
10.2,1.5,136
10.35,-1.5,52
10.35,-1.35,56
10.35,-1.2,55
10.35,-1.05,57
10.35,-0.9,51
10.35,-0.75,33
10.35,-0.6,38
10.35,-0.45,70
10.35,-0.3,130
10.35,-0.15,100
10.35,0.0,85
10.35,0.15,72
10.35,0.3,66
10.35,0.45,120
10.35,0.6,124
10.35,0.75,128
10.35,0.9,129
10.35,1.05,127
10.35,1.2,125
10.35,1.35,123
10.35,1.5,105
10.5,-1.5,43
10.5,-1.35,43
10.5,-1.2,47
10.5,-1.05,43
10.5,-0.9,56
10.5,-0.75,39
10.5,-0.6,23
10.5,-0.45,6
10.5,-0.3,170
10.5,-0.15,66
10.5,0.0,104
10.5,0.15,52
10.5,0.3,34
10.5,0.45,88
10.5,0.6,97
10.5,0.75,107
10.5,0.9,110
10.5,1.05,107
10.5,1.2,107
10.5,1.35,106
10.5,1.5,105
10.65,-1.5,43
10.65,-1.35,44
10.65,-1.2,42
10.65,-1.05,42
10.65,-0.9,42
10.65,-0.75,37
10.65,-0.6,47
10.65,-0.45,56
10.65,-0.3,179
10.65,-0.15,125
10.65,0.0,121
10.65,0.15,77
10.65,0.3,66
10.65,0.45,67
10.65,0.6,68
10.65,0.75,86
10.65,0.9,94
10.65,1.05,97
10.65,1.2,99
10.65,1.35,100
10.65,1.5,101
10.8,-1.5,49
10.8,-1.35,49
10.8,-1.2,49
10.8,-1.05,50
10.8,-0.9,49
10.8,-0.75,47
10.8,-0.6,47
10.8,-0.45,73
10.8,-0.3,90
10.8,-0.15,78
10.8,0.0,175
10.8,0.15,90
10.8,0.3,64
10.8,0.45,60
10.8,0.6,52
10.8,0.75,52
10.8,0.9,67
10.8,1.05,70
10.8,1.2,73
10.8,1.35,75
10.8,1.5,93
10.95,-1.5,49
10.95,-1.35,50
10.95,-1.2,54
10.95,-1.05,65
10.95,-0.9,66
10.95,-0.75,66
10.95,-0.6,74
10.95,-0.45,253
10.95,-0.3,154
10.95,-0.15,120
10.95,0.0,185
10.95,0.15,47
10.95,0.3,33
10.95,0.45,46
10.95,0.6,45
10.95,0.75,50
10.95,0.9,45
10.95,1.05,57
10.95,1.2,64
10.95,1.35,68
10.95,1.5,71
11.1,-1.5,66
11.1,-1.35,65
11.1,-1.2,61
11.1,-1.05,61
11.1,-0.9,61
11.1,-0.75,64
11.1,-0.6,68
11.1,-0.45,64
11.1,-0.3,92
11.1,-0.15,111
11.1,0.0,88
11.1,0.15,46
11.1,0.3,36
11.1,0.45,29
11.1,0.6,27
11.1,0.75,30
11.1,0.9,33
11.1,1.05,45
11.1,1.2,48
11.1,1.35,58
11.1,1.5,62
11.25,-1.5,81
11.25,-1.35,87
11.25,-1.2,69
11.25,-1.05,67
11.25,-0.9,65
11.25,-0.75,67
11.25,-0.6,64
11.25,-0.45,65
11.25,-0.3,80
11.25,-0.15,102
11.25,0.0,67
11.25,0.15,56
11.25,0.3,33
11.25,0.45,14
11.25,0.6,13
11.25,0.75,22
11.25,0.9,29
11.25,1.05,33
11.25,1.2,36
11.25,1.35,51
11.25,1.5,54
11.4,-1.5,117
11.4,-1.35,118
11.4,-1.2,109
11.4,-1.05,102
11.4,-0.9,92
11.4,-0.75,95
11.4,-0.6,95
11.4,-0.45,64
11.4,-0.3,79
11.4,-0.15,81
11.4,0.0,12
11.4,0.15,40
11.4,0.3,16
11.4,0.45,8
11.4,0.6,8
11.4,0.75,36
11.4,0.9,37
11.4,1.05,44
11.4,1.2,48
11.4,1.35,51
11.4,1.5,38
11.55,-1.5,114
11.55,-1.35,128
11.55,-1.2,129
11.55,-1.05,111
11.55,-0.9,85
11.55,-0.75,0
11.55,-0.6,187
11.55,-0.45,150
11.55,-0.3,181
11.55,-0.15,208
11.55,0.0,89
11.55,0.15,57
11.55,0.3,53
11.55,0.45,44
11.55,0.6,38
11.55,0.75,47
11.55,0.9,57
11.55,1.05,64
11.55,1.2,70
11.55,1.35,67
11.55,1.5,65
11.7,-1.5,126
11.7,-1.35,114
11.7,-1.2,120
11.7,-1.05,130
11.7,-0.9,114
11.7,-0.75,117
11.7,-0.6,154
11.7,-0.45,131
11.7,-0.3,153
11.7,-0.15,168
11.7,0.0,138
11.7,0.15,101
11.7,0.3,79
11.7,0.45,67
11.7,0.6,59
11.7,0.75,70
11.7,0.9,76
11.7,1.05,79
11.7,1.2,80
11.7,1.35,82
11.7,1.5,83
11.85,-1.5,101
11.85,-1.35,127
11.85,-1.2,128
11.85,-1.05,118
11.85,-0.9,132
11.85,-0.75,149
11.85,-0.6,176
11.85,-0.45,19
11.85,-0.3,66
11.85,-0.15,109
11.85,0.0,146
11.85,0.15,134
11.85,0.3,91
11.85,0.45,88
11.85,0.6,93
11.85,0.75,88
11.85,0.9,95
11.85,1.05,89
11.85,1.2,89
11.85,1.35,88
11.85,1.5,87
12.0,-1.5,90
12.0,-1.35,91
12.0,-1.2,92
12.0,-1.05,106
12.0,-0.9,116
12.0,-0.75,140
12.0,-0.6,60
12.0,-0.45,40
12.0,-0.3,0
12.0,-0.15,121
12.0,0.0,247
12.0,0.15,194
12.0,0.3,153
12.0,0.45,129
12.0,0.6,117
12.0,0.75,110
12.0,0.9,106
12.0,1.05,101
12.0,1.2,97
12.0,1.35,90
12.0,1.5,86
12.15,-1.5,90
12.15,-1.35,93
12.15,-1.2,96
12.15,-1.05,104
12.15,-0.9,134
12.15,-0.75,75
12.15,-0.6,53
12.15,-0.45,25
12.15,-0.3,25
12.15,-0.15,136
12.15,0.0,255
12.15,0.15,202
12.15,0.3,182
12.15,0.45,156
12.15,0.6,128
12.15,0.75,114
12.15,0.9,104
12.15,1.05,110
12.15,1.2,102
12.15,1.35,95
12.15,1.5,75
12.3,-1.5,81
12.3,-1.35,85
12.3,-1.2,89
12.3,-1.05,86
12.3,-0.9,46
12.3,-0.75,131
12.3,-0.6,62
12.3,-0.45,64
12.3,-0.3,96
12.3,-0.15,90
12.3,0.0,156
12.3,0.15,188
12.3,0.3,187
12.3,0.45,171
12.3,0.6,158
12.3,0.75,131
12.3,0.9,113
12.3,1.05,100
12.3,1.2,88
12.3,1.35,78
12.3,1.5,71
12.45,-1.5,69
12.45,-1.35,73
12.45,-1.2,74
12.45,-1.05,65
12.45,-0.9,58
12.45,-0.75,96
12.45,-0.6,65
12.45,-0.45,106
12.45,-0.3,103
12.45,-0.15,86
12.45,0.0,172
12.45,0.15,230
12.45,0.3,207
12.45,0.45,189
12.45,0.6,177
12.45,0.75,154
12.45,0.9,120
12.45,1.05,103
12.45,1.2,87
12.45,1.35,70
12.45,1.5,60
12.6,-1.5,65
12.6,-1.35,63
12.6,-1.2,64
12.6,-1.05,62
12.6,-0.9,42
12.6,-0.75,51
12.6,-0.6,26
12.6,-0.45,108
12.6,-0.3,81
12.6,-0.15,109
12.6,0.0,156
12.6,0.15,240
12.6,0.3,229
12.6,0.45,197
12.6,0.6,177
12.6,0.75,161
12.6,0.9,134
12.6,1.05,97
12.6,1.2,74
12.6,1.35,55
12.6,1.5,43
12.75,-1.5,41
12.75,-1.35,56
12.75,-1.2,70
12.75,-1.05,74
12.75,-0.9,81
12.75,-0.75,82
12.75,-0.6,90
12.75,-0.45,138
12.75,-0.3,120
12.75,-0.15,72
12.75,0.0,7
12.75,0.15,188
12.75,0.3,212
12.75,0.45,195
12.75,0.6,179
12.75,0.75,164
12.75,0.9,144
12.75,1.05,108
12.75,1.2,63
12.75,1.35,31
12.75,1.5,18
12.9,-1.5,4
12.9,-1.35,30
12.9,-1.2,65
12.9,-1.05,84
12.9,-0.9,104
12.9,-0.75,145
12.9,-0.6,240
12.9,-0.45,255
12.9,-0.3,169
12.9,-0.15,104
12.9,0.0,81
12.9,0.15,133
12.9,0.3,175
12.9,0.45,177
12.9,0.6,178
12.9,0.75,156
12.9,0.9,135
12.9,1.05,102
12.9,1.2,57
12.9,1.35,13
12.9,1.5,0
13.05,-1.5,0
13.05,-1.35,21
13.05,-1.2,72
13.05,-1.05,102
13.05,-0.9,120
13.05,-0.75,161
13.05,-0.6,207
13.05,-0.45,195
13.05,-0.3,169
13.05,-0.15,134
13.05,0.0,122
13.05,0.15,133
13.05,0.3,161
13.05,0.45,168
13.05,0.6,161
13.05,0.75,158
13.05,0.9,137
13.05,1.05,102
13.05,1.2,51
13.05,1.35,10
13.05,1.5,0
