-3.0,-1.5,0
-3.0,-1.35,5
-3.0,-1.2,36
-3.0,-1.05,74
-3.0,-0.9,106
-3.0,-0.75,128
-3.0,-0.6,138
-3.0,-0.45,138
-3.0,-0.3,133
-3.0,-0.15,124
-3.0,0.0,114
-3.0,0.15,101
-3.0,0.3,92
-3.0,0.45,84
-3.0,0.6,75
-3.0,0.75,64
-3.0,0.9,51
-3.0,1.05,34
-3.0,1.2,15
-3.0,1.35,0
-3.0,1.5,0
-2.85,-1.5,5
-2.85,-1.35,18
-2.85,-1.2,51
-2.85,-1.05,92
-2.85,-0.9,128
-2.85,-0.75,151
-2.85,-0.6,161
-2.85,-0.45,157
-2.85,-0.3,145
-2.85,-0.15,130
-2.85,0.0,117
-2.85,0.15,101
-2.85,0.3,92
-2.85,0.45,84
-2.85,0.6,76
-2.85,0.75,67
-2.85,0.9,55
-2.85,1.05,39
-2.85,1.2,21
-2.85,1.35,6
-2.85,1.5,0
-2.7,-1.5,33
-2.7,-1.35,48
-2.7,-1.2,79
-2.7,-1.05,118
-2.7,-0.9,155
-2.7,-0.75,182
-2.7,-0.6,192
-2.7,-0.45,181
-2.7,-0.3,158
-2.7,-0.15,134
-2.7,0.0,117
-2.7,0.15,100
-2.7,0.3,90
-2.7,0.45,82
-2.7,0.6,75
-2.7,0.75,69
-2.7,0.9,60
-2.7,1.05,48
-2.7,1.2,37
-2.7,1.35,23
-2.7,1.5,16
-2.55,-1.5,65
-2.55,-1.35,81
-2.55,-1.2,107
-2.55,-1.05,142
-2.55,-0.9,179
-2.55,-0.75,214
-2.55,-0.6,229
-2.55,-0.45,208
-2.55,-0.3,167
-2.55,-0.15,133
-2.55,0.0,112
-2.55,0.15,96
-2.55,0.3,87
-2.55,0.45,79
-2.55,0.6,73
-2.55,0.75,69
-2.55,0.9,69
-2.55,1.05,61
-2.55,1.2,51
-2.55,1.35,41
-2.55,1.5,35
-2.4,-1.5,91
-2.4,-1.35,105
-2.4,-1.2,126
-2.4,-1.05,154
-2.4,-0.9,189
-2.4,-0.75,227
-2.4,-0.6,248
-2.4,-0.45,218
-2.4,-0.3,161
-2.4,-0.15,119
-2.4,0.0,100
-2.4,0.15,89
-2.4,0.3,82
-2.4,0.45,74
-2.4,0.6,71
-2.4,0.75,69
-2.4,0.9,69
-2.4,1.05,67
-2.4,1.2,62
-2.4,1.35,56
-2.4,1.5,52
-2.25,-1.5,108
-2.25,-1.35,119
-2.25,-1.2,135
-2.25,-1.05,155
-2.25,-0.9,180
-2.25,-0.75,206
-2.25,-0.6,218
-2.25,-0.45,188
-2.25,-0.3,134
-2.25,-0.15,93
-2.25,0.0,80
-2.25,0.15,80
-2.25,0.3,77
-2.25,0.45,70
-2.25,0.6,62
-2.25,0.75,63
-2.25,0.9,68
-2.25,1.05,70
-2.25,1.2,70
-2.25,1.35,67
-2.25,1.5,64
-2.1,-1.5,118
-2.1,-1.35,127
-2.1,-1.2,138
-2.1,-1.05,150
-2.1,-0.9,163
-2.1,-0.75,173
-2.1,-0.6,171
-2.1,-0.45,147
-2.1,-0.3,107
-2.1,-0.15,68
-2.1,0.0,61
-2.1,0.15,75
-2.1,0.3,78
-2.1,0.45,68
-2.1,0.6,58
-2.1,0.75,61
-2.1,0.9,68
-2.1,1.05,73
-2.1,1.2,74
-2.1,1.35,74
-2.1,1.5,73
-1.95,-1.5,124
-1.95,-1.35,131
-1.95,-1.2,138
-1.95,-1.05,145
-1.95,-0.9,150
-1.95,-0.75,152
-1.95,-0.6,145
-1.95,-0.45,128
-1.95,-0.3,102
-1.95,-0.15,74
-1.95,0.0,67
-1.95,0.15,78
-1.95,0.3,81
-1.95,0.45,74
-1.95,0.6,67
-1.95,0.75,67
-1.95,0.9,73
-1.95,1.05,77
-1.95,1.2,79
-1.95,1.35,79
-1.95,1.5,79
-1.8,-1.5,125
-1.8,-1.35,133
-1.8,-1.2,138
-1.8,-1.05,143
-1.8,-0.9,146
-1.8,-0.75,146
-1.8,-0.6,140
-1.8,-0.45,127
-1.8,-0.3,109
-1.8,-0.15,93
-1.8,0.0,86
-1.8,0.15,87
-1.8,0.3,87
-1.8,0.45,83
-1.8,0.6,79
-1.8,0.75,78
-1.8,0.9,80
-1.8,1.05,80
-1.8,1.2,80
-1.8,1.35,80
-1.8,1.5,80
-1.65,-1.5,127
-1.65,-1.35,132
-1.65,-1.2,137
-1.65,-1.05,143
-1.65,-0.9,150
-1.65,-0.75,154
-1.65,-0.6,153
-1.65,-0.45,137
-1.65,-0.3,112
-1.65,-0.15,97
-1.65,0.0,93
-1.65,0.15,92
-1.65,0.3,91
-1.65,0.45,89
-1.65,0.6,87
-1.65,0.75,87
-1.65,0.9,78
-1.65,1.05,78
-1.65,1.2,78
-1.65,1.35,78
-1.65,1.5,78
-1.5,-1.5,128
-1.5,-1.35,133
-1.5,-1.2,138
-1.5,-1.05,145
-1.5,-0.9,155
-1.5,-0.75,170
-1.5,-0.6,183
-1.5,-0.45,163
-1.5,-0.3,101
-1.5,-0.15,78
-1.5,0.0,88
-1.5,0.15,91
-1.5,0.3,92
-1.5,0.45,92
-1.5,0.6,91
-1.5,0.75,91
-1.5,0.9,82
-1.5,1.05,81
-1.5,1.2,81
-1.5,1.35,81
-1.5,1.5,80
-1.35,-1.5,128
-1.35,-1.35,133
-1.35,-1.2,139
-1.35,-1.05,148
-1.35,-0.9,160
-1.35,-0.75,182
-1.35,-0.6,227
-1.35,-0.45,217
-1.35,-0.3,97
-1.35,-0.15,65
-1.35,0.0,84
-1.35,0.15,83
-1.35,0.3,84
-1.35,0.45,84
-1.35,0.6,85
-1.35,0.75,94
-1.35,0.9,96
-1.35,1.05,96
-1.35,1.2,84
-1.35,1.35,83
-1.35,1.5,83
-1.2,-1.5,128
-1.2,-1.35,132
-1.2,-1.2,139
-1.2,-1.05,145
-1.2,-0.9,156
-1.2,-0.75,173
-1.2,-0.6,198
-1.2,-0.45,180
-1.2,-0.3,109
-1.2,-0.15,85
-1.2,0.0,80
-1.2,0.15,74
-1.2,0.3,79
-1.2,0.45,83
-1.2,0.6,89
-1.2,0.75,96
-1.2,0.9,96
-1.2,1.05,96
-1.2,1.2,94
-1.2,1.35,95
-1.2,1.5,83
-1.05,-1.5,131
-1.05,-1.35,133
-1.05,-1.2,134
-1.05,-1.05,140
-1.05,-0.9,147
-1.05,-0.75,154
-1.05,-0.6,167
-1.05,-0.45,181
-1.05,-0.3,95
-1.05,-0.15,76
-1.05,0.0,72
-1.05,0.15,60
-1.05,0.3,75
-1.05,0.45,82
-1.05,0.6,96
-1.05,0.75,92
-1.05,0.9,94
-1.05,1.05,95
-1.05,1.2,96
-1.05,1.35,97
-1.05,1.5,97
-0.9,-1.5,124
-0.9,-1.35,118
-0.9,-1.2,122
-0.9,-1.05,126
-0.9,-0.9,132
-0.9,-0.75,140
-0.9,-0.6,156
-0.9,-0.45,210
-0.9,-0.3,144
-0.9,-0.15,100
-0.9,0.0,86
-0.9,0.15,77
-0.9,0.3,85
-0.9,0.45,92
-0.9,0.6,86
-0.9,0.75,91
-0.9,0.9,93
-0.9,1.05,94
-0.9,1.2,95
-0.9,1.35,96
-0.9,1.5,97
-0.75,-1.5,110
-0.75,-1.35,110
-0.75,-1.2,115
-0.75,-1.05,118
-0.75,-0.9,122
-0.75,-0.75,125
-0.75,-0.6,127
-0.75,-0.45,107
-0.75,-0.3,64
-0.75,-0.15,98
-0.75,0.0,98
-0.75,0.15,94
-0.75,0.3,85
-0.75,0.45,86
-0.75,0.6,88
-0.75,0.75,89
-0.75,0.9,91
-0.75,1.05,80
-0.75,1.2,98
-0.75,1.35,95
-0.75,1.5,117
-0.6,-1.5,102
-0.6,-1.35,104
-0.6,-1.2,105
-0.6,-1.05,110
-0.6,-0.9,111
-0.6,-0.75,111
-0.6,-0.6,108
-0.6,-0.45,99
-0.6,-0.3,97
-0.6,-0.15,100
-0.6,0.0,100
-0.6,0.15,92
-0.6,0.3,95
-0.6,0.45,97
-0.6,0.6,102
-0.6,0.75,107
-0.6,0.9,97
-0.6,1.05,111
-0.6,1.2,113
-0.6,1.35,115
-0.6,1.5,120
-0.45,-1.5,92
-0.45,-1.35,93
-0.45,-1.2,93
-0.45,-1.05,94
-0.45,-0.9,97
-0.45,-0.75,105
-0.45,-0.6,104
-0.45,-0.45,95
-0.45,-0.3,100
-0.45,-0.15,125
-0.45,0.0,120
-0.45,0.15,94
-0.45,0.3,74
-0.45,0.45,87
-0.45,0.6,94
-0.45,0.75,94
-0.45,0.9,111
-0.45,1.05,114
-0.45,1.2,116
-0.45,1.35,121
-0.45,1.5,122
-0.3,-1.5,86
-0.3,-1.35,86
-0.3,-1.2,85
-0.3,-1.05,76
-0.3,-0.9,76
-0.3,-0.75,86
-0.3,-0.6,98
-0.3,-0.45,80
-0.3,-0.3,88
-0.3,-0.15,78
-0.3,0.0,112
-0.3,0.15,88
-0.3,0.3,64
-0.3,0.45,87
-0.3,0.6,95
-0.3,0.75,111
-0.3,0.9,115
-0.3,1.05,121
-0.3,1.2,122
-0.3,1.35,122
-0.3,1.5,122
-0.15,-1.5,68
-0.15,-1.35,68
-0.15,-1.2,67
-0.15,-1.05,70
-0.15,-0.9,69
-0.15,-0.75,69
-0.15,-0.6,82
-0.15,-0.45,72
-0.15,-0.3,41
-0.15,-0.15,28
-0.15,0.0,103
-0.15,0.15,120
-0.15,0.3,107
-0.15,0.45,101
-0.15,0.6,100
-0.15,0.75,115
-0.15,0.9,118
-0.15,1.05,120
-0.15,1.2,121
-0.15,1.35,122
-0.15,1.5,122
0.0,-1.5,65
0.0,-1.35,47
0.0,-1.2,47
0.0,-1.05,55
0.0,-0.9,71
0.0,-0.75,71
0.0,-0.6,80
0.0,-0.45,72
0.0,-0.3,59
0.0,-0.15,69
0.0,0.0,121
0.0,0.15,185
0.0,0.3,123
0.0,0.45,113
0.0,0.6,107
0.0,0.75,108
0.0,0.9,111
0.0,1.05,112
0.0,1.2,124
0.0,1.35,124
0.0,1.5,124
0.15,-1.5,42
0.15,-1.35,42
0.15,-1.2,31
0.15,-1.05,31
0.15,-0.9,53
0.15,-0.75,52
0.15,-0.6,58
0.15,-0.45,54
0.15,-0.3,64
0.15,-0.15,73
0.15,0.0,55
0.15,0.15,147
0.15,0.3,116
0.15,0.45,107
0.15,0.6,111
0.15,0.75,112
0.15,0.9,116
0.15,1.05,129
0.15,1.2,129
0.15,1.35,128
0.15,1.5,127
0.3,-1.5,30
0.3,-1.35,31
0.3,-1.2,32
0.3,-1.05,33
0.3,-0.9,35
0.3,-0.75,53
0.3,-0.6,53
0.3,-0.45,51
0.3,-0.3,47
0.3,-0.15,50
0.3,0.0,219
0.3,0.15,102
0.3,0.3,78
0.3,0.45,90
0.3,0.6,106
0.3,0.75,133
0.3,0.9,140
0.3,1.05,139
0.3,1.2,136
0.3,1.35,133
0.3,1.5,130
0.45,-1.5,31
0.45,-1.35,46
0.45,-1.2,47
0.45,-1.05,47
0.45,-0.9,48
0.45,-0.75,50
0.45,-0.6,54
0.45,-0.45,52
0.45,-0.3,48
0.45,-0.15,36
0.45,0.0,41
0.45,0.15,56
0.45,0.3,16
0.45,0.45,76
0.45,0.6,126
0.45,0.75,164
0.45,0.9,173
0.45,1.05,164
0.45,1.2,156
0.45,1.35,151
0.45,1.5,148
0.6,-1.5,46
0.6,-1.35,43
0.6,-1.2,43
0.6,-1.05,44
0.6,-0.9,46
0.6,-0.75,51
0.6,-0.6,55
0.6,-0.45,55
0.6,-0.3,48
0.6,-0.15,44
0.6,0.0,44
0.6,0.15,52
0.6,0.3,42
0.6,0.45,85
0.6,0.6,167
0.6,0.75,231
0.6,0.9,194
0.6,1.05,172
0.6,1.2,158
0.6,1.35,151
0.6,1.5,146
0.75,-1.5,46
0.75,-1.35,46
0.75,-1.2,46
0.75,-1.05,43
0.75,-0.9,44
0.75,-0.75,45
0.75,-0.6,48
0.75,-0.45,48
0.75,-0.3,56
0.75,-0.15,33
0.75,0.0,48
0.75,0.15,73
0.75,0.3,71
0.75,0.45,103
0.75,0.6,159
0.75,0.75,221
0.75,0.9,184
0.75,1.05,163
0.75,1.2,150
0.75,1.35,141
0.75,1.5,146
0.9,-1.5,43
0.9,-1.35,43
0.9,-1.2,43
0.9,-1.05,47
0.9,-0.9,47
0.9,-0.75,40
0.9,-0.6,31
0.9,-0.45,13
0.9,-0.3,49
0.9,-0.15,160
0.9,0.0,113
0.9,0.15,111
0.9,0.3,53
0.9,0.45,135
0.9,0.6,142
0.9,0.75,162
0.9,0.9,162
0.9,1.05,150
0.9,1.2,128
0.9,1.35,119
0.9,1.5,113
1.05,-1.5,47
1.05,-1.35,47
1.05,-1.2,43
1.05,-1.05,43
1.05,-0.9,47
1.05,-0.75,40
1.05,-0.6,29
1.05,-0.45,13
1.05,-0.3,35
1.05,-0.15,35
1.05,0.0,71
1.05,0.15,246
1.05,0.3,168
1.05,0.45,151
1.05,0.6,138
1.05,0.75,140
1.05,0.9,140
1.05,1.05,137
1.05,1.2,132
1.05,1.35,127
1.05,1.5,124
1.2,-1.5,47
1.2,-1.35,47
1.2,-1.2,47
1.2,-1.05,47
1.2,-0.9,45
1.2,-0.75,38
1.2,-0.6,33
1.2,-0.45,35
1.2,-0.3,11
1.2,-0.15,56
1.2,0.0,63
1.2,0.15,116
1.2,0.3,126
1.2,0.45,121
1.2,0.6,125
1.2,0.75,125
1.2,0.9,126
1.2,1.05,126
1.2,1.2,134
1.2,1.35,133
1.2,1.5,132
1.35,-1.5,46
1.35,-1.35,46
1.35,-1.2,46
1.35,-1.05,47
1.35,-0.9,44
1.35,-0.75,49
1.35,-0.6,50
1.35,-0.45,45
1.35,-0.3,37
1.35,-0.15,44
1.35,0.0,54
1.35,0.15,74
1.35,0.3,98
1.35,0.45,97
1.35,0.6,107
1.35,0.75,110
1.35,0.9,127
1.35,1.05,130
1.35,1.2,132
1.35,1.35,133
1.35,1.5,129
1.5,-1.5,50
1.5,-1.35,46
1.5,-1.2,47
1.5,-1.05,46
1.5,-0.9,52
1.5,-0.75,58
1.5,-0.6,70
1.5,-0.45,74
1.5,-0.3,49
1.5,-0.15,51
1.5,0.0,49
1.5,0.15,60
1.5,0.3,73
1.5,0.45,82
1.5,0.6,83
1.5,0.75,112
1.5,0.9,119
1.5,1.05,124
1.5,1.2,127
1.5,1.35,125
1.5,1.5,124
1.65,-1.5,78
1.65,-1.35,67
1.65,-1.2,66
1.65,-1.05,56
1.65,-0.9,58
1.65,-0.75,60
1.65,-0.6,73
1.65,-0.45,87
1.65,-0.3,47
1.65,-0.15,47
1.65,0.0,56
1.65,0.15,104
1.65,0.3,63
1.65,0.45,63
1.65,0.6,79
1.65,0.75,97
1.65,0.9,118
1.65,1.05,120
1.65,1.2,107
1.65,1.35,107
1.65,1.5,102
1.8,-1.5,78
1.8,-1.35,78
1.8,-1.2,67
1.8,-1.05,66
1.8,-0.9,56
1.8,-0.75,56
1.8,-0.6,57
1.8,-0.45,53
1.8,-0.3,47
1.8,-0.15,52
1.8,0.0,72
1.8,0.15,161
1.8,0.3,23
1.8,0.45,68
1.8,0.6,86
1.8,0.75,96
1.8,0.9,100
1.8,1.05,107
1.8,1.2,104
1.8,1.35,102
1.8,1.5,102
1.95,-1.5,78
1.95,-1.35,78
1.95,-1.2,78
1.95,-1.05,78
1.95,-0.9,67
1.95,-0.75,62
1.95,-0.6,52
1.95,-0.45,42
1.95,-0.3,36
1.95,-0.15,92
1.95,0.0,75
1.95,0.15,84
1.95,0.3,85
1.95,0.45,101
1.95,0.6,114
1.95,0.75,109
1.95,0.9,105
1.95,1.05,95
1.95,1.2,89
1.95,1.35,105
1.95,1.5,104
2.1,-1.5,73
2.1,-1.35,74
2.1,-1.2,75
2.1,-1.05,78
2.1,-0.9,88
2.1,-0.75,68
2.1,-0.6,59
2.1,-0.45,61
2.1,-0.3,58
2.1,-0.15,90
2.1,0.0,92
2.1,0.15,94
2.1,0.3,110
2.1,0.45,164
2.1,0.6,156
2.1,0.75,127
2.1,0.9,107
2.1,1.05,112
2.1,1.2,105
2.1,1.35,99
2.1,1.5,95
2.25,-1.5,70
2.25,-1.35,70
2.25,-1.2,85
2.25,-1.05,87
2.25,-0.9,90
2.25,-0.75,83
2.25,-0.6,43
2.25,-0.45,124
2.25,-0.3,93
2.25,-0.15,67
2.25,0.0,109
2.25,0.15,189
2.25,0.3,139
2.25,0.45,238
2.25,0.6,186
2.25,0.75,145
2.25,0.9,122
2.25,1.05,110
2.25,1.2,100
2.25,1.35,91
2.25,1.5,86
2.4,-1.5,72
2.4,-1.35,71
2.4,-1.2,69
2.4,-1.05,73
2.4,-0.9,92
2.4,-0.75,113
2.4,-0.6,177
2.4,-0.45,152
2.4,-0.3,108
2.4,-0.15,89
2.4,0.0,68
2.4,0.15,78
2.4,0.3,97
2.4,0.45,136
2.4,0.6,139
2.4,0.75,117
2.4,0.9,105
2.4,1.05,94
2.4,1.2,81
2.4,1.35,69
2.4,1.5,64
2.55,-1.5,72
2.55,-1.35,71
2.55,-1.2,69
2.55,-1.05,64
2.55,-0.9,53
2.55,-0.75,142
2.55,-0.6,96
2.55,-0.45,83
2.55,-0.3,59
2.55,-0.15,38
2.55,0.0,49
2.55,0.15,0
2.55,0.3,45
2.55,0.45,83
2.55,0.6,84
2.55,0.75,87
2.55,0.9,95
2.55,1.05,88
2.55,1.2,66
2.55,1.35,45
2.55,1.5,42
2.7,-1.5,74
2.7,-1.35,71
2.7,-1.2,66
2.7,-1.05,58
2.7,-0.9,37
2.7,-0.75,43
2.7,-0.6,79
2.7,-0.45,61
2.7,-0.3,49
2.7,-0.15,26
2.7,0.0,45
2.7,0.15,38
2.7,0.3,30
2.7,0.45,56
2.7,0.6,13
2.7,0.75,56
2.7,0.9,92
2.7,1.05,84
2.7,1.2,43
2.7,1.35,9
2.7,1.5,17
2.85,-1.5,91
2.85,-1.35,86
2.85,-1.2,79
2.85,-1.05,59
2.85,-0.9,27
2.85,-0.75,48
2.85,-0.6,89
2.85,-0.45,122
2.85,-0.3,93
2.85,-0.15,41
2.85,0.0,5
2.85,0.15,39
2.85,0.3,54
2.85,0.45,71
2.85,0.6,52
2.85,0.75,106
2.85,0.9,121
2.85,1.05,91
2.85,1.2,35
2.85,1.35,0
2.85,1.5,7
3.0,-1.5,82
3.0,-1.35,96
3.0,-1.2,92
3.0,-1.05,88
3.0,-0.9,90
3.0,-0.75,109
3.0,-0.6,100
3.0,-0.45,132
3.0,-0.3,173
3.0,-0.15,44
3.0,0.0,51
3.0,0.15,58
3.0,0.3,64
3.0,0.45,114
3.0,0.6,255
3.0,0.75,255
3.0,0.9,167
3.0,1.05,110
3.0,1.2,60
3.0,1.35,26
3.0,1.5,25
3.15,-1.5,72
3.15,-1.35,72
3.15,-1.2,76
3.15,-1.05,79
3.15,-0.9,113
3.15,-0.75,121
3.15,-0.6,133
3.15,-0.45,255
3.15,-0.3,37
3.15,-0.15,17
3.15,0.0,71
3.15,0.15,78
3.15,0.3,61
3.15,0.45,102
3.15,0.6,243
3.15,0.75,255
3.15,0.9,166
3.15,1.05,110
3.15,1.2,74
3.15,1.35,49
3.15,1.5,45
3.3,-1.5,57
3.3,-1.35,66
3.3,-1.2,85
3.3,-1.05,88
3.3,-0.9,92
3.3,-0.75,102
3.3,-0.6,83
3.3,-0.45,50
3.3,-0.3,21
3.3,-0.15,52
3.3,0.0,77
3.3,0.15,97
3.3,0.3,71
3.3,0.45,85
3.3,0.6,113
3.3,0.75,138
3.3,0.9,121
3.3,1.05,93
3.3,1.2,73
3.3,1.35,59
3.3,1.5,50
3.45,-1.5,54
3.45,-1.35,50
3.45,-1.2,51
3.45,-1.05,72
3.45,-0.9,92
3.45,-0.75,63
3.45,-0.6,61
3.45,-0.45,72
3.45,-0.3,72
3.45,-0.15,52
3.45,0.0,36
3.45,0.15,75
3.45,0.3,54
3.45,0.45,43
3.45,0.6,64
3.45,0.75,83
3.45,0.9,78
3.45,1.05,70
3.45,1.2,63
3.45,1.35,56
3.45,1.5,50
3.6,-1.5,90
3.6,-1.35,89
3.6,-1.2,90
3.6,-1.05,69
3.6,-0.9,71
3.6,-0.75,68
3.6,-0.6,57
3.6,-0.45,47
3.6,-0.3,50
3.6,-0.15,54
3.6,0.0,46
3.6,0.15,47
3.6,0.3,2
3.6,0.45,26
3.6,0.6,36
3.6,0.75,57
3.6,0.9,65
3.6,1.05,67
3.6,1.2,67
3.6,1.35,64
3.6,1.5,61
3.75,-1.5,152
3.75,-1.35,150
3.75,-1.2,132
3.75,-1.05,101
3.75,-0.9,97
3.75,-0.75,84
3.75,-0.6,81
3.75,-0.45,60
3.75,-0.3,20
3.75,-0.15,19
3.75,0.0,25
3.75,0.15,71
3.75,0.3,31
3.75,0.45,35
3.75,0.6,59
3.75,0.75,67
3.75,0.9,93
3.75,1.05,98
3.75,1.2,78
3.75,1.35,92
3.75,1.5,96
3.9,-1.5,177
3.9,-1.35,177
3.9,-1.2,176
3.9,-1.05,159
3.9,-0.9,136
3.9,-0.75,124
3.9,-0.6,125
3.9,-0.45,172
3.9,-0.3,35
3.9,-0.15,71
3.9,0.0,82
3.9,0.15,117
3.9,0.3,61
3.9,0.45,75
3.9,0.6,87
3.9,0.75,92
3.9,0.9,95
3.9,1.05,97
3.9,1.2,98
3.9,1.35,96
3.9,1.5,96
4.05,-1.5,176
4.05,-1.35,179
4.05,-1.2,197
4.05,-1.05,196
4.05,-0.9,196
4.05,-0.75,170
4.05,-0.6,255
4.05,-0.45,216
4.05,-0.3,80
4.05,-0.15,63
4.05,0.0,229
4.05,0.15,68
4.05,0.3,18
4.05,0.45,100
4.05,0.6,108
4.05,0.75,107
4.05,0.9,106
4.05,1.05,105
4.05,1.2,101
4.05,1.35,101
4.05,1.5,96
4.2,-1.5,166
4.2,-1.35,177
4.2,-1.2,182
4.2,-1.05,197
4.2,-0.9,210
4.2,-0.75,210
4.2,-0.6,255
4.2,-0.45,91
4.2,-0.3,104
4.2,-0.15,34
4.2,0.0,53
4.2,0.15,28
4.2,0.3,189
4.2,0.45,111
4.2,0.6,90
4.2,0.75,78
4.2,0.9,74
4.2,1.05,71
4.2,1.2,70
4.2,1.35,70
4.2,1.5,70
4.35,-1.5,150
4.35,-1.35,157
4.35,-1.2,159
4.35,-1.05,171
4.35,-0.9,196
4.35,-0.75,184
4.35,-0.6,58
4.35,-0.45,63
4.35,-0.3,89
4.35,-0.15,99
4.35,0.0,76
4.35,0.15,8
4.35,0.3,59
4.35,0.45,66
4.35,0.6,53
4.35,0.75,56
4.35,0.9,70
4.35,1.05,70
4.35,1.2,70
4.35,1.35,70
4.35,1.5,70
4.5,-1.5,126
4.5,-1.35,124
4.5,-1.2,126
4.5,-1.05,130
4.5,-0.9,140
4.5,-0.75,130
4.5,-0.6,100
4.5,-0.45,95
4.5,-0.3,178
4.5,-0.15,29
4.5,0.0,135
4.5,0.15,30
4.5,0.3,15
4.5,0.45,53
4.5,0.6,54
4.5,0.75,67
4.5,0.9,69
4.5,1.05,70
4.5,1.2,70
4.5,1.35,70
4.5,1.5,70
4.65,-1.5,119
4.65,-1.35,117
4.65,-1.2,113
4.65,-1.05,95
4.65,-0.9,53
4.65,-0.75,67
4.65,-0.6,50
4.65,-0.45,56
4.65,-0.3,51
4.65,-0.15,33
4.65,0.0,29
4.65,0.15,29
4.65,0.3,50
4.65,0.45,60
4.65,0.6,58
4.65,0.75,64
4.65,0.9,67
4.65,1.05,69
4.65,1.2,70
4.65,1.35,69
4.65,1.5,69
4.8,-1.5,95
4.8,-1.35,75
4.8,-1.2,71
4.8,-1.05,60
4.8,-0.9,46
4.8,-0.75,34
4.8,-0.6,50
4.8,-0.45,61
4.8,-0.3,81
4.8,-0.15,48
4.8,0.0,105
4.8,0.15,69
4.8,0.3,112
4.8,0.45,76
4.8,0.6,63
4.8,0.75,60
4.8,0.9,60
4.8,1.05,60
4.8,1.2,60
4.8,1.35,60
4.8,1.5,60
4.95,-1.5,53
4.95,-1.35,57
4.95,-1.2,48
4.95,-1.05,51
4.95,-0.9,49
4.95,-0.75,30
4.95,-0.6,7
4.95,-0.45,56
4.95,-0.3,10
4.95,-0.15,45
4.95,0.0,90
4.95,0.15,44
4.95,0.3,86
4.95,0.45,80
4.95,0.6,63
4.95,0.75,60
4.95,0.9,60
4.95,1.05,60
4.95,1.2,60
4.95,1.35,60
4.95,1.5,60
5.1,-1.5,36
5.1,-1.35,39
5.1,-1.2,42
5.1,-1.05,62
5.1,-0.9,116
5.1,-0.75,0
5.1,-0.6,59
5.1,-0.45,155
5.1,-0.3,96
5.1,-0.15,56
5.1,0.0,34
5.1,0.15,104
5.1,0.3,52
5.1,0.45,58
5.1,0.6,71
5.1,0.75,66
5.1,0.9,71
5.1,1.05,72
5.1,1.2,73
5.1,1.35,73
5.1,1.5,73
5.25,-1.5,27
5.25,-1.35,29
5.25,-1.2,40
5.25,-1.05,48
5.25,-0.9,54
5.25,-0.75,50
5.25,-0.6,63
5.25,-0.45,23
5.25,-0.3,37
5.25,-0.15,183
5.25,0.0,55
5.25,0.15,64
5.25,0.3,82
5.25,0.45,44
5.25,0.6,52
5.25,0.75,63
5.25,0.9,68
5.25,1.05,66
5.25,1.2,68
5.25,1.35,73
5.25,1.5,73
5.4,-1.5,42
5.4,-1.35,42
5.4,-1.2,41
5.4,-1.05,66
5.4,-0.9,66
5.4,-0.75,79
5.4,-0.6,99
5.4,-0.45,185
5.4,-0.3,37
5.4,-0.15,79
5.4,0.0,255
5.4,0.15,77
5.4,0.3,128
5.4,0.45,3
5.4,0.6,39
5.4,0.75,57
5.4,0.9,63
5.4,1.05,74
5.4,1.2,76
5.4,1.35,60
5.4,1.5,60
5.55,-1.5,41
5.55,-1.35,41
5.55,-1.2,42
5.55,-1.05,42
5.55,-0.9,48
5.55,-0.75,0
5.55,-0.6,156
5.55,-0.45,108
5.55,-0.3,51
5.55,-0.15,24
5.55,0.0,88
5.55,0.15,100
5.55,0.3,62
5.55,0.45,64
5.55,0.6,64
5.55,0.75,67
5.55,0.9,72
5.55,1.05,87
5.55,1.2,89
5.55,1.35,77
5.55,1.5,78
5.7,-1.5,86
5.7,-1.35,79
5.7,-1.2,76
5.7,-1.05,25
5.7,-0.9,25
5.7,-0.75,67
5.7,-0.6,211
5.7,-0.45,169
5.7,-0.3,137
5.7,-0.15,52
5.7,0.0,24
5.7,0.15,66
5.7,0.3,35
5.7,0.45,72
5.7,0.6,86
5.7,0.75,77
5.7,0.9,79
5.7,1.05,84
5.7,1.2,71
5.7,1.35,71
5.7,1.5,87
5.85,-1.5,93
5.85,-1.35,101
5.85,-1.2,98
5.85,-1.05,103
5.85,-0.9,99
5.85,-0.75,122
5.85,-0.6,148
5.85,-0.45,144
5.85,-0.3,76
5.85,-0.15,32
5.85,0.0,29
5.85,0.15,19
5.85,0.3,39
5.85,0.45,70
5.85,0.6,74
5.85,0.75,70
5.85,0.9,69
5.85,1.05,78
5.85,1.2,78
5.85,1.35,79
5.85,1.5,71
6.0,-1.5,80
6.0,-1.35,82
6.0,-1.2,101
6.0,-1.05,123
6.0,-0.9,126
6.0,-0.75,79
6.0,-0.6,183
6.0,-0.45,56
6.0,-0.3,57
6.0,-0.15,175
6.0,0.0,105
6.0,0.15,0
6.0,0.3,137
6.0,0.45,117
6.0,0.6,92
6.0,0.75,83
6.0,0.9,71
6.0,1.05,69
6.0,1.2,69
6.0,1.35,69
6.0,1.5,69
6.15,-1.5,64
6.15,-1.35,64
6.15,-1.2,67
6.15,-1.05,92
6.15,-0.9,149
6.15,-0.75,243
6.15,-0.6,133
6.15,-0.45,103
6.15,-0.3,56
6.15,-0.15,26
6.15,0.0,38
6.15,0.15,68
6.15,0.3,149
6.15,0.45,94
6.15,0.6,60
6.15,0.75,69
6.15,0.9,69
6.15,1.05,70
6.15,1.2,70
6.15,1.35,89
6.15,1.5,69
6.3,-1.5,64
6.3,-1.35,64
6.3,-1.2,78
6.3,-1.05,76
6.3,-0.9,72
6.3,-0.75,53
6.3,-0.6,51
6.3,-0.45,64
6.3,-0.3,38
6.3,-0.15,7
6.3,0.0,61
6.3,0.15,45
6.3,0.3,72
6.3,0.45,53
6.3,0.6,27
6.3,0.75,71
6.3,0.9,80
6.3,1.05,84
6.3,1.2,85
6.3,1.35,85
6.3,1.5,85
6.45,-1.5,66
6.45,-1.35,66
6.45,-1.2,63
6.45,-1.05,57
6.45,-0.9,22
6.45,-0.75,92
6.45,-0.6,37
6.45,-0.45,166
6.45,-0.3,29
6.45,-0.15,143
6.45,0.0,106
6.45,0.15,102
6.45,0.3,108
6.45,0.45,84
6.45,0.6,87
6.45,0.75,87
6.45,0.9,79
6.45,1.05,81
6.45,1.2,83
6.45,1.35,83
6.45,1.5,84
6.6,-1.5,66
6.6,-1.35,66
6.6,-1.2,48
6.6,-1.05,48
6.6,-0.9,46
6.6,-0.75,81
6.6,-0.6,50
6.6,-0.45,36
6.6,-0.3,15
6.6,-0.15,74
6.6,0.0,12
6.6,0.15,46
6.6,0.3,118
6.6,0.45,98
6.6,0.6,85
6.6,0.75,81
6.6,0.9,67
6.6,1.05,78
6.6,1.2,80
6.6,1.35,84
6.6,1.5,84
6.75,-1.5,65
6.75,-1.35,64
6.75,-1.2,64
6.75,-1.05,59
6.75,-0.9,62
6.75,-0.75,50
6.75,-0.6,58
6.75,-0.45,227
6.75,-0.3,70
6.75,-0.15,79
6.75,0.0,64
6.75,0.15,87
6.75,0.3,202
6.75,0.45,62
6.75,0.6,70
6.75,0.75,62
6.75,0.9,62
6.75,1.05,62
6.75,1.2,70
6.75,1.35,67
6.75,1.5,67
6.9,-1.5,76
6.9,-1.35,80
6.9,-1.2,58
6.9,-1.05,59
6.9,-0.9,70
6.9,-0.75,61
6.9,-0.6,73
6.9,-0.45,43
6.9,-0.3,4
6.9,-0.15,86
6.9,0.0,119
6.9,0.15,67
6.9,0.3,78
6.9,0.45,50
6.9,0.6,54
6.9,0.75,49
6.9,0.9,51
6.9,1.05,52
6.9,1.2,50
6.9,1.35,50
6.9,1.5,61
7.05,-1.5,49
7.05,-1.35,51
7.05,-1.2,53
7.05,-1.05,56
7.05,-0.9,60
7.05,-0.75,77
7.05,-0.6,0
7.05,-0.45,41
7.05,-0.3,58
7.05,-0.15,97
7.05,0.0,35
7.05,0.15,0
7.05,0.3,34
7.05,0.45,17
7.05,0.6,20
7.05,0.75,40
7.05,0.9,48
7.05,1.05,52
7.05,1.2,50
7.05,1.35,51
7.05,1.5,55
7.2,-1.5,48
7.2,-1.35,54
7.2,-1.2,51
7.2,-1.05,55
7.2,-0.9,65
7.2,-0.75,86
7.2,-0.6,51
7.2,-0.45,187
7.2,-0.3,83
7.2,-0.15,207
7.2,0.0,14
7.2,0.15,58
7.2,0.3,23
7.2,0.45,14
7.2,0.6,14
7.2,0.75,22
7.2,0.9,25
7.2,1.05,31
7.2,1.2,51
7.2,1.35,55
7.2,1.5,55
7.35,-1.5,97
7.35,-1.35,95
7.35,-1.2,81
7.35,-1.05,78
7.35,-0.9,89
7.35,-0.75,83
7.35,-0.6,79
7.35,-0.45,12
7.35,-0.3,54
7.35,-0.15,38
7.35,0.0,143
7.35,0.15,51
7.35,0.3,45
7.35,0.45,32
7.35,0.6,28
7.35,0.75,29
7.35,0.9,30
7.35,1.05,31
7.35,1.2,32
7.35,1.35,33
7.35,1.5,34
7.5,-1.5,91
7.5,-1.35,84
7.5,-1.2,64
7.5,-1.05,59
7.5,-0.9,58
7.5,-0.75,89
7.5,-0.6,78
7.5,-0.45,28
7.5,-0.3,54
7.5,-0.15,89
7.5,0.0,123
7.5,0.15,38
7.5,0.3,49
7.5,0.45,43
7.5,0.6,33
7.5,0.75,29
7.5,0.9,30
7.5,1.05,32
7.5,1.2,33
7.5,1.35,33
7.5,1.5,34
7.65,-1.5,91
7.65,-1.35,87
7.65,-1.2,80
7.65,-1.05,61
7.65,-0.9,14
7.65,-0.75,90
7.65,-0.6,25
7.65,-0.45,17
7.65,-0.3,41
7.65,-0.15,151
7.65,0.0,61
7.65,0.15,6
7.65,0.3,51
7.65,0.45,42
7.65,0.6,7
7.65,0.75,20
7.65,0.9,30
7.65,1.05,33
7.65,1.2,34
7.65,1.35,33
7.65,1.5,35
7.8,-1.5,91
7.8,-1.35,80
7.8,-1.2,77
7.8,-1.05,70
7.8,-0.9,69
7.8,-0.75,155
7.8,-0.6,29
7.8,-0.45,0
7.8,-0.3,129
7.8,-0.15,222
7.8,0.0,110
7.8,0.15,61
7.8,0.3,57
7.8,0.45,38
7.8,0.6,16
7.8,0.75,26
7.8,0.9,37
7.8,1.05,37
7.8,1.2,39
7.8,1.35,39
7.8,1.5,40
7.95,-1.5,74
7.95,-1.35,74
7.95,-1.2,78
7.95,-1.05,79
7.95,-0.9,75
7.95,-0.75,62
7.95,-0.6,40
7.95,-0.45,16
7.95,-0.3,71
7.95,-0.15,73
7.95,0.0,37
7.95,0.15,35
7.95,0.3,36
7.95,0.45,41
7.95,0.6,42
7.95,0.75,42
7.95,0.9,42
7.95,1.05,47
7.95,1.2,48
7.95,1.35,49
7.95,1.5,41
8.1,-1.5,71
8.1,-1.35,76
8.1,-1.2,77
8.1,-1.05,68
8.1,-0.9,80
8.1,-0.75,103
8.1,-0.6,62
8.1,-0.45,41
8.1,-0.3,17
8.1,-0.15,75
8.1,0.0,23
8.1,0.15,38
8.1,0.3,49
8.1,0.45,52
8.1,0.6,55
8.1,0.75,66
8.1,0.9,71
8.1,1.05,70
8.1,1.2,71
8.1,1.35,75
8.1,1.5,73
8.25,-1.5,71
8.25,-1.35,71
8.25,-1.2,77
8.25,-1.05,65
8.25,-0.9,75
8.25,-0.75,202
8.25,-0.6,104
8.25,-0.45,17
8.25,-0.3,242
8.25,-0.15,105
8.25,0.0,50
8.25,0.15,43
8.25,0.3,72
8.25,0.45,87
8.25,0.6,71
8.25,0.75,70
8.25,0.9,75
8.25,1.05,75
8.25,1.2,75
8.25,1.35,75
8.25,1.5,75
8.4,-1.5,64
8.4,-1.35,64
8.4,-1.2,65
8.4,-1.05,75
8.4,-0.9,67
8.4,-0.75,42
8.4,-0.6,124
8.4,-0.45,41
8.4,-0.3,56
8.4,-0.15,49
8.4,0.0,56
8.4,0.15,46
8.4,0.3,135
8.4,0.45,138
8.4,0.6,106
8.4,0.75,94
8.4,0.9,91
8.4,1.05,90
8.4,1.2,81
8.4,1.35,81
8.4,1.5,76
8.55,-1.5,64
8.55,-1.35,63
8.55,-1.2,63
8.55,-1.05,67
8.55,-0.9,88
8.55,-0.75,109
8.55,-0.6,36
8.55,-0.45,14
8.55,-0.3,43
8.55,-0.15,32
8.55,0.0,43
8.55,0.15,107
8.55,0.3,190
8.55,0.45,132
8.55,0.6,100
8.55,0.75,94
8.55,0.9,94
8.55,1.05,94
8.55,1.2,94
8.55,1.35,69
8.55,1.5,68
8.7,-1.5,45
8.7,-1.35,43
8.7,-1.2,42
8.7,-1.05,39
8.7,-0.9,66
8.7,-0.75,109
8.7,-0.6,57
8.7,-0.45,157
8.7,-0.3,98
8.7,-0.15,15
8.7,0.0,2
8.7,0.15,148
8.7,0.3,95
8.7,0.45,38
8.7,0.6,52
8.7,0.75,74
8.7,0.9,79
8.7,1.05,82
8.7,1.2,83
8.7,1.35,84
8.7,1.5,84
8.85,-1.5,37
8.85,-1.35,36
8.85,-1.2,25
8.85,-1.05,3
8.85,-0.9,13
8.85,-0.75,72
8.85,-0.6,75
8.85,-0.45,110
8.85,-0.3,42
8.85,-0.15,32
8.85,0.0,12
8.85,0.15,58
8.85,0.3,54
8.85,0.45,38
8.85,0.6,44
8.85,0.75,64
8.85,0.9,72
8.85,1.05,65
8.85,1.2,67
8.85,1.35,64
8.85,1.5,65
9.0,-1.5,12
9.0,-1.35,23
9.0,-1.2,19
9.0,-1.05,13
9.0,-0.9,22
9.0,-0.75,36
9.0,-0.6,100
9.0,-0.45,40
9.0,-0.3,74
9.0,-0.15,191
9.0,0.0,20
9.0,0.15,36
9.0,0.3,43
9.0,0.45,38
9.0,0.6,38
9.0,0.75,38
9.0,0.9,40
9.0,1.05,41
9.0,1.2,42
9.0,1.35,52
9.0,1.5,53
9.15,-1.5,11
9.15,-1.35,10
9.15,-1.2,2
9.15,-1.05,2
9.15,-0.9,2
9.15,-0.75,15
9.15,-0.6,11
9.15,-0.45,34
9.15,-0.3,45
9.15,-0.15,30
9.15,0.0,30
9.15,0.15,89
9.15,0.3,38
9.15,0.45,39
9.15,0.6,43
9.15,0.75,44
9.15,0.9,45
9.15,1.05,46
9.15,1.2,41
9.15,1.35,41
9.15,1.5,41
9.3,-1.5,3
9.3,-1.35,3
9.3,-1.2,2
9.3,-1.05,2
9.3,-0.9,7
9.3,-0.75,11
9.3,-0.6,81
9.3,-0.45,74
9.3,-0.3,147
9.3,-0.15,47
9.3,0.0,49
9.3,0.15,62
9.3,0.3,23
9.3,0.45,44
9.3,0.6,46
9.3,0.75,48
9.3,0.9,48
9.3,1.05,41
9.3,1.2,41
9.3,1.35,54
9.3,1.5,57
9.45,-1.5,74
9.45,-1.35,70
9.45,-1.2,73
9.45,-1.05,28
9.45,-0.9,32
9.45,-0.75,40
9.45,-0.6,3
9.45,-0.45,127
9.45,-0.3,62
9.45,-0.15,69
9.45,0.0,57
9.45,0.15,64
9.45,0.3,64
9.45,0.45,54
9.45,0.6,54
9.45,0.75,54
9.45,0.9,58
9.45,1.05,58
9.45,1.2,58
9.45,1.35,57
9.45,1.5,57
9.6,-1.5,121
9.6,-1.35,131
9.6,-1.2,115
9.6,-1.05,65
9.6,-0.9,74
9.6,-0.75,160
9.6,-0.6,235
9.6,-0.45,192
9.6,-0.3,28
9.6,-0.15,98
9.6,0.0,50
9.6,0.15,21
9.6,0.3,63
9.6,0.45,79
9.6,0.6,77
9.6,0.75,76
9.6,0.9,75
9.6,1.05,70
9.6,1.2,70
9.6,1.35,69
9.6,1.5,60
9.75,-1.5,136
9.75,-1.35,143
9.75,-1.2,143
9.75,-1.05,143
9.75,-0.9,162
9.75,-0.75,185
9.75,-0.6,23
9.75,-0.45,255
9.75,-0.3,150
9.75,-0.15,130
9.75,0.0,51
9.75,0.15,83
9.75,0.3,230
9.75,0.45,69
9.75,0.6,80
9.75,0.75,79
9.75,0.9,77
9.75,1.05,76
9.75,1.2,76
9.75,1.35,75
9.75,1.5,102
9.9,-1.5,143
9.9,-1.35,128
9.9,-1.2,135
9.9,-1.05,151
9.9,-0.9,189
9.9,-0.75,255
9.9,-0.6,72
9.9,-0.45,255
9.9,-0.3,82
9.9,-0.15,99
9.9,0.0,57
9.9,0.15,60
9.9,0.3,93
9.9,0.45,80
9.9,0.6,87
9.9,0.75,94
9.9,0.9,96
9.9,1.05,96
9.9,1.2,97
9.9,1.35,106
9.9,1.5,106
10.05,-1.5,126
10.05,-1.35,131
10.05,-1.2,138
10.05,-1.05,157
10.05,-0.9,204
10.05,-0.75,35
10.05,-0.6,32
10.05,-0.45,81
10.05,-0.3,83
10.05,-0.15,66
10.05,0.0,73
10.05,0.15,66
10.05,0.3,63
10.05,0.45,102
10.05,0.6,101
10.05,0.75,107
10.05,0.9,107
10.05,1.05,107
10.05,1.2,111
10.05,1.35,115
10.05,1.5,106
10.2,-1.5,125
10.2,-1.35,122
10.2,-1.2,122
10.2,-1.05,146
10.2,-0.9,139
10.2,-0.75,71
10.2,-0.6,68
10.2,-0.45,88
10.2,-0.3,149
10.2,-0.15,28
10.2,0.0,93
10.2,0.15,118
10.2,0.3,136
10.2,0.45,155
10.2,0.6,156
10.2,0.75,156
10.2,0.9,153
10.2,1.05,151
10.2,1.2,137
10.2,1.35,132
10.2,1.5,131
10.35,-1.5,136
10.35,-1.35,129
10.35,-1.2,128
10.35,-1.05,121
10.35,-0.9,96
10.35,-0.75,79
10.35,-0.6,95
10.35,-0.45,169
10.35,-0.3,137
10.35,-0.15,140
10.35,0.0,162
10.35,0.15,152
10.35,0.3,255
10.35,0.45,237
10.35,0.6,184
10.35,0.75,163
10.35,0.9,161
10.35,1.05,156
10.35,1.2,154
10.35,1.35,148
10.35,1.5,146
10.5,-1.5,130
10.5,-1.35,136
10.5,-1.2,120
10.5,-1.05,122
10.5,-0.9,126
10.5,-0.75,95
10.5,-0.6,72
10.5,-0.45,40
10.5,-0.3,41
10.5,-0.15,100
10.5,0.0,153
10.5,0.15,140
10.5,0.3,255
10.5,0.45,240
10.5,0.6,183
10.5,0.75,161
10.5,0.9,149
10.5,1.05,149
10.5,1.2,146
10.5,1.35,146
10.5,1.5,146
10.65,-1.5,105
10.65,-1.35,117
10.65,-1.2,136
10.65,-1.05,141
10.65,-0.9,147
10.65,-0.75,193
10.65,-0.6,116
10.65,-0.45,65
10.65,-0.3,97
10.65,-0.15,114
10.65,0.0,140
10.65,0.15,201
10.65,0.3,130
10.65,0.45,164
10.65,0.6,150
10.65,0.75,142
10.65,0.9,148
10.65,1.05,157
10.65,1.2,156
10.65,1.35,155
10.65,1.5,155
10.8,-1.5,148
10.8,-1.35,137
10.8,-1.2,141
10.8,-1.05,140
10.8,-0.9,161
10.8,-0.75,200
10.8,-0.6,141
10.8,-0.45,53
10.8,-0.3,172
10.8,-0.15,97
10.8,0.0,144
10.8,0.15,141
10.8,0.3,83
10.8,0.45,124
10.8,0.6,133
10.8,0.75,137
10.8,0.9,139
10.8,1.05,139
10.8,1.2,138
10.8,1.35,138
10.8,1.5,137
10.95,-1.5,134
10.95,-1.35,132
10.95,-1.2,139
10.95,-1.05,144
10.95,-0.9,152
10.95,-0.75,153
10.95,-0.6,136
10.95,-0.45,109
10.95,-0.3,137
10.95,-0.15,184
10.95,0.0,128
10.95,0.15,103
10.95,0.3,75
10.95,0.45,92
10.95,0.6,108
10.95,0.75,119
10.95,0.9,128
10.95,1.05,131
10.95,1.2,133
10.95,1.35,135
10.95,1.5,135
11.1,-1.5,129
11.1,-1.35,122
11.1,-1.2,122
11.1,-1.05,122
11.1,-0.9,121
11.1,-0.75,130
11.1,-0.6,255
11.1,-0.45,113
11.1,-0.3,102
11.1,-0.15,85
11.1,0.0,71
11.1,0.15,53
11.1,0.3,0
11.1,0.45,55
11.1,0.6,83
11.1,0.75,95
11.1,0.9,101
11.1,1.05,105
11.1,1.2,122
11.1,1.35,127
11.1,1.5,129
11.25,-1.5,114
11.25,-1.35,114
11.25,-1.2,144
11.25,-1.05,123
11.25,-0.9,105
11.25,-0.75,65
11.25,-0.6,91
11.25,-0.45,5
11.25,-0.3,49
11.25,-0.15,0
11.25,0.0,33
11.25,0.15,68
11.25,0.3,71
11.25,0.45,73
11.25,0.6,81
11.25,0.75,90
11.25,0.9,96
11.25,1.05,101
11.25,1.2,104
11.25,1.35,105
11.25,1.5,106
11.4,-1.5,116
11.4,-1.35,116
11.4,-1.2,114
11.4,-1.05,109
11.4,-0.9,101
11.4,-0.75,80
11.4,-0.6,57
11.4,-0.45,188
11.4,-0.3,85
11.4,-0.15,26
11.4,0.0,47
11.4,0.15,255
11.4,0.3,113
11.4,0.45,63
11.4,0.6,72
11.4,0.75,71
11.4,0.9,70
11.4,1.05,69
11.4,1.2,91
11.4,1.35,92
11.4,1.5,101
11.55,-1.5,100
11.55,-1.35,90
11.55,-1.2,90
11.55,-1.05,89
11.55,-0.9,88
11.55,-0.75,81
11.55,-0.6,95
11.55,-0.45,35
11.55,-0.3,87
11.55,-0.15,26
11.55,0.0,50
11.55,0.15,160
11.55,0.3,126
11.55,0.45,84
11.55,0.6,77
11.55,0.75,62
11.55,0.9,57
11.55,1.05,54
11.55,1.2,51
11.55,1.35,49
11.55,1.5,48
11.7,-1.5,74
11.7,-1.35,74
11.7,-1.2,74
11.7,-1.05,74
11.7,-0.9,74
11.7,-0.75,89
11.7,-0.6,67
11.7,-0.45,112
11.7,-0.3,121
11.7,-0.15,122
11.7,0.0,94
11.7,0.15,106
11.7,0.3,102
11.7,0.45,81
11.7,0.6,73
11.7,0.75,68
11.7,0.9,67
11.7,1.05,65
11.7,1.2,49
11.7,1.35,48
11.7,1.5,48
11.85,-1.5,74
11.85,-1.35,73
11.85,-1.2,81
11.85,-1.05,88
11.85,-0.9,101
11.85,-0.75,93
11.85,-0.6,93
11.85,-0.45,185
11.85,-0.3,222
11.85,-0.15,138
11.85,0.0,71
11.85,0.15,77
11.85,0.3,86
11.85,0.45,80
11.85,0.6,65
11.85,0.75,62
11.85,0.9,60
11.85,1.05,58
11.85,1.2,56
11.85,1.35,54
11.85,1.5,48
12.0,-1.5,62
12.0,-1.35,63
12.0,-1.2,105
12.0,-1.05,102
12.0,-0.9,99
12.0,-0.75,91
12.0,-0.6,80
12.0,-0.45,121
12.0,-0.3,182
12.0,-0.15,243
12.0,0.0,19
12.0,0.15,32
12.0,0.3,63
12.0,0.45,75
12.0,0.6,62
12.0,0.75,57
12.0,0.9,52
12.0,1.05,51
12.0,1.2,51
12.0,1.35,50
12.0,1.5,48
12.15,-1.5,26
12.15,-1.35,27
12.15,-1.2,46
12.15,-1.05,63
12.15,-0.9,96
12.15,-0.75,89
12.15,-0.6,76
12.15,-0.45,18
12.15,-0.3,110
12.15,-0.15,142
12.15,0.0,77
12.15,0.15,25
12.15,0.3,67
12.15,0.45,56
12.15,0.6,45
12.15,0.75,46
12.15,0.9,42
12.15,1.05,44
12.15,1.2,45
12.15,1.35,44
12.15,1.5,43
12.3,-1.5,48
12.3,-1.35,49
12.3,-1.2,52
12.3,-1.05,58
12.3,-0.9,60
12.3,-0.75,66
12.3,-0.6,85
12.3,-0.45,139
12.3,-0.3,153
12.3,-0.15,114
12.3,0.0,89
12.3,0.15,68
12.3,0.3,57
12.3,0.45,45
12.3,0.6,26
12.3,0.75,36
12.3,0.9,41
12.3,1.05,45
12.3,1.2,47
12.3,1.35,47
12.3,1.5,39
12.45,-1.5,48
12.45,-1.35,48
12.45,-1.2,48
12.45,-1.05,62
12.45,-0.9,45
12.45,-0.75,46
12.45,-0.6,39
12.45,-0.45,2
12.45,-0.3,119
12.45,-0.15,98
12.45,0.0,88
12.45,0.15,71
12.45,0.3,48
12.45,0.45,10
12.45,0.6,0
12.45,0.75,25
12.45,0.9,42
12.45,1.05,51
12.45,1.2,53
12.45,1.35,38
12.45,1.5,36
12.6,-1.5,52
12.6,-1.35,58
12.6,-1.2,64
12.6,-1.05,62
12.6,-0.9,56
12.6,-0.75,39
12.6,-0.6,30
12.6,-0.45,32
12.6,-0.3,68
12.6,-0.15,75
12.6,0.0,68
12.6,0.15,58
12.6,0.3,53
12.6,0.45,25
12.6,0.6,13
12.6,0.75,24
12.6,0.9,36
12.6,1.05,51
12.6,1.2,41
12.6,1.35,34
12.6,1.5,30
12.75,-1.5,32
12.75,-1.35,46
12.75,-1.2,62
12.75,-1.05,74
12.75,-0.9,49
12.75,-0.75,5
12.75,-0.6,53
12.75,-0.45,17
12.75,-0.3,45
12.75,-0.15,76
12.75,0.0,87
12.75,0.15,74
12.75,0.3,63
12.75,0.45,42
12.75,0.6,34
12.75,0.75,34
12.75,0.9,38
12.75,1.05,35
12.75,1.2,26
12.75,1.35,22
12.75,1.5,12
12.9,-1.5,3
12.9,-1.35,25
12.9,-1.2,60
12.9,-1.05,80
12.9,-0.9,93
12.9,-0.75,142
12.9,-0.6,222
12.9,-0.45,201
12.9,-0.3,107
12.9,-0.15,95
12.9,0.0,96
12.9,0.15,93
12.9,0.3,86
12.9,0.45,63
12.9,0.6,54
12.9,0.75,60
12.9,0.9,54
12.9,1.05,44
12.9,1.2,19
12.9,1.35,3
12.9,1.5,0
13.05,-1.5,0
13.05,-1.35,19
13.05,-1.2,62
13.05,-1.05,93
13.05,-0.9,124
13.05,-0.75,178
13.05,-0.6,247
13.05,-0.45,255
13.05,-0.3,161
13.05,-0.15,120
13.05,0.0,108
13.05,0.15,101
13.05,0.3,80
13.05,0.45,72
13.05,0.6,63
13.05,0.75,56
13.05,0.9,47
13.05,1.05,44
13.05,1.2,23
13.05,1.35,3
13.05,1.5,0
