-3.0,-1.5,0
-3.0,-1.35,13
-3.0,-1.2,64
-3.0,-1.05,118
-3.0,-0.9,164
-3.0,-0.75,205
-3.0,-0.6,245
-3.0,-0.45,255
-3.0,-0.3,241
-3.0,-0.15,209
-3.0,0.0,198
-3.0,0.15,196
-3.0,0.3,190
-3.0,0.45,182
-3.0,0.6,171
-3.0,0.75,158
-3.0,0.9,133
-3.0,1.05,96
-3.0,1.2,50
-3.0,1.35,9
-3.0,1.5,0
-2.85,-1.5,11
-2.85,-1.35,31
-2.85,-1.2,77
-2.85,-1.05,125
-2.85,-0.9,166
-2.85,-0.75,209
-2.85,-0.6,255
-2.85,-0.45,255
-2.85,-0.3,255
-2.85,-0.15,207
-2.85,0.0,200
-2.85,0.15,200
-2.85,0.3,195
-2.85,0.45,189
-2.85,0.6,180
-2.85,0.75,163
-2.85,0.9,139
-2.85,1.05,105
-2.85,1.2,62
-2.85,1.35,23
-2.85,1.5,7
-2.7,-1.5,48
-2.7,-1.35,66
-2.7,-1.2,98
-2.7,-1.05,131
-2.7,-0.9,161
-2.7,-0.75,192
-2.7,-0.6,229
-2.7,-0.45,254
-2.7,-0.3,221
-2.7,-0.15,203
-2.7,0.0,198
-2.7,0.15,197
-2.7,0.3,198
-2.7,0.45,198
-2.7,0.6,185
-2.7,0.75,167
-2.7,0.9,145
-2.7,1.05,117
-2.7,1.2,84
-2.7,1.35,54
-2.7,1.5,38
-2.55,-1.5,83
-2.55,-1.35,95
-2.55,-1.2,114
-2.55,-1.05,133
-2.55,-0.9,149
-2.55,-0.75,163
-2.55,-0.6,175
-2.55,-0.45,180
-2.55,-0.3,179
-2.55,-0.15,184
-2.55,0.0,183
-2.55,0.15,184
-2.55,0.3,195
-2.55,0.45,196
-2.55,0.6,182
-2.55,0.75,166
-2.55,0.9,148
-2.55,1.05,128
-2.55,1.2,105
-2.55,1.35,83
-2.55,1.5,70
-2.4,-1.5,105
-2.4,-1.35,113
-2.4,-1.2,123
-2.4,-1.05,132
-2.4,-0.9,137
-2.4,-0.75,136
-2.4,-0.6,129
-2.4,-0.45,119
-2.4,-0.3,124
-2.4,-0.15,141
-2.4,0.0,152
-2.4,0.15,161
-2.4,0.3,172
-2.4,0.45,176
-2.4,0.6,170
-2.4,0.75,160
-2.4,0.9,148
-2.4,1.05,134
-2.4,1.2,119
-2.4,1.35,105
-2.4,1.5,94
-2.25,-1.5,119
-2.25,-1.35,123
-2.25,-1.2,127
-2.25,-1.05,130
-2.25,-0.9,128
-2.25,-0.75,119
-2.25,-0.6,101
-2.25,-0.45,55
-2.25,-0.3,66
-2.25,-0.15,97
-2.25,0.0,115
-2.25,0.15,134
-2.25,0.3,146
-2.25,0.45,155
-2.25,0.6,156
-2.25,0.75,152
-2.25,0.9,146
-2.25,1.05,138
-2.25,1.2,128
-2.25,1.35,118
-2.25,1.5,121
-2.1,-1.5,121
-2.1,-1.35,129
-2.1,-1.2,130
-2.1,-1.05,129
-2.1,-0.9,124
-2.1,-0.75,115
-2.1,-0.6,99
-2.1,-0.45,39
-2.1,-0.3,71
-2.1,-0.15,41
-2.1,0.0,83
-2.1,0.15,111
-2.1,0.3,131
-2.1,0.45,139
-2.1,0.6,145
-2.1,0.75,146
-2.1,0.9,144
-2.1,1.05,139
-2.1,1.2,133
-2.1,1.35,127
-2.1,1.5,133
-1.95,-1.5,126
-1.95,-1.35,127
-1.95,-1.2,127
-1.95,-1.05,125
-1.95,-0.9,119
-1.95,-0.75,116
-1.95,-0.6,116
-1.95,-0.45,155
-1.95,-0.3,255
-1.95,-0.15,76
-1.95,0.0,63
-1.95,0.15,97
-1.95,0.3,122
-1.95,0.45,141
-1.95,0.6,147
-1.95,0.75,143
-1.95,0.9,143
-1.95,1.05,141
-1.95,1.2,138
-1.95,1.35,134
-1.95,1.5,130
-1.8,-1.5,126
-1.8,-1.35,126
-1.8,-1.2,131
-1.8,-1.05,128
-1.8,-0.9,121
-1.8,-0.75,103
-1.8,-0.6,76
-1.8,-0.45,121
-1.8,-0.3,209
-1.8,-0.15,255
-1.8,0.0,48
-1.8,0.15,103
-1.8,0.3,125
-1.8,0.45,139
-1.8,0.6,147
-1.8,0.75,144
-1.8,0.9,145
-1.8,1.05,144
-1.8,1.2,142
-1.8,1.35,154
-1.8,1.5,151
-1.65,-1.5,126
-1.65,-1.35,127
-1.65,-1.2,128
-1.65,-1.05,133
-1.65,-0.9,127
-1.65,-0.75,106
-1.65,-0.6,68
-1.65,-0.45,96
-1.65,-0.3,173
-1.65,-0.15,203
-1.65,0.0,143
-1.65,0.15,125
-1.65,0.3,134
-1.65,0.45,146
-1.65,0.6,152
-1.65,0.75,162
-1.65,0.9,164
-1.65,1.05,164
-1.65,1.2,162
-1.65,1.35,160
-1.65,1.5,158
-1.5,-1.5,130
-1.5,-1.35,143
-1.5,-1.2,146
-1.5,-1.05,147
-1.5,-0.9,145
-1.5,-0.75,137
-1.5,-0.6,124
-1.5,-0.45,132
-1.5,-0.3,153
-1.5,-0.15,162
-1.5,0.0,152
-1.5,0.15,144
-1.5,0.3,147
-1.5,0.45,157
-1.5,0.6,160
-1.5,0.75,162
-1.5,0.9,164
-1.5,1.05,161
-1.5,1.2,159
-1.5,1.35,158
-1.5,1.5,165
-1.35,-1.5,146
-1.35,-1.35,148
-1.35,-1.2,155
-1.35,-1.05,164
-1.35,-0.9,172
-1.35,-0.75,168
-1.35,-0.6,164
-1.35,-0.45,158
-1.35,-0.3,156
-1.35,-0.15,166
-1.35,0.0,167
-1.35,0.15,172
-1.35,0.3,173
-1.35,0.45,173
-1.35,0.6,173
-1.35,0.75,176
-1.35,0.9,176
-1.35,1.05,176
-1.35,1.2,172
-1.35,1.35,169
-1.35,1.5,167
-1.2,-1.5,145
-1.2,-1.35,151
-1.2,-1.2,160
-1.2,-1.05,182
-1.2,-0.9,199
-1.2,-0.75,194
-1.2,-0.6,194
-1.2,-0.45,185
-1.2,-0.3,174
-1.2,-0.15,184
-1.2,0.0,188
-1.2,0.15,193
-1.2,0.3,190
-1.2,0.45,187
-1.2,0.6,185
-1.2,0.75,183
-1.2,0.9,181
-1.2,1.05,180
-1.2,1.2,188
-1.2,1.35,171
-1.2,1.5,172
-1.05,-1.5,122
-1.05,-1.35,129
-1.05,-1.2,141
-1.05,-1.05,166
-1.05,-0.9,186
-1.05,-0.75,181
-1.05,-0.6,191
-1.05,-0.45,169
-1.05,-0.3,168
-1.05,-0.15,189
-1.05,0.0,206
-1.05,0.15,204
-1.05,0.3,207
-1.05,0.45,193
-1.05,0.6,192
-1.05,0.75,199
-1.05,0.9,198
-1.05,1.05,197
-1.05,1.2,195
-1.05,1.35,194
-1.05,1.5,193
-0.9,-1.5,117
-0.9,-1.35,122
-0.9,-1.2,129
-0.9,-1.05,138
-0.9,-0.9,144
-0.9,-0.75,147
-0.9,-0.6,133
-0.9,-0.45,118
-0.9,-0.3,131
-0.9,-0.15,192
-0.9,0.0,240
-0.9,0.15,210
-0.9,0.3,206
-0.9,0.45,209
-0.9,0.6,206
-0.9,0.75,203
-0.9,0.9,187
-0.9,1.05,180
-0.9,1.2,177
-0.9,1.35,176
-0.9,1.5,176
-0.75,-1.5,112
-0.75,-1.35,114
-0.75,-1.2,116
-0.75,-1.05,128
-0.75,-0.9,127
-0.75,-0.75,122
-0.75,-0.6,104
-0.75,-0.45,55
-0.75,-0.3,82
-0.75,-0.15,187
-0.75,0.0,255
-0.75,0.15,219
-0.75,0.3,210
-0.75,0.45,204
-0.75,0.6,198
-0.75,0.75,191
-0.75,0.9,186
-0.75,1.05,183
-0.75,1.2,180
-0.75,1.35,178
-0.75,1.5,176
-0.6,-1.5,113
-0.6,-1.35,112
-0.6,-1.2,111
-0.6,-1.05,113
-0.6,-0.9,111
-0.6,-0.75,114
-0.6,-0.6,122
-0.6,-0.45,110
-0.6,-0.3,151
-0.6,-0.15,159
-0.6,0.0,219
-0.6,0.15,232
-0.6,0.3,216
-0.6,0.45,205
-0.6,0.6,196
-0.6,0.75,189
-0.6,0.9,184
-0.6,1.05,181
-0.6,1.2,178
-0.6,1.35,175
-0.6,1.5,173
-0.45,-1.5,108
-0.45,-1.35,106
-0.45,-1.2,103
-0.45,-1.05,99
-0.45,-0.9,95
-0.45,-0.75,98
-0.45,-0.6,159
-0.45,-0.45,147
-0.45,-0.3,141
-0.45,-0.15,122
-0.45,0.0,255
-0.45,0.15,255
-0.45,0.3,215
-0.45,0.45,202
-0.45,0.6,192
-0.45,0.75,185
-0.45,0.9,181
-0.45,1.05,177
-0.45,1.2,174
-0.45,1.35,172
-0.45,1.5,164
-0.3,-1.5,104
-0.3,-1.35,101
-0.3,-1.2,97
-0.3,-1.05,91
-0.3,-0.9,77
-0.3,-0.75,65
-0.3,-0.6,8
-0.3,-0.45,66
-0.3,-0.3,89
-0.3,-0.15,128
-0.3,0.0,206
-0.3,0.15,221
-0.3,0.3,207
-0.3,0.45,193
-0.3,0.6,184
-0.3,0.75,178
-0.3,0.9,167
-0.3,1.05,164
-0.3,1.2,164
-0.3,1.35,162
-0.3,1.5,161
-0.15,-1.5,92
-0.15,-1.35,90
-0.15,-1.2,86
-0.15,-1.05,81
-0.15,-0.9,69
-0.15,-0.75,57
-0.15,-0.6,46
-0.15,-0.45,48
-0.15,-0.3,77
-0.15,-0.15,119
-0.15,0.0,158
-0.15,0.15,180
-0.15,0.3,184
-0.15,0.45,173
-0.15,0.6,166
-0.15,0.75,163
-0.15,0.9,161
-0.15,1.05,159
-0.15,1.2,157
-0.15,1.35,140
-0.15,1.5,138
0.0,-1.5,88
0.0,-1.35,77
0.0,-1.2,78
0.0,-1.05,76
0.0,-0.9,72
0.0,-0.75,67
0.0,-0.6,69
0.0,-0.45,82
0.0,-0.3,95
0.0,-0.15,117
0.0,0.0,166
0.0,0.15,214
0.0,0.3,181
0.0,0.45,153
0.0,0.6,147
0.0,0.75,153
0.0,0.9,150
0.0,1.05,144
0.0,1.2,140
0.0,1.35,137
0.0,1.5,134
0.15,-1.5,77
0.15,-1.35,76
0.15,-1.2,75
0.15,-1.05,75
0.15,-0.9,74
0.15,-0.75,77
0.15,-0.6,87
0.15,-0.45,126
0.15,-0.3,160
0.15,-0.15,94
0.15,0.0,140
0.15,0.15,225
0.15,0.3,161
0.15,0.45,128
0.15,0.6,154
0.15,0.75,170
0.15,0.9,150
0.15,1.05,137
0.15,1.2,129
0.15,1.35,122
0.15,1.5,118
0.3,-1.5,77
0.3,-1.35,77
0.3,-1.2,76
0.3,-1.05,77
0.3,-0.9,78
0.3,-0.75,82
0.3,-0.6,87
0.3,-0.45,111
0.3,-0.3,106
0.3,-0.15,62
0.3,0.0,76
0.3,0.15,60
0.3,0.3,101
0.3,0.45,72
0.3,0.6,142
0.3,0.75,180
0.3,0.9,142
0.3,1.05,125
0.3,1.2,114
0.3,1.35,107
0.3,1.5,103
0.45,-1.5,73
0.45,-1.35,77
0.45,-1.2,71
0.45,-1.05,72
0.45,-0.9,74
0.45,-0.75,77
0.45,-0.6,82
0.45,-0.45,81
0.45,-0.3,83
0.45,-0.15,80
0.45,0.0,60
0.45,0.15,71
0.45,0.3,82
0.45,0.45,72
0.45,0.6,97
0.45,0.75,127
0.45,0.9,123
0.45,1.05,113
0.45,1.2,106
0.45,1.35,102
0.45,1.5,98
0.6,-1.5,73
0.6,-1.35,63
0.6,-1.2,77
0.6,-1.05,78
0.6,-0.9,77
0.6,-0.75,77
0.6,-0.6,73
0.6,-0.45,67
0.6,-0.3,47
0.6,-0.15,157
0.6,0.0,62
0.6,0.15,55
0.6,0.3,55
0.6,0.45,61
0.6,0.6,82
0.6,0.75,93
0.6,0.9,103
0.6,1.05,92
0.6,1.2,86
0.6,1.35,83
0.6,1.5,80
0.75,-1.5,72
0.75,-1.35,82
0.75,-1.2,85
0.75,-1.05,74
0.75,-0.9,72
0.75,-0.75,68
0.75,-0.6,56
0.75,-0.45,56
0.75,-0.3,62
0.75,-0.15,91
0.75,0.0,55
0.75,0.15,62
0.75,0.3,62
0.75,0.45,69
0.75,0.6,66
0.75,0.75,70
0.75,0.9,69
0.75,1.05,68
0.75,1.2,69
0.75,1.35,67
0.75,1.5,65
0.9,-1.5,68
0.9,-1.35,71
0.9,-1.2,57
0.9,-1.05,69
0.9,-0.9,70
0.9,-0.75,60
0.9,-0.6,56
0.9,-0.45,60
0.9,-0.3,80
0.9,-0.15,72
0.9,0.0,32
0.9,0.15,62
0.9,0.3,74
0.9,0.45,64
0.9,0.6,65
0.9,0.75,66
0.9,0.9,62
0.9,1.05,61
0.9,1.2,60
0.9,1.35,59
0.9,1.5,59
1.05,-1.5,69
1.05,-1.35,68
1.05,-1.2,67
1.05,-1.05,66
1.05,-0.9,58
1.05,-0.75,61
1.05,-0.6,61
1.05,-0.45,64
1.05,-0.3,69
1.05,-0.15,49
1.05,0.0,70
1.05,0.15,96
1.05,0.3,77
1.05,0.45,48
1.05,0.6,61
1.05,0.75,64
1.05,0.9,54
1.05,1.05,52
1.05,1.2,45
1.05,1.35,45
1.05,1.5,46
1.2,-1.5,79
1.2,-1.35,69
1.2,-1.2,68
1.2,-1.05,67
1.2,-0.9,66
1.2,-0.75,58
1.2,-0.6,45
1.2,-0.45,68
1.2,-0.3,140
1.2,-0.15,71
1.2,0.0,80
1.2,0.15,121
1.2,0.3,79
1.2,0.45,64
1.2,0.6,64
1.2,0.75,49
1.2,0.9,42
1.2,1.05,35
1.2,1.2,33
1.2,1.35,36
1.2,1.5,36
1.35,-1.5,67
1.35,-1.35,79
1.35,-1.2,68
1.35,-1.05,68
1.35,-0.9,68
1.35,-0.75,63
1.35,-0.6,43
1.35,-0.45,0
1.35,-0.3,54
1.35,-0.15,50
1.35,0.0,80
1.35,0.15,146
1.35,0.3,0
1.35,0.45,45
1.35,0.6,46
1.35,0.75,43
1.35,0.9,30
1.35,1.05,17
1.35,1.2,18
1.35,1.35,19
1.35,1.5,24
1.5,-1.5,68
1.5,-1.35,67
1.5,-1.2,66
1.5,-1.05,68
1.5,-0.9,66
1.5,-0.75,72
1.5,-0.6,94
1.5,-0.45,80
1.5,-0.3,44
1.5,-0.15,9
1.5,0.0,40
1.5,0.15,50
1.5,0.3,59
1.5,0.45,55
1.5,0.6,42
1.5,0.75,34
1.5,0.9,11
1.5,1.05,0
1.5,1.2,4
1.5,1.35,14
1.5,1.5,20
1.65,-1.5,69
1.65,-1.35,69
1.65,-1.2,67
1.65,-1.05,64
1.65,-0.9,64
1.65,-0.75,53
1.65,-0.6,94
1.65,-0.45,72
1.65,-0.3,50
1.65,-0.15,0
1.65,0.0,42
1.65,0.15,51
1.65,0.3,43
1.65,0.45,42
1.65,0.6,31
1.65,0.75,32
1.65,0.9,15
1.65,1.05,2
1.65,1.2,8
1.65,1.35,15
1.65,1.5,20
1.8,-1.5,72
1.8,-1.35,72
1.8,-1.2,72
1.8,-1.05,67
1.8,-0.9,48
1.8,-0.75,27
1.8,-0.6,130
1.8,-0.45,79
1.8,-0.3,61
1.8,-0.15,37
1.8,0.0,48
1.8,0.15,59
1.8,0.3,52
1.8,0.45,23
1.8,0.6,17
1.8,0.75,34
1.8,0.9,29
1.8,1.05,23
1.8,1.2,17
1.8,1.35,20
1.8,1.5,22
1.95,-1.5,59
1.95,-1.35,63
1.95,-1.2,72
1.95,-1.05,68
1.95,-0.9,67
1.95,-0.75,70
1.95,-0.6,72
1.95,-0.45,45
1.95,-0.3,16
1.95,-0.15,14
1.95,0.0,54
1.95,0.15,89
1.95,0.3,48
1.95,0.45,45
1.95,0.6,38
1.95,0.75,38
1.95,0.9,37
1.95,1.05,35
1.95,1.2,34
1.95,1.35,34
1.95,1.5,25
2.1,-1.5,59
2.1,-1.35,60
2.1,-1.2,64
2.1,-1.05,72
2.1,-0.9,96
2.1,-0.75,132
2.1,-0.6,46
2.1,-0.45,36
2.1,-0.3,31
2.1,-0.15,63
2.1,0.0,92
2.1,0.15,88
2.1,0.3,63
2.1,0.45,46
2.1,0.6,44
2.1,0.75,43
2.1,0.9,33
2.1,1.05,31
2.1,1.2,36
2.1,1.35,36
2.1,1.5,27
2.25,-1.5,60
2.25,-1.35,56
2.25,-1.2,58
2.25,-1.05,62
2.25,-0.9,56
2.25,-0.75,49
2.25,-0.6,57
2.25,-0.45,39
2.25,-0.3,44
2.25,-0.15,48
2.25,0.0,111
2.25,0.15,51
2.25,0.3,44
2.25,0.45,42
2.25,0.6,41
2.25,0.75,45
2.25,0.9,33
2.25,1.05,31
2.25,1.2,30
2.25,1.35,29
2.25,1.5,38
2.4,-1.5,40
2.4,-1.35,40
2.4,-1.2,40
2.4,-1.05,51
2.4,-0.9,52
2.4,-0.75,58
2.4,-0.6,54
2.4,-0.45,201
2.4,-0.3,35
2.4,-0.15,38
2.4,0.0,40
2.4,0.15,38
2.4,0.3,26
2.4,0.45,44
2.4,0.6,44
2.4,0.75,41
2.4,0.9,50
2.4,1.05,47
2.4,1.2,43
2.4,1.35,39
2.4,1.5,39
2.55,-1.5,38
2.55,-1.35,35
2.55,-1.2,31
2.55,-1.05,22
2.55,-0.9,16
2.55,-0.75,48
2.55,-0.6,63
2.55,-0.45,75
2.55,-0.3,58
2.55,-0.15,20
2.55,0.0,48
2.55,0.15,48
2.55,0.3,48
2.55,0.45,44
2.55,0.6,63
2.55,0.75,70
2.55,0.9,73
2.55,1.05,63
2.55,1.2,59
2.55,1.35,58
2.55,1.5,57
2.7,-1.5,47
2.7,-1.35,43
2.7,-1.2,36
2.7,-1.05,17
2.7,-0.9,0
2.7,-0.75,57
2.7,-0.6,19
2.7,-0.45,34
2.7,-0.3,26
2.7,-0.15,12
2.7,0.0,35
2.7,0.15,58
2.7,0.3,62
2.7,0.45,74
2.7,0.6,78
2.7,0.75,77
2.7,0.9,76
2.7,1.05,88
2.7,1.2,91
2.7,1.35,74
2.7,1.5,72
2.85,-1.5,53
2.85,-1.35,49
2.85,-1.2,46
2.85,-1.05,32
2.85,-0.9,37
2.85,-0.75,65
2.85,-0.6,79
2.85,-0.45,48
2.85,-0.3,44
2.85,-0.15,24
2.85,0.0,37
2.85,0.15,35
2.85,0.3,103
2.85,0.45,107
2.85,0.6,104
2.85,0.75,96
2.85,0.9,94
2.85,1.05,85
2.85,1.2,84
2.85,1.35,96
2.85,1.5,96
3.0,-1.5,62
3.0,-1.35,60
3.0,-1.2,57
3.0,-1.05,52
3.0,-0.9,45
3.0,-0.75,4
3.0,-0.6,120
3.0,-0.45,119
3.0,-0.3,58
3.0,-0.15,69
3.0,0.0,103
3.0,0.15,74
3.0,0.3,142
3.0,0.45,163
3.0,0.6,84
3.0,0.75,81
3.0,0.9,96
3.0,1.05,96
3.0,1.2,96
3.0,1.35,94
3.0,1.5,94
3.15,-1.5,63
3.15,-1.35,65
3.15,-1.2,81
3.15,-1.05,78
3.15,-0.9,74
3.15,-0.75,58
3.15,-0.6,93
3.15,-0.45,118
3.15,-0.3,49
3.15,-0.15,34
3.15,0.0,0
3.15,0.15,55
3.15,0.3,78
3.15,0.45,104
3.15,0.6,54
3.15,0.75,83
3.15,0.9,93
3.15,1.05,93
3.15,1.2,96
3.15,1.35,96
3.15,1.5,85
3.3,-1.5,40
3.3,-1.35,63
3.3,-1.2,76
3.3,-1.05,103
3.3,-0.9,98
3.3,-0.75,82
3.3,-0.6,108
3.3,-0.45,95
3.3,-0.3,50
3.3,-0.15,46
3.3,0.0,44
3.3,0.15,64
3.3,0.3,101
3.3,0.45,82
3.3,0.6,83
3.3,0.75,85
3.3,0.9,85
3.3,1.05,85
3.3,1.2,85
3.3,1.35,84
3.3,1.5,84
3.45,-1.5,39
3.45,-1.35,59
3.45,-1.2,86
3.45,-1.05,121
3.45,-0.9,186
3.45,-0.75,91
3.45,-0.6,80
3.45,-0.45,49
3.45,-0.3,46
3.45,-0.15,46
3.45,0.0,46
3.45,0.15,73
3.45,0.3,49
3.45,0.45,69
3.45,0.6,89
3.45,0.75,78
3.45,0.9,75
3.45,1.05,73
3.45,1.2,72
3.45,1.35,72
3.45,1.5,72
3.6,-1.5,51
3.6,-1.35,55
3.6,-1.2,66
3.6,-1.05,102
3.6,-0.9,114
3.6,-0.75,73
3.6,-0.6,49
3.6,-0.45,50
3.6,-0.3,102
3.6,-0.15,144
3.6,0.0,52
3.6,0.15,67
3.6,0.3,45
3.6,0.45,3
3.6,0.6,102
3.6,0.75,74
3.6,0.9,64
3.6,1.05,61
3.6,1.2,60
3.6,1.35,70
3.6,1.5,70
3.75,-1.5,41
3.75,-1.35,38
3.75,-1.2,40
3.75,-1.05,49
3.75,-0.9,68
3.75,-0.75,75
3.75,-0.6,189
3.75,-0.45,68
3.75,-0.3,129
3.75,-0.15,69
3.75,0.0,56
3.75,0.15,65
3.75,0.3,71
3.75,0.45,114
3.75,0.6,85
3.75,0.75,69
3.75,0.9,69
3.75,1.05,73
3.75,1.2,75
3.75,1.35,77
3.75,1.5,74
3.9,-1.5,25
3.9,-1.35,19
3.9,-1.2,6
3.9,-1.05,4
3.9,-0.9,29
3.9,-0.75,66
3.9,-0.6,75
3.9,-0.45,133
3.9,-0.3,40
3.9,-0.15,37
3.9,0.0,66
3.9,0.15,55
3.9,0.3,74
3.9,0.45,96
3.9,0.6,25
3.9,0.75,26
3.9,0.9,62
3.9,1.05,71
3.9,1.2,75
3.9,1.35,74
3.9,1.5,77
4.05,-1.5,21
4.05,-1.35,10
4.05,-1.2,3
4.05,-1.05,0
4.05,-0.9,10
4.05,-0.75,57
4.05,-0.6,76
4.05,-0.45,73
4.05,-0.3,84
4.05,-0.15,37
4.05,0.0,37
4.05,0.15,28
4.05,0.3,74
4.05,0.45,144
4.05,0.6,75
4.05,0.75,61
4.05,0.9,75
4.05,1.05,84
4.05,1.2,89
4.05,1.35,91
4.05,1.5,92
4.2,-1.5,11
4.2,-1.35,8
4.2,-1.2,3
4.2,-1.05,0
4.2,-0.9,10
4.2,-0.75,38
4.2,-0.6,36
4.2,-0.45,47
4.2,-0.3,43
4.2,-0.15,37
4.2,0.0,58
4.2,0.15,52
4.2,0.3,174
4.2,0.45,190
4.2,0.6,61
4.2,0.75,68
4.2,0.9,87
4.2,1.05,89
4.2,1.2,85
4.2,1.35,87
4.2,1.5,92
4.35,-1.5,6
4.35,-1.35,5
4.35,-1.2,6
4.35,-1.05,13
4.35,-0.9,25
4.35,-0.75,23
4.35,-0.6,55
4.35,-0.45,37
4.35,-0.3,85
4.35,-0.15,52
4.35,0.0,103
4.35,0.15,20
4.35,0.3,159
4.35,0.45,92
4.35,0.6,84
4.35,0.75,81
4.35,0.9,82
4.35,1.05,83
4.35,1.2,85
4.35,1.35,86
4.35,1.5,100
4.5,-1.5,28
4.5,-1.35,28
4.5,-1.2,39
4.5,-1.05,58
4.5,-0.9,85
4.5,-0.75,110
4.5,-0.6,182
4.5,-0.45,112
4.5,-0.3,103
4.5,-0.15,59
4.5,0.0,113
4.5,0.15,86
4.5,0.3,110
4.5,0.45,4
4.5,0.6,62
4.5,0.75,74
4.5,0.9,80
4.5,1.05,79
4.5,1.2,81
4.5,1.35,89
4.5,1.5,90
4.65,-1.5,36
4.65,-1.35,51
4.65,-1.2,87
4.65,-1.05,95
4.65,-0.9,114
4.65,-0.75,116
4.65,-0.6,100
4.65,-0.45,36
4.65,-0.3,56
4.65,-0.15,29
4.65,0.0,35
4.65,0.15,86
4.65,0.3,77
4.65,0.45,51
4.65,0.6,47
4.65,0.75,50
4.65,0.9,52
4.65,1.05,72
4.65,1.2,68
4.65,1.35,69
4.65,1.5,70
4.8,-1.5,61
4.8,-1.35,63
4.8,-1.2,64
4.8,-1.05,61
4.8,-0.9,57
4.8,-0.75,255
4.8,-0.6,197
4.8,-0.45,44
4.8,-0.3,47
4.8,-0.15,29
4.8,0.0,41
4.8,0.15,66
4.8,0.3,11
4.8,0.45,52
4.8,0.6,53
4.8,0.75,51
4.8,0.9,43
4.8,1.05,43
4.8,1.2,43
4.8,1.35,36
4.8,1.5,35
4.95,-1.5,65
4.95,-1.35,64
4.95,-1.2,60
4.95,-1.05,50
4.95,-0.9,29
4.95,-0.75,47
4.95,-0.6,53
4.95,-0.45,172
4.95,-0.3,36
4.95,-0.15,105
4.95,0.0,23
4.95,0.15,23
4.95,0.3,113
4.95,0.45,91
4.95,0.6,57
4.95,0.75,51
4.95,0.9,46
4.95,1.05,46
4.95,1.2,37
4.95,1.35,43
4.95,1.5,43
5.1,-1.5,76
5.1,-1.35,53
5.1,-1.2,50
5.1,-1.05,56
5.1,-0.9,56
5.1,-0.75,49
5.1,-0.6,77
5.1,-0.45,146
5.1,-0.3,43
5.1,-0.15,65
5.1,0.0,54
5.1,0.15,29
5.1,0.3,35
5.1,0.45,65
5.1,0.6,49
5.1,0.75,47
5.1,0.9,44
5.1,1.05,43
5.1,1.2,41
5.1,1.35,41
5.1,1.5,41
5.25,-1.5,72
5.25,-1.35,83
5.25,-1.2,79
5.25,-1.05,56
5.25,-0.9,45
5.25,-0.75,20
5.25,-0.6,41
5.25,-0.45,16
5.25,-0.3,8
5.25,-0.15,79
5.25,0.0,78
5.25,0.15,76
5.25,0.3,53
5.25,0.45,65
5.25,0.6,57
5.25,0.75,58
5.25,0.9,58
5.25,1.05,52
5.25,1.2,52
5.25,1.35,52
5.25,1.5,48
5.4,-1.5,60
5.4,-1.35,60
5.4,-1.2,60
5.4,-1.05,70
5.4,-0.9,76
5.4,-0.75,50
5.4,-0.6,0
5.4,-0.45,45
5.4,-0.3,39
5.4,-0.15,3
5.4,0.0,58
5.4,0.15,67
5.4,0.3,60
5.4,0.45,56
5.4,0.6,58
5.4,0.75,58
5.4,0.9,50
5.4,1.05,51
5.4,1.2,51
5.4,1.35,51
5.4,1.5,51
5.55,-1.5,76
5.55,-1.35,79
5.55,-1.2,77
5.55,-1.05,89
5.55,-0.9,105
5.55,-0.75,146
5.55,-0.6,140
5.55,-0.45,78
5.55,-0.3,156
5.55,-0.15,12
5.55,0.0,48
5.55,0.15,87
5.55,0.3,47
5.55,0.45,45
5.55,0.6,44
5.55,0.75,46
5.55,0.9,45
5.55,1.05,42
5.55,1.2,46
5.55,1.35,50
5.55,1.5,50
5.7,-1.5,92
5.7,-1.35,92
5.7,-1.2,82
5.7,-1.05,92
5.7,-0.9,123
5.7,-0.75,180
5.7,-0.6,21
5.7,-0.45,150
5.7,-0.3,71
5.7,-0.15,28
5.7,0.0,44
5.7,0.15,27
5.7,0.3,44
5.7,0.45,44
5.7,0.6,43
5.7,0.75,42
5.7,0.9,41
5.7,1.05,35
5.7,1.2,35
5.7,1.35,35
5.7,1.5,35
5.85,-1.5,91
5.85,-1.35,86
5.85,-1.2,77
5.85,-1.05,52
5.85,-0.9,70
5.85,-0.75,53
5.85,-0.6,50
5.85,-0.45,107
5.85,-0.3,44
5.85,-0.15,51
5.85,0.0,68
5.85,0.15,16
5.85,0.3,32
5.85,0.45,40
5.85,0.6,35
5.85,0.75,35
5.85,0.9,35
5.85,1.05,35
5.85,1.2,35
5.85,1.35,35
5.85,1.5,35
6.0,-1.5,74
6.0,-1.35,66
6.0,-1.2,49
6.0,-1.05,3
6.0,-0.9,75
6.0,-0.75,49
6.0,-0.6,49
6.0,-0.45,7
6.0,-0.3,72
6.0,-0.15,32
6.0,0.0,45
6.0,0.15,43
6.0,0.3,39
6.0,0.45,35
6.0,0.6,35
6.0,0.75,35
6.0,0.9,35
6.0,1.05,35
6.0,1.2,35
6.0,1.35,35
6.0,1.5,35
6.15,-1.5,85
6.15,-1.35,82
6.15,-1.2,68
6.15,-1.05,71
6.15,-0.9,187
6.15,-0.75,80
6.15,-0.6,54
6.15,-0.45,37
6.15,-0.3,77
6.15,-0.15,17
6.15,0.0,68
6.15,0.15,50
6.15,0.3,46
6.15,0.45,13
6.15,0.6,25
6.15,0.75,35
6.15,0.9,35
6.15,1.05,35
6.15,1.2,35
6.15,1.35,35
6.15,1.5,35
6.3,-1.5,85
6.3,-1.35,73
6.3,-1.2,89
6.3,-1.05,107
6.3,-0.9,172
6.3,-0.75,109
6.3,-0.6,78
6.3,-0.45,120
6.3,-0.3,17
6.3,-0.15,55
6.3,0.0,0
6.3,0.15,44
6.3,0.3,37
6.3,0.45,29
6.3,0.6,27
6.3,0.75,31
6.3,0.9,35
6.3,1.05,34
6.3,1.2,35
6.3,1.35,35
6.3,1.5,35
6.45,-1.5,85
6.45,-1.35,85
6.45,-1.2,96
6.45,-1.05,97
6.45,-0.9,108
6.45,-0.75,105
6.45,-0.6,121
6.45,-0.45,141
6.45,-0.3,42
6.45,-0.15,30
6.45,0.0,95
6.45,0.15,62
6.45,0.3,17
6.45,0.45,24
6.45,0.6,27
6.45,0.75,29
6.45,0.9,30
6.45,1.05,31
6.45,1.2,31
6.45,1.35,32
6.45,1.5,32
6.6,-1.5,83
6.6,-1.35,80
6.6,-1.2,72
6.6,-1.05,36
6.6,-0.9,15
6.6,-0.75,69
6.6,-0.6,44
6.6,-0.45,43
6.6,-0.3,35
6.6,-0.15,100
6.6,0.0,55
6.6,0.15,46
6.6,0.3,34
6.6,0.45,29
6.6,0.6,29
6.6,0.75,29
6.6,0.9,29
6.6,1.05,29
6.6,1.2,29
6.6,1.35,29
6.6,1.5,29
6.75,-1.5,100
6.75,-1.35,108
6.75,-1.2,89
6.75,-1.05,64
6.75,-0.9,69
6.75,-0.75,76
6.75,-0.6,192
6.75,-0.45,72
6.75,-0.3,33
6.75,-0.15,11
6.75,0.0,40
6.75,0.15,25
6.75,0.3,17
6.75,0.45,36
6.75,0.6,35
6.75,0.75,32
6.75,0.9,30
6.75,1.05,30
6.75,1.2,29
6.75,1.35,29
6.75,1.5,29
6.9,-1.5,83
6.9,-1.35,82
6.9,-1.2,82
6.9,-1.05,104
6.9,-0.9,109
6.9,-0.75,109
6.9,-0.6,94
6.9,-0.45,52
6.9,-0.3,29
6.9,-0.15,44
6.9,0.0,64
6.9,0.15,45
6.9,0.3,38
6.9,0.45,43
6.9,0.6,39
6.9,0.75,34
6.9,0.9,34
6.9,1.05,34
6.9,1.2,30
6.9,1.35,29
6.9,1.5,29
7.05,-1.5,79
7.05,-1.35,79
7.05,-1.2,81
7.05,-1.05,89
7.05,-0.9,109
7.05,-0.75,109
7.05,-0.6,72
7.05,-0.45,25
7.05,-0.3,27
7.05,-0.15,42
7.05,0.0,0
7.05,0.15,78
7.05,0.3,52
7.05,0.45,51
7.05,0.6,52
7.05,0.75,55
7.05,0.9,57
7.05,1.05,57
7.05,1.2,44
7.05,1.35,44
7.05,1.5,44
7.2,-1.5,79
7.2,-1.35,81
7.2,-1.2,97
7.2,-1.05,83
7.2,-0.9,101
7.2,-0.75,100
7.2,-0.6,53
7.2,-0.45,14
7.2,-0.3,101
7.2,-0.15,33
7.2,0.0,59
7.2,0.15,122
7.2,0.3,77
7.2,0.45,65
7.2,0.6,63
7.2,0.75,63
7.2,0.9,48
7.2,1.05,48
7.2,1.2,49
7.2,1.35,49
7.2,1.5,49
7.35,-1.5,75
7.35,-1.35,76
7.35,-1.2,73
7.35,-1.05,75
7.35,-0.9,75
7.35,-0.75,73
7.35,-0.6,36
7.35,-0.45,56
7.35,-0.3,0
7.35,-0.15,46
7.35,0.0,49
7.35,0.15,75
7.35,0.3,69
7.35,0.45,65
7.35,0.6,60
7.35,0.75,52
7.35,0.9,50
7.35,1.05,50
7.35,1.2,50
7.35,1.35,49
7.35,1.5,49
7.5,-1.5,47
7.5,-1.35,50
7.5,-1.2,48
7.5,-1.05,46
7.5,-0.9,40
7.5,-0.75,58
7.5,-0.6,59
7.5,-0.45,59
7.5,-0.3,36
7.5,-0.15,38
7.5,0.0,45
7.5,0.15,47
7.5,0.3,65
7.5,0.45,64
7.5,0.6,65
7.5,0.75,59
7.5,0.9,61
7.5,1.05,49
7.5,1.2,49
7.5,1.35,49
7.5,1.5,49
7.65,-1.5,29
7.65,-1.35,29
7.65,-1.2,28
7.65,-1.05,26
7.65,-0.9,18
7.65,-0.75,29
7.65,-0.6,3
7.65,-0.45,39
7.65,-0.3,17
7.65,-0.15,56
7.65,0.0,7
7.65,0.15,44
7.65,0.3,46
7.65,0.45,48
7.65,0.6,54
7.65,0.75,56
7.65,0.9,78
7.65,1.05,79
7.65,1.2,80
7.65,1.35,69
7.65,1.5,69
7.8,-1.5,18
7.8,-1.35,14
7.8,-1.2,14
7.8,-1.05,14
7.8,-0.9,19
7.8,-0.75,6
7.8,-0.6,45
7.8,-0.45,72
7.8,-0.3,37
7.8,-0.15,27
7.8,0.0,29
7.8,0.15,53
7.8,0.3,50
7.8,0.45,62
7.8,0.6,59
7.8,0.75,61
7.8,0.9,62
7.8,1.05,63
7.8,1.2,63
7.8,1.35,63
7.8,1.5,63
7.95,-1.5,14
7.95,-1.35,14
7.95,-1.2,10
7.95,-1.05,10
7.95,-0.9,14
7.95,-0.75,15
7.95,-0.6,23
7.95,-0.45,42
7.95,-0.3,92
7.95,-0.15,45
7.95,0.0,145
7.95,0.15,34
7.95,0.3,56
7.95,0.45,71
7.95,0.6,63
7.95,0.75,63
7.95,0.9,63
7.95,1.05,63
7.95,1.2,63
7.95,1.35,63
7.95,1.5,63
8.1,-1.5,30
8.1,-1.35,29
8.1,-1.2,7
8.1,-1.05,6
8.1,-0.9,5
8.1,-0.75,32
8.1,-0.6,43
8.1,-0.45,202
8.1,-0.3,110
8.1,-0.15,68
8.1,0.0,71
8.1,0.15,129
8.1,0.3,110
8.1,0.45,66
8.1,0.6,57
8.1,0.75,57
8.1,0.9,57
8.1,1.05,57
8.1,1.2,57
8.1,1.35,57
8.1,1.5,57
8.25,-1.5,40
8.25,-1.35,36
8.25,-1.2,36
8.25,-1.05,33
8.25,-0.9,27
8.25,-0.75,14
8.25,-0.6,14
8.25,-0.45,55
8.25,-0.3,31
8.25,-0.15,53
8.25,0.0,42
8.25,0.15,0
8.25,0.3,88
8.25,0.45,74
8.25,0.6,69
8.25,0.75,57
8.25,0.9,57
8.25,1.05,57
8.25,1.2,71
8.25,1.35,72
8.25,1.5,72
8.4,-1.5,44
8.4,-1.35,46
8.4,-1.2,50
8.4,-1.05,60
8.4,-0.9,68
8.4,-0.75,47
8.4,-0.6,39
8.4,-0.45,18
8.4,-0.3,50
8.4,-0.15,83
8.4,0.0,56
8.4,0.15,68
8.4,0.3,13
8.4,0.45,45
8.4,0.6,56
8.4,0.75,77
8.4,0.9,81
8.4,1.05,83
8.4,1.2,73
8.4,1.35,74
8.4,1.5,74
8.55,-1.5,46
8.55,-1.35,49
8.55,-1.2,58
8.55,-1.05,71
8.55,-0.9,126
8.55,-0.75,170
8.55,-0.6,125
8.55,-0.45,99
8.55,-0.3,66
8.55,-0.15,48
8.55,0.0,21
8.55,0.15,21
8.55,0.3,30
8.55,0.45,47
8.55,0.6,71
8.55,0.75,78
8.55,0.9,68
8.55,1.05,73
8.55,1.2,74
8.55,1.35,90
8.55,1.5,91
8.7,-1.5,72
8.7,-1.35,72
8.7,-1.2,61
8.7,-1.05,63
8.7,-0.9,61
8.7,-0.75,32
8.7,-0.6,32
8.7,-0.45,144
8.7,-0.3,28
8.7,-0.15,45
8.7,0.0,21
8.7,0.15,21
8.7,0.3,83
8.7,0.45,64
8.7,0.6,62
8.7,0.75,62
8.7,0.9,70
8.7,1.05,70
8.7,1.2,70
8.7,1.35,70
8.7,1.5,70
8.85,-1.5,72
8.85,-1.35,72
8.85,-1.2,72
8.85,-1.05,70
8.85,-0.9,48
8.85,-0.75,45
8.85,-0.6,51
8.85,-0.45,44
8.85,-0.3,51
8.85,-0.15,43
8.85,0.0,27
8.85,0.15,33
8.85,0.3,120
8.85,0.45,107
8.85,0.6,81
8.85,0.75,83
8.85,0.9,80
8.85,1.05,78
8.85,1.2,77
8.85,1.35,76
8.85,1.5,75
9.0,-1.5,71
9.0,-1.35,72
9.0,-1.2,72
9.0,-1.05,61
9.0,-0.9,74
9.0,-0.75,67
9.0,-0.6,66
9.0,-0.45,145
9.0,-0.3,61
9.0,-0.15,255
9.0,0.0,27
9.0,0.15,43
9.0,0.3,170
9.0,0.45,124
9.0,0.6,100
9.0,0.75,89
9.0,0.9,85
9.0,1.05,82
9.0,1.2,80
9.0,1.35,79
9.0,1.5,77
9.15,-1.5,72
9.15,-1.35,60
9.15,-1.2,65
9.15,-1.05,72
9.15,-0.9,97
9.15,-0.75,191
9.15,-0.6,72
9.15,-0.45,104
9.15,-0.3,62
9.15,-0.15,48
9.15,0.0,66
9.15,0.15,52
9.15,0.3,72
9.15,0.45,87
9.15,0.6,92
9.15,0.75,92
9.15,0.9,89
9.15,1.05,85
9.15,1.2,83
9.15,1.35,81
9.15,1.5,79
9.3,-1.5,67
9.3,-1.35,67
9.3,-1.2,57
9.3,-1.05,57
9.3,-0.9,59
9.3,-0.75,59
9.3,-0.6,46
9.3,-0.45,1
9.3,-0.3,29
9.3,-0.15,52
9.3,0.0,179
9.3,0.15,30
9.3,0.3,3
9.3,0.45,79
9.3,0.6,115
9.3,0.75,100
9.3,0.9,91
9.3,1.05,86
9.3,1.2,83
9.3,1.35,81
9.3,1.5,83
9.45,-1.5,54
9.45,-1.35,54
9.45,-1.2,52
9.45,-1.05,48
9.45,-0.9,33
9.45,-0.75,16
9.45,-0.6,46
9.45,-0.45,49
9.45,-0.3,33
9.45,-0.15,29
9.45,0.0,49
9.45,0.15,24
9.45,0.3,56
9.45,0.45,174
9.45,0.6,164
9.45,0.75,126
9.45,0.9,115
9.45,1.05,102
9.45,1.2,99
9.45,1.35,83
9.45,1.5,82
9.6,-1.5,54
9.6,-1.35,58
9.6,-1.2,56
9.6,-1.05,45
9.6,-0.9,46
9.6,-0.75,57
9.6,-0.6,39
9.6,-0.45,53
9.6,-0.3,121
9.6,-0.15,100
9.6,0.0,156
9.6,0.15,93
9.6,0.3,83
9.6,0.45,117
9.6,0.6,129
9.6,0.75,127
9.6,0.9,112
9.6,1.05,108
9.6,1.2,97
9.6,1.35,95
9.6,1.5,94
9.75,-1.5,60
9.75,-1.35,56
9.75,-1.2,54
9.75,-1.05,36
9.75,-0.9,47
9.75,-0.75,64
9.75,-0.6,78
9.75,-0.45,52
9.75,-0.3,90
9.75,-0.15,125
9.75,0.0,159
9.75,0.15,154
9.75,0.3,115
9.75,0.45,98
9.75,0.6,98
9.75,0.75,94
9.75,0.9,90
9.75,1.05,90
9.75,1.2,100
9.75,1.35,100
9.75,1.5,99
9.9,-1.5,63
9.9,-1.35,63
9.9,-1.2,63
9.9,-1.05,94
9.9,-0.9,75
9.9,-0.75,6
9.9,-0.6,49
9.9,-0.45,51
9.9,-0.3,103
9.9,-0.15,78
9.9,0.0,151
9.9,0.15,112
9.9,0.3,82
9.9,0.45,88
9.9,0.6,85
9.9,0.75,85
9.9,0.9,93
9.9,1.05,93
9.9,1.2,99
9.9,1.35,100
9.9,1.5,99
10.05,-1.5,88
10.05,-1.35,88
10.05,-1.2,95
10.05,-1.05,102
10.05,-0.9,102
10.05,-0.75,92
10.05,-0.6,213
10.05,-0.45,54
10.05,-0.3,13
10.05,-0.15,42
10.05,0.0,49
10.05,0.15,57
10.05,0.3,59
10.05,0.45,76
10.05,0.6,92
10.05,0.75,100
10.05,0.9,104
10.05,1.05,108
10.05,1.2,111
10.05,1.35,114
10.05,1.5,115
10.2,-1.5,94
10.2,-1.35,94
10.2,-1.2,96
10.2,-1.05,102
10.2,-0.9,110
10.2,-0.75,161
10.2,-0.6,100
10.2,-0.45,115
10.2,-0.3,65
10.2,-0.15,29
10.2,0.0,57
10.2,0.15,49
10.2,0.3,59
10.2,0.45,64
10.2,0.6,67
10.2,0.75,83
10.2,0.9,95
10.2,1.05,102
10.2,1.2,103
10.2,1.35,105
10.2,1.5,106
10.35,-1.5,81
10.35,-1.35,81
10.35,-1.2,81
10.35,-1.05,81
10.35,-0.9,79
10.35,-0.75,67
10.35,-0.6,51
10.35,-0.45,104
10.35,-0.3,192
10.35,-0.15,135
10.35,0.0,201
10.35,0.15,61
10.35,0.3,77
10.35,0.45,59
10.35,0.6,60
10.35,0.75,86
10.35,0.9,110
10.35,1.05,119
10.35,1.2,124
10.35,1.35,118
10.35,1.5,116
10.5,-1.5,81
10.5,-1.35,82
10.5,-1.2,82
10.5,-1.05,83
10.5,-0.9,85
10.5,-0.75,143
10.5,-0.6,50
10.5,-0.45,109
10.5,-0.3,235
10.5,-0.15,150
10.5,0.0,139
10.5,0.15,126
10.5,0.3,134
10.5,0.45,110
10.5,0.6,100
10.5,0.75,107
10.5,0.9,113
10.5,1.05,126
10.5,1.2,129
10.5,1.35,131
10.5,1.5,132
10.65,-1.5,103
10.65,-1.35,103
10.65,-1.2,103
10.65,-1.05,87
10.65,-0.9,94
10.65,-0.75,107
10.65,-0.6,87
10.65,-0.45,61
10.65,-0.3,98
10.65,-0.15,125
10.65,0.0,106
10.65,0.15,202
10.65,0.3,227
10.65,0.45,164
10.65,0.6,144
10.65,0.75,128
10.65,0.9,129
10.65,1.05,127
10.65,1.2,141
10.65,1.35,142
10.65,1.5,153
10.8,-1.5,102
10.8,-1.35,84
10.8,-1.2,85
10.8,-1.05,87
10.8,-0.9,88
10.8,-0.75,99
10.8,-0.6,155
10.8,-0.45,80
10.8,-0.3,85
10.8,-0.15,116
10.8,0.0,89
10.8,0.15,97
10.8,0.3,200
10.8,0.45,183
10.8,0.6,167
10.8,0.75,160
10.8,0.9,161
10.8,1.05,158
10.8,1.2,154
10.8,1.35,153
10.8,1.5,152
10.95,-1.5,82
10.95,-1.35,83
10.95,-1.2,76
10.95,-1.05,95
10.95,-0.9,99
10.95,-0.75,87
10.95,-0.6,19
10.95,-0.45,163
10.95,-0.3,182
10.95,-0.15,108
10.95,0.0,125
10.95,0.15,185
10.95,0.3,217
10.95,0.45,204
10.95,0.6,190
10.95,0.75,182
10.95,0.9,171
10.95,1.05,165
10.95,1.2,161
10.95,1.35,159
10.95,1.5,157
11.1,-1.5,67
11.1,-1.35,71
11.1,-1.2,70
11.1,-1.05,87
11.1,-0.9,82
11.1,-0.75,72
11.1,-0.6,55
11.1,-0.45,5
11.1,-0.3,63
11.1,-0.15,67
11.1,0.0,124
11.1,0.15,251
11.1,0.3,255
11.1,0.45,205
11.1,0.6,190
11.1,0.75,177
11.1,0.9,166
11.1,1.05,160
11.1,1.2,157
11.1,1.35,157
11.1,1.5,159
11.25,-1.5,65
11.25,-1.35,57
11.25,-1.2,55
11.25,-1.05,64
11.25,-0.9,59
11.25,-0.75,44
11.25,-0.6,46
11.25,-0.45,48
11.25,-0.3,60
11.25,-0.15,65
11.25,0.0,107
11.25,0.15,170
11.25,0.3,202
11.25,0.45,189
11.25,0.6,179
11.25,0.75,173
11.25,0.9,168
11.25,1.05,165
11.25,1.2,159
11.25,1.35,157
11.25,1.5,157
11.4,-1.5,41
11.4,-1.35,21
11.4,-1.2,33
11.4,-1.05,33
11.4,-0.9,36
11.4,-0.75,37
11.4,-0.6,25
11.4,-0.45,58
11.4,-0.3,82
11.4,-0.15,79
11.4,0.0,93
11.4,0.15,136
11.4,0.3,155
11.4,0.45,173
11.4,0.6,175
11.4,0.75,175
11.4,0.9,175
11.4,1.05,173
11.4,1.2,171
11.4,1.35,159
11.4,1.5,157
11.55,-1.5,60
11.55,-1.35,52
11.55,-1.2,50
11.55,-1.05,61
11.55,-0.9,52
11.55,-0.75,46
11.55,-0.6,32
11.55,-0.45,93
11.55,-0.3,166
11.55,-0.15,96
11.55,0.0,71
11.55,0.15,115
11.55,0.3,153
11.55,0.45,167
11.55,0.6,174
11.55,0.75,178
11.55,0.9,179
11.55,1.05,177
11.55,1.2,173
11.55,1.35,159
11.55,1.5,157
11.7,-1.5,79
11.7,-1.35,79
11.7,-1.2,77
11.7,-1.05,69
11.7,-0.9,57
11.7,-0.75,35
11.7,-0.6,51
11.7,-0.45,116
11.7,-0.3,54
11.7,-0.15,68
11.7,0.0,59
11.7,0.15,119
11.7,0.3,162
11.7,0.45,184
11.7,0.6,184
11.7,0.75,197
11.7,0.9,195
11.7,1.05,182
11.7,1.2,173
11.7,1.35,166
11.7,1.5,160
11.85,-1.5,79
11.85,-1.35,79
11.85,-1.2,77
11.85,-1.05,82
11.85,-0.9,75
11.85,-0.75,65
11.85,-0.6,72
11.85,-0.45,130
11.85,-0.3,128
11.85,-0.15,121
11.85,0.0,108
11.85,0.15,121
11.85,0.3,138
11.85,0.45,159
11.85,0.6,218
11.85,0.75,238
11.85,0.9,204
11.85,1.05,182
11.85,1.2,169
11.85,1.35,163
11.85,1.5,154
12.0,-1.5,83
12.0,-1.35,85
12.0,-1.2,106
12.0,-1.05,108
12.0,-0.9,111
12.0,-0.75,116
12.0,-0.6,67
12.0,-0.45,85
12.0,-0.3,189
12.0,-0.15,128
12.0,0.0,103
12.0,0.15,104
12.0,0.3,78
12.0,0.45,57
12.0,0.6,251
12.0,0.75,255
12.0,0.9,206
12.0,1.05,180
12.0,1.2,164
12.0,1.35,153
12.0,1.5,144
12.15,-1.5,89
12.15,-1.35,94
12.15,-1.2,106
12.15,-1.05,116
12.15,-0.9,148
12.15,-0.75,196
12.15,-0.6,174
12.15,-0.45,151
12.15,-0.3,128
12.15,-0.15,115
12.15,0.0,97
12.15,0.15,94
12.15,0.3,96
12.15,0.45,113
12.15,0.6,172
12.15,0.75,194
12.15,0.9,181
12.15,1.05,169
12.15,1.2,155
12.15,1.35,143
12.15,1.5,133
12.3,-1.5,90
12.3,-1.35,92
12.3,-1.2,100
12.3,-1.05,128
12.3,-0.9,140
12.3,-0.75,166
12.3,-0.6,137
12.3,-0.45,184
12.3,-0.3,93
12.3,-0.15,85
12.3,0.0,86
12.3,0.15,116
12.3,0.3,111
12.3,0.45,125
12.3,0.6,147
12.3,0.75,160
12.3,0.9,157
12.3,1.05,138
12.3,1.2,134
12.3,1.35,121
12.3,1.5,117
12.45,-1.5,83
12.45,-1.35,89
12.45,-1.2,94
12.45,-1.05,101
12.45,-0.9,102
12.45,-0.75,95
12.45,-0.6,85
12.45,-0.45,89
12.45,-0.3,81
12.45,-0.15,0
12.45,0.0,76
12.45,0.15,114
12.45,0.3,129
12.45,0.45,140
12.45,0.6,149
12.45,0.75,140
12.45,0.9,138
12.45,1.05,133
12.45,1.2,119
12.45,1.35,103
12.45,1.5,97
12.6,-1.5,57
12.6,-1.35,64
12.6,-1.2,72
12.6,-1.05,75
12.6,-0.9,69
12.6,-0.75,97
12.6,-0.6,85
12.6,-0.45,67
12.6,-0.3,161
12.6,-0.15,95
12.6,0.0,112
12.6,0.15,129
12.6,0.3,142
12.6,0.45,149
12.6,0.6,150
12.6,0.75,157
12.6,0.9,138
12.6,1.05,115
12.6,1.2,96
12.6,1.35,75
12.6,1.5,62
12.75,-1.5,27
12.75,-1.35,38
12.75,-1.2,58
12.75,-1.05,55
12.75,-0.9,6
12.75,-0.75,159
12.75,-0.6,95
12.75,-0.45,166
12.75,-0.3,221
12.75,-0.15,161
12.75,0.0,135
12.75,0.15,123
12.75,0.3,134
12.75,0.45,150
12.75,0.6,150
12.75,0.75,144
12.75,0.9,132
12.75,1.05,110
12.75,1.2,79
12.75,1.35,47
12.75,1.5,30
12.9,-1.5,3
12.9,-1.35,25
12.9,-1.2,53
12.9,-1.05,64
12.9,-0.9,81
12.9,-0.75,87
12.9,-0.6,28
12.9,-0.45,49
12.9,-0.3,255
12.9,-0.15,179
12.9,0.0,150
12.9,0.15,136
12.9,0.3,129
12.9,0.45,140
12.9,0.6,148
12.9,0.75,138
12.9,0.9,124
12.9,1.05,96
12.9,1.2,56
12.9,1.35,17
12.9,1.5,0
13.05,-1.5,0
13.05,-1.35,19
13.05,-1.2,52
13.05,-1.05,77
13.05,-0.9,82
13.05,-0.75,83
13.05,-0.6,76
13.05,-0.45,86
13.05,-0.3,177
13.05,-0.15,170
13.05,0.0,150
13.05,0.15,139
13.05,0.3,132
13.05,0.45,129
13.05,0.6,131
13.05,0.75,135
13.05,0.9,117
13.05,1.05,87
13.05,1.2,48
13.05,1.35,10
13.05,1.5,0
