-3.0,-1.5,0
-3.0,-1.35,20
-3.0,-1.2,89
-3.0,-1.05,162
-3.0,-0.9,192
-3.0,-0.75,177
-3.0,-0.6,144
-3.0,-0.45,114
-3.0,-0.3,91
-3.0,-0.15,77
-3.0,0.0,68
-3.0,0.15,63
-3.0,0.3,63
-3.0,0.45,63
-3.0,0.6,63
-3.0,0.75,60
-3.0,0.9,52
-3.0,1.05,39
-3.0,1.2,21
-3.0,1.35,5
-3.0,1.5,0
-2.85,-1.5,14
-2.85,-1.35,41
-2.85,-1.2,113
-2.85,-1.05,191
-2.85,-0.9,223
-2.85,-0.75,197
-2.85,-0.6,151
-2.85,-0.45,113
-2.85,-0.3,89
-2.85,-0.15,73
-2.85,0.0,64
-2.85,0.15,60
-2.85,0.3,62
-2.85,0.45,62
-2.85,0.6,62
-2.85,0.75,60
-2.85,0.9,55
-2.85,1.05,43
-2.85,1.2,27
-2.85,1.35,11
-2.85,1.5,4
-2.7,-1.5,43
-2.7,-1.35,70
-2.7,-1.2,121
-2.7,-1.05,177
-2.7,-0.9,202
-2.7,-0.75,180
-2.7,-0.6,138
-2.7,-0.45,105
-2.7,-0.3,83
-2.7,-0.15,70
-2.7,0.0,61
-2.7,0.15,60
-2.7,0.3,57
-2.7,0.45,58
-2.7,0.6,61
-2.7,0.75,61
-2.7,0.9,58
-2.7,1.05,50
-2.7,1.2,38
-2.7,1.35,26
-2.7,1.5,19
-2.55,-1.5,63
-2.55,-1.35,82
-2.55,-1.2,112
-2.55,-1.05,140
-2.55,-0.9,154
-2.55,-0.75,140
-2.55,-0.6,115
-2.55,-0.45,92
-2.55,-0.3,77
-2.55,-0.15,67
-2.55,0.0,64
-2.55,0.15,57
-2.55,0.3,57
-2.55,0.45,57
-2.55,0.6,61
-2.55,0.75,63
-2.55,0.9,62
-2.55,1.05,58
-2.55,1.2,50
-2.55,1.35,38
-2.55,1.5,33
-2.4,-1.5,76
-2.4,-1.35,82
-2.4,-1.2,97
-2.4,-1.05,109
-2.4,-0.9,115
-2.4,-0.75,107
-2.4,-0.6,94
-2.4,-0.45,81
-2.4,-0.3,72
-2.4,-0.15,70
-2.4,0.0,63
-2.4,0.15,57
-2.4,0.3,57
-2.4,0.45,59
-2.4,0.6,63
-2.4,0.75,66
-2.4,0.9,66
-2.4,1.05,64
-2.4,1.2,56
-2.4,1.35,51
-2.4,1.5,47
-2.25,-1.5,77
-2.25,-1.35,84
-2.25,-1.2,91
-2.25,-1.05,88
-2.25,-0.9,89
-2.25,-0.75,87
-2.25,-0.6,81
-2.25,-0.45,75
-2.25,-0.3,77
-2.25,-0.15,68
-2.25,0.0,59
-2.25,0.15,57
-2.25,0.3,60
-2.25,0.45,63
-2.25,0.6,64
-2.25,0.75,66
-2.25,0.9,72
-2.25,1.05,66
-2.25,1.2,64
-2.25,1.35,61
-2.25,1.5,66
-2.1,-1.5,75
-2.1,-1.35,79
-2.1,-1.2,82
-2.1,-1.05,83
-2.1,-0.9,83
-2.1,-0.75,75
-2.1,-0.6,81
-2.1,-0.45,81
-2.1,-0.3,80
-2.1,-0.15,69
-2.1,0.0,39
-2.1,0.15,44
-2.1,0.3,62
-2.1,0.45,66
-2.1,0.6,70
-2.1,0.75,77
-2.1,0.9,79
-2.1,1.05,73
-2.1,1.2,71
-2.1,1.35,78
-2.1,1.5,76
-1.95,-1.5,72
-1.95,-1.35,73
-1.95,-1.2,75
-1.95,-1.05,75
-1.95,-0.9,74
-1.95,-0.75,75
-1.95,-0.6,76
-1.95,-0.45,78
-1.95,-0.3,90
-1.95,-0.15,97
-1.95,0.0,31
-1.95,0.15,56
-1.95,0.3,71
-1.95,0.45,78
-1.95,0.6,82
-1.95,0.75,85
-1.95,0.9,81
-1.95,1.05,89
-1.95,1.2,88
-1.95,1.35,86
-1.95,1.5,76
-1.8,-1.5,68
-1.8,-1.35,69
-1.8,-1.2,69
-1.8,-1.05,69
-1.8,-0.9,69
-1.8,-0.75,67
-1.8,-0.6,69
-1.8,-0.45,77
-1.8,-0.3,90
-1.8,-0.15,101
-1.8,0.0,89
-1.8,0.15,96
-1.8,0.3,85
-1.8,0.45,89
-1.8,0.6,94
-1.8,0.75,98
-1.8,0.9,99
-1.8,1.05,98
-1.8,1.2,96
-1.8,1.35,85
-1.8,1.5,91
-1.65,-1.5,64
-1.65,-1.35,64
-1.65,-1.2,65
-1.65,-1.05,66
-1.65,-0.9,63
-1.65,-0.75,59
-1.65,-0.6,60
-1.65,-0.45,64
-1.65,-0.3,74
-1.65,-0.15,85
-1.65,0.0,86
-1.65,0.15,91
-1.65,0.3,96
-1.65,0.45,105
-1.65,0.6,110
-1.65,0.75,112
-1.65,0.9,111
-1.65,1.05,108
-1.65,1.2,104
-1.65,1.35,101
-1.65,1.5,97
-1.5,-1.5,60
-1.5,-1.35,60
-1.5,-1.2,63
-1.5,-1.05,63
-1.5,-0.9,61
-1.5,-0.75,54
-1.5,-0.6,44
-1.5,-0.45,44
-1.5,-0.3,62
-1.5,-0.15,76
-1.5,0.0,87
-1.5,0.15,95
-1.5,0.3,114
-1.5,0.45,132
-1.5,0.6,135
-1.5,0.75,132
-1.5,0.9,125
-1.5,1.05,119
-1.5,1.2,115
-1.5,1.35,107
-1.5,1.5,120
-1.35,-1.5,60
-1.35,-1.35,65
-1.35,-1.2,69
-1.35,-1.05,74
-1.35,-0.9,63
-1.35,-0.75,55
-1.35,-0.6,32
-1.35,-0.45,7
-1.35,-0.3,54
-1.35,-0.15,68
-1.35,0.0,81
-1.35,0.15,79
-1.35,0.3,141
-1.35,0.45,182
-1.35,0.6,168
-1.35,0.75,160
-1.35,0.9,147
-1.35,1.05,139
-1.35,1.2,133
-1.35,1.35,136
-1.35,1.5,130
-1.2,-1.5,48
-1.2,-1.35,47
-1.2,-1.2,58
-1.2,-1.05,74
-1.2,-0.9,78
-1.2,-0.75,66
-1.2,-0.6,55
-1.2,-0.45,51
-1.2,-0.3,56
-1.2,-0.15,61
-1.2,0.0,83
-1.2,0.15,68
-1.2,0.3,246
-1.2,0.45,255
-1.2,0.6,210
-1.2,0.75,172
-1.2,0.9,157
-1.2,1.05,147
-1.2,1.2,142
-1.2,1.35,138
-1.2,1.5,136
-1.05,-1.5,33
-1.05,-1.35,20
-1.05,-1.2,39
-1.05,-1.05,75
-1.05,-0.9,101
-1.05,-0.75,108
-1.05,-0.6,92
-1.05,-0.45,82
-1.05,-0.3,74
-1.05,-0.15,82
-1.05,0.0,108
-1.05,0.15,142
-1.05,0.3,255
-1.05,0.45,255
-1.05,0.6,209
-1.05,0.75,174
-1.05,0.9,157
-1.05,1.05,148
-1.05,1.2,141
-1.05,1.35,138
-1.05,1.5,136
-0.9,-1.5,22
-0.9,-1.35,0
-0.9,-1.2,21
-0.9,-1.05,81
-0.9,-0.9,130
-0.9,-0.75,192
-0.9,-0.6,171
-0.9,-0.45,103
-0.9,-0.3,95
-0.9,-0.15,118
-0.9,0.0,139
-0.9,0.15,160
-0.9,0.3,184
-0.9,0.45,188
-0.9,0.6,169
-0.9,0.75,153
-0.9,0.9,144
-0.9,1.05,139
-0.9,1.2,140
-0.9,1.35,139
-0.9,1.5,138
-0.75,-1.5,33
-0.75,-1.35,22
-0.75,-1.2,45
-0.75,-1.05,91
-0.75,-0.9,132
-0.75,-0.75,166
-0.75,-0.6,110
-0.75,-0.45,77
-0.75,-0.3,111
-0.75,-0.15,149
-0.75,0.0,194
-0.75,0.15,168
-0.75,0.3,157
-0.75,0.45,141
-0.75,0.6,133
-0.75,0.75,129
-0.75,0.9,129
-0.75,1.05,131
-0.75,1.2,132
-0.75,1.35,133
-0.75,1.5,133
-0.6,-1.5,56
-0.6,-1.35,56
-0.6,-1.2,72
-0.6,-1.05,97
-0.6,-0.9,124
-0.6,-0.75,130
-0.6,-0.6,104
-0.6,-0.45,104
-0.6,-0.3,142
-0.6,-0.15,152
-0.6,0.0,185
-0.6,0.15,142
-0.6,0.3,135
-0.6,0.45,116
-0.6,0.6,99
-0.6,0.75,105
-0.6,0.9,117
-0.6,1.05,124
-0.6,1.2,128
-0.6,1.35,133
-0.6,1.5,133
-0.45,-1.5,74
-0.45,-1.35,78
-0.45,-1.2,89
-0.45,-1.05,104
-0.45,-0.9,125
-0.45,-0.75,132
-0.45,-0.6,136
-0.45,-0.45,164
-0.45,-0.3,230
-0.45,-0.15,140
-0.45,0.0,60
-0.45,0.15,60
-0.45,0.3,135
-0.45,0.45,114
-0.45,0.6,56
-0.45,0.75,89
-0.45,0.9,110
-0.45,1.05,127
-0.45,1.2,130
-0.45,1.35,133
-0.45,1.5,133
-0.3,-1.5,85
-0.3,-1.35,92
-0.3,-1.2,99
-0.3,-1.05,108
-0.3,-0.9,118
-0.3,-0.75,124
-0.3,-0.6,145
-0.3,-0.45,173
-0.3,-0.3,247
-0.3,-0.15,56
-0.3,0.0,63
-0.3,0.15,101
-0.3,0.3,234
-0.3,0.45,124
-0.3,0.6,80
-0.3,0.75,100
-0.3,0.9,117
-0.3,1.05,125
-0.3,1.2,129
-0.3,1.35,131
-0.3,1.5,132
-0.15,-1.5,89
-0.15,-1.35,96
-0.15,-1.2,101
-0.15,-1.05,106
-0.15,-0.9,113
-0.15,-0.75,121
-0.15,-0.6,138
-0.15,-0.45,157
-0.15,-0.3,175
-0.15,-0.15,66
-0.15,0.0,82
-0.15,0.15,127
-0.15,0.3,239
-0.15,0.45,206
-0.15,0.6,133
-0.15,0.75,124
-0.15,0.9,122
-0.15,1.05,129
-0.15,1.2,132
-0.15,1.35,132
-0.15,1.5,132
0.0,-1.5,106
0.0,-1.35,108
0.0,-1.2,114
0.0,-1.05,115
0.0,-0.9,118
0.0,-0.75,109
0.0,-0.6,112
0.0,-0.45,140
0.0,-0.3,157
0.0,-0.15,112
0.0,0.0,69
0.0,0.15,117
0.0,0.3,174
0.0,0.45,195
0.0,0.6,160
0.0,0.75,139
0.0,0.9,130
0.0,1.05,126
0.0,1.2,126
0.0,1.35,126
0.0,1.5,132
0.15,-1.5,122
0.15,-1.35,122
0.15,-1.2,112
0.15,-1.05,112
0.15,-0.9,96
0.15,-0.75,99
0.15,-0.6,107
0.15,-0.45,107
0.15,-0.3,68
0.15,-0.15,104
0.15,0.0,130
0.15,0.15,142
0.15,0.3,150
0.15,0.45,155
0.15,0.6,148
0.15,0.75,138
0.15,0.9,132
0.15,1.05,128
0.15,1.2,126
0.15,1.35,132
0.15,1.5,132
0.3,-1.5,105
0.3,-1.35,120
0.3,-1.2,119
0.3,-1.05,113
0.3,-0.9,101
0.3,-0.75,81
0.3,-0.6,81
0.3,-0.45,102
0.3,-0.3,118
0.3,-0.15,129
0.3,0.0,175
0.3,0.15,113
0.3,0.3,154
0.3,0.45,133
0.3,0.6,129
0.3,0.75,129
0.3,0.9,128
0.3,1.05,132
0.3,1.2,132
0.3,1.35,132
0.3,1.5,132
0.45,-1.5,105
0.45,-1.35,106
0.45,-1.2,101
0.45,-1.05,98
0.45,-0.9,92
0.45,-0.75,81
0.45,-0.6,84
0.45,-0.45,122
0.45,-0.3,135
0.45,-0.15,150
0.45,0.0,222
0.45,0.15,254
0.45,0.3,111
0.45,0.45,71
0.45,0.6,107
0.45,0.75,124
0.45,0.9,131
0.45,1.05,132
0.45,1.2,132
0.45,1.35,132
0.45,1.5,132
0.6,-1.5,106
0.6,-1.35,104
0.6,-1.2,101
0.6,-1.05,94
0.6,-0.9,81
0.6,-0.75,81
0.6,-0.6,121
0.6,-0.45,133
0.6,-0.3,139
0.6,-0.15,138
0.6,0.0,158
0.6,0.15,147
0.6,0.3,48
0.6,0.45,36
0.6,0.6,92
0.6,0.75,116
0.6,0.9,127
0.6,1.05,132
0.6,1.2,132
0.6,1.35,132
0.6,1.5,132
0.75,-1.5,105
0.75,-1.35,102
0.75,-1.2,96
0.75,-1.05,92
0.75,-0.9,82
0.75,-0.75,81
0.75,-0.6,167
0.75,-0.45,91
0.75,-0.3,127
0.75,-0.15,92
0.75,0.0,102
0.75,0.15,108
0.75,0.3,95
0.75,0.45,90
0.75,0.6,106
0.75,0.75,111
0.75,0.9,117
0.75,1.05,120
0.75,1.2,121
0.75,1.35,117
0.75,1.5,130
0.9,-1.5,103
0.9,-1.35,99
0.9,-1.2,91
0.9,-1.05,81
0.9,-0.9,77
0.9,-0.75,129
0.9,-0.6,232
0.9,-0.45,230
0.9,-0.3,223
0.9,-0.15,102
0.9,0.0,64
0.9,0.15,99
0.9,0.3,108
0.9,0.45,109
0.9,0.6,113
0.9,0.75,116
0.9,0.9,118
0.9,1.05,117
0.9,1.2,117
0.9,1.35,117
0.9,1.5,117
1.05,-1.5,101
1.05,-1.35,96
1.05,-1.2,87
1.05,-1.05,63
1.05,-0.9,4
1.05,-0.75,93
1.05,-0.6,252
1.05,-0.45,255
1.05,-0.3,145
1.05,-0.15,110
1.05,0.0,99
1.05,0.15,95
1.05,0.3,102
1.05,0.45,111
1.05,0.6,118
1.05,0.75,114
1.05,0.9,110
1.05,1.05,107
1.05,1.2,105
1.05,1.35,100
1.05,1.5,100
1.2,-1.5,88
1.2,-1.35,84
1.2,-1.2,84
1.2,-1.05,70
1.2,-0.9,52
1.2,-0.75,88
1.2,-0.6,142
1.2,-0.45,113
1.2,-0.3,22
1.2,-0.15,72
1.2,0.0,132
1.2,0.15,114
1.2,0.3,71
1.2,0.45,135
1.2,0.6,125
1.2,0.75,100
1.2,0.9,85
1.2,1.05,77
1.2,1.2,72
1.2,1.35,68
1.2,1.5,66
1.35,-1.5,87
1.35,-1.35,84
1.35,-1.2,77
1.35,-1.05,69
1.35,-0.9,62
1.35,-0.75,50
1.35,-0.6,107
1.35,-0.45,92
1.35,-0.3,47
1.35,-0.15,51
1.35,0.0,164
1.35,0.15,92
1.35,0.3,95
1.35,0.45,204
1.35,0.6,133
1.35,0.75,96
1.35,0.9,80
1.35,1.05,74
1.35,1.2,69
1.35,1.35,66
1.35,1.5,64
1.5,-1.5,83
1.5,-1.35,80
1.5,-1.2,76
1.5,-1.05,67
1.5,-0.9,56
1.5,-0.75,25
1.5,-0.6,107
1.5,-0.45,128
1.5,-0.3,27
1.5,-0.15,37
1.5,0.0,54
1.5,0.15,61
1.5,0.3,70
1.5,0.45,87
1.5,0.6,94
1.5,0.75,85
1.5,0.9,82
1.5,1.05,79
1.5,1.2,78
1.5,1.35,64
1.5,1.5,62
1.65,-1.5,79
1.65,-1.35,65
1.65,-1.2,61
1.65,-1.05,59
1.65,-0.9,56
1.65,-0.75,55
1.65,-0.6,65
1.65,-0.45,56
1.65,-0.3,20
1.65,-0.15,30
1.65,0.0,17
1.65,0.15,41
1.65,0.3,5
1.65,0.45,37
1.65,0.6,61
1.65,0.75,67
1.65,0.9,70
1.65,1.05,71
1.65,1.2,72
1.65,1.35,73
1.65,1.5,73
1.8,-1.5,81
1.8,-1.35,79
1.8,-1.2,63
1.8,-1.05,60
1.8,-0.9,58
1.8,-0.75,60
1.8,-0.6,55
1.8,-0.45,48
1.8,-0.3,46
1.8,-0.15,44
1.8,0.0,40
1.8,0.15,53
1.8,0.3,34
1.8,0.45,25
1.8,0.6,35
1.8,0.75,44
1.8,0.9,53
1.8,1.05,56
1.8,1.2,58
1.8,1.35,60
1.8,1.5,61
1.95,-1.5,90
1.95,-1.35,88
1.95,-1.2,68
1.95,-1.05,70
1.95,-0.9,67
1.95,-0.75,62
1.95,-0.6,56
1.95,-0.45,53
1.95,-0.3,43
1.95,-0.15,62
1.95,0.0,185
1.95,0.15,83
1.95,0.3,34
1.95,0.45,1
1.95,0.6,26
1.95,0.75,39
1.95,0.9,47
1.95,1.05,55
1.95,1.2,59
1.95,1.35,57
1.95,1.5,47
2.1,-1.5,111
2.1,-1.35,94
2.1,-1.2,93
2.1,-1.05,71
2.1,-0.9,63
2.1,-0.75,59
2.1,-0.6,56
2.1,-0.45,51
2.1,-0.3,31
2.1,-0.15,44
2.1,0.0,83
2.1,0.15,72
2.1,0.3,37
2.1,0.45,4
2.1,0.6,24
2.1,0.75,32
2.1,0.9,45
2.1,1.05,47
2.1,1.2,49
2.1,1.35,51
2.1,1.5,41
2.25,-1.5,118
2.25,-1.35,118
2.25,-1.2,117
2.25,-1.05,115
2.25,-0.9,109
2.25,-0.75,80
2.25,-0.6,77
2.25,-0.45,56
2.25,-0.3,31
2.25,-0.15,33
2.25,0.0,54
2.25,0.15,54
2.25,0.3,49
2.25,0.45,33
2.25,0.6,31
2.25,0.75,30
2.25,0.9,23
2.25,1.05,23
2.25,1.2,23
2.25,1.35,34
2.25,1.5,39
2.4,-1.5,123
2.4,-1.35,124
2.4,-1.2,123
2.4,-1.05,122
2.4,-0.9,119
2.4,-0.75,120
2.4,-0.6,142
2.4,-0.45,80
2.4,-0.3,34
2.4,-0.15,31
2.4,0.0,52
2.4,0.15,54
2.4,0.3,44
2.4,0.45,33
2.4,0.6,25
2.4,0.75,24
2.4,0.9,23
2.4,1.05,23
2.4,1.2,23
2.4,1.35,23
2.4,1.5,23
2.55,-1.5,137
2.55,-1.35,141
2.55,-1.2,141
2.55,-1.05,137
2.55,-0.9,120
2.55,-0.75,111
2.55,-0.6,125
2.55,-0.45,90
2.55,-0.3,45
2.55,-0.15,18
2.55,0.0,36
2.55,0.15,36
2.55,0.3,41
2.55,0.45,34
2.55,0.6,31
2.55,0.75,23
2.55,0.9,23
2.55,1.05,23
2.55,1.2,23
2.55,1.35,23
2.55,1.5,23
2.7,-1.5,144
2.7,-1.35,146
2.7,-1.2,148
2.7,-1.05,149
2.7,-0.9,133
2.7,-0.75,85
2.7,-0.6,177
2.7,-0.45,153
2.7,-0.3,205
2.7,-0.15,71
2.7,0.0,98
2.7,0.15,50
2.7,0.3,36
2.7,0.45,37
2.7,0.6,26
2.7,0.75,20
2.7,0.9,21
2.7,1.05,22
2.7,1.2,23
2.7,1.35,23
2.7,1.5,22
2.85,-1.5,150
2.85,-1.35,150
2.85,-1.2,153
2.85,-1.05,160
2.85,-0.9,183
2.85,-0.75,255
2.85,-0.6,171
2.85,-0.45,163
2.85,-0.3,10
2.85,-0.15,39
2.85,0.0,59
2.85,0.15,42
2.85,0.3,5
2.85,0.45,18
2.85,0.6,16
2.85,0.75,22
2.85,0.9,23
2.85,1.05,23
2.85,1.2,22
2.85,1.35,22
2.85,1.5,22
3.0,-1.5,135
3.0,-1.35,135
3.0,-1.2,136
3.0,-1.05,141
3.0,-0.9,144
3.0,-0.75,106
3.0,-0.6,126
3.0,-0.45,113
3.0,-0.3,61
3.0,-0.15,37
3.0,0.0,13
3.0,0.15,45
3.0,0.3,30
3.0,0.45,17
3.0,0.6,3
3.0,0.75,20
3.0,0.9,23
3.0,1.05,22
3.0,1.2,22
3.0,1.35,22
3.0,1.5,22
3.15,-1.5,143
3.15,-1.35,141
3.15,-1.2,135
3.15,-1.05,125
3.15,-0.9,116
3.15,-0.75,94
3.15,-0.6,98
3.15,-0.45,99
3.15,-0.3,96
3.15,-0.15,92
3.15,0.0,136
3.15,0.15,54
3.15,0.3,42
3.15,0.45,40
3.15,0.6,23
3.15,0.75,21
3.15,0.9,22
3.15,1.05,21
3.15,1.2,21
3.15,1.35,21
3.15,1.5,21
3.3,-1.5,142
3.3,-1.35,151
3.3,-1.2,148
3.3,-1.05,144
3.3,-0.9,108
3.3,-0.75,42
3.3,-0.6,59
3.3,-0.45,75
3.3,-0.3,190
3.3,-0.15,98
3.3,0.0,60
3.3,0.15,55
3.3,0.3,27
3.3,0.45,38
3.3,0.6,30
3.3,0.75,26
3.3,0.9,21
3.3,1.05,21
3.3,1.2,21
3.3,1.35,21
3.3,1.5,26
3.45,-1.5,167
3.45,-1.35,167
3.45,-1.2,157
3.45,-1.05,164
3.45,-0.9,151
3.45,-0.75,120
3.45,-0.6,118
3.45,-0.45,211
3.45,-0.3,158
3.45,-0.15,37
3.45,0.0,200
3.45,0.15,97
3.45,0.3,67
3.45,0.45,55
3.45,0.6,42
3.45,0.75,34
3.45,0.9,31
3.45,1.05,28
3.45,1.2,29
3.45,1.35,24
3.45,1.5,32
3.6,-1.5,179
3.6,-1.35,179
3.6,-1.2,181
3.6,-1.05,190
3.6,-0.9,214
3.6,-0.75,220
3.6,-0.6,229
3.6,-0.45,230
3.6,-0.3,98
3.6,-0.15,50
3.6,0.0,110
3.6,0.15,103
3.6,0.3,93
3.6,0.45,45
3.6,0.6,35
3.6,0.75,24
3.6,0.9,17
3.6,1.05,20
3.6,1.2,22
3.6,1.35,32
3.6,1.5,32
3.75,-1.5,170
3.75,-1.35,173
3.75,-1.2,179
3.75,-1.05,192
3.75,-0.9,220
3.75,-0.75,255
3.75,-0.6,255
3.75,-0.45,246
3.75,-0.3,190
3.75,-0.15,12
3.75,0.0,98
3.75,0.15,82
3.75,0.3,103
3.75,0.45,7
3.75,0.6,32
3.75,0.75,3
3.75,0.9,10
3.75,1.05,19
3.75,1.2,24
3.75,1.35,30
3.75,1.5,32
3.9,-1.5,189
3.9,-1.35,189
3.9,-1.2,192
3.9,-1.05,190
3.9,-0.9,201
3.9,-0.75,225
3.9,-0.6,226
3.9,-0.45,216
3.9,-0.3,153
3.9,-0.15,66
3.9,0.0,54
3.9,0.15,90
3.9,0.3,220
3.9,0.45,90
3.9,0.6,42
3.9,0.75,16
3.9,0.9,1
3.9,1.05,13
3.9,1.2,28
3.9,1.35,38
3.9,1.5,41
4.05,-1.5,169
4.05,-1.35,161
4.05,-1.2,140
4.05,-1.05,123
4.05,-0.9,92
4.05,-0.75,141
4.05,-0.6,137
4.05,-0.45,218
4.05,-0.3,87
4.05,-0.15,125
4.05,0.0,64
4.05,0.15,141
4.05,0.3,120
4.05,0.45,69
4.05,0.6,38
4.05,0.75,27
4.05,0.9,12
4.05,1.05,23
4.05,1.2,37
4.05,1.35,47
4.05,1.5,53
4.2,-1.5,160
4.2,-1.35,139
4.2,-1.2,113
4.2,-1.05,91
4.2,-0.9,66
4.2,-0.75,82
4.2,-0.6,78
4.2,-0.45,65
4.2,-0.3,91
4.2,-0.15,247
4.2,0.0,152
4.2,0.15,72
4.2,0.3,48
4.2,0.45,12
4.2,0.6,24
4.2,0.75,32
4.2,0.9,30
4.2,1.05,40
4.2,1.2,49
4.2,1.35,55
4.2,1.5,59
4.35,-1.5,108
4.35,-1.35,106
4.35,-1.2,76
4.35,-1.05,74
4.35,-0.9,65
4.35,-0.75,47
4.35,-0.6,38
4.35,-0.45,60
4.35,-0.3,103
4.35,-0.15,78
4.35,0.0,78
4.35,0.15,24
4.35,0.3,2
4.35,0.45,13
4.35,0.6,26
4.35,0.75,24
4.35,0.9,24
4.35,1.05,53
4.35,1.2,59
4.35,1.35,58
4.35,1.5,67
4.5,-1.5,85
4.5,-1.35,86
4.5,-1.2,88
4.5,-1.05,92
4.5,-0.9,109
4.5,-0.75,115
4.5,-0.6,64
4.5,-0.45,60
4.5,-0.3,147
4.5,-0.15,55
4.5,0.0,14
4.5,0.15,0
4.5,0.3,9
4.5,0.45,28
4.5,0.6,60
4.5,0.75,93
4.5,0.9,119
4.5,1.05,97
4.5,1.2,81
4.5,1.35,72
4.5,1.5,67
4.65,-1.5,85
4.65,-1.35,89
4.65,-1.2,90
4.65,-1.05,97
4.65,-0.9,112
4.65,-0.75,128
4.65,-0.6,188
4.65,-0.45,131
4.65,-0.3,214
4.65,-0.15,34
4.65,0.0,98
4.65,0.15,56
4.65,0.3,52
4.65,0.45,157
4.65,0.6,123
4.65,0.75,165
4.65,0.9,203
4.65,1.05,132
4.65,1.2,97
4.65,1.35,82
4.65,1.5,73
4.8,-1.5,84
4.8,-1.35,84
4.8,-1.2,109
4.8,-1.05,111
4.8,-0.9,116
4.8,-0.75,126
4.8,-0.6,138
4.8,-0.45,59
4.8,-0.3,39
4.8,-0.15,4
4.8,0.0,78
4.8,0.15,108
4.8,0.3,52
4.8,0.45,162
4.8,0.6,146
4.8,0.75,133
4.8,0.9,142
4.8,1.05,120
4.8,1.2,98
4.8,1.35,84
4.8,1.5,75
4.95,-1.5,72
4.95,-1.35,75
4.95,-1.2,78
4.95,-1.05,99
4.95,-0.9,82
4.95,-0.75,73
4.95,-0.6,65
4.95,-0.45,152
4.95,-0.3,51
4.95,-0.15,27
4.95,0.0,1
4.95,0.15,94
4.95,0.3,111
4.95,0.45,120
4.95,0.6,123
4.95,0.75,110
4.95,0.9,108
4.95,1.05,101
4.95,1.2,89
4.95,1.35,80
4.95,1.5,75
5.1,-1.5,52
5.1,-1.35,48
5.1,-1.2,51
5.1,-1.05,51
5.1,-0.9,63
5.1,-0.75,59
5.1,-0.6,39
5.1,-0.45,92
5.1,-0.3,40
5.1,-0.15,36
5.1,0.0,105
5.1,0.15,45
5.1,0.3,78
5.1,0.45,180
5.1,0.6,98
5.1,0.75,92
5.1,0.9,88
5.1,1.05,83
5.1,1.2,78
5.1,1.35,80
5.1,1.5,77
5.25,-1.5,42
5.25,-1.35,31
5.25,-1.2,52
5.25,-1.05,61
5.25,-0.9,62
5.25,-0.75,57
5.25,-0.6,91
5.25,-0.45,125
5.25,-0.3,106
5.25,-0.15,26
5.25,0.0,87
5.25,0.15,52
5.25,0.3,54
5.25,0.45,57
5.25,0.6,60
5.25,0.75,72
5.25,0.9,71
5.25,1.05,72
5.25,1.2,70
5.25,1.35,70
5.25,1.5,68
5.4,-1.5,30
5.4,-1.35,24
5.4,-1.2,42
5.4,-1.05,68
5.4,-0.9,78
5.4,-0.75,69
5.4,-0.6,104
5.4,-0.45,124
5.4,-0.3,27
5.4,-0.15,24
5.4,0.0,29
5.4,0.15,39
5.4,0.3,16
5.4,0.45,15
5.4,0.6,32
5.4,0.75,42
5.4,0.9,38
5.4,1.05,50
5.4,1.2,51
5.4,1.35,56
5.4,1.5,61
5.55,-1.5,26
5.55,-1.35,1
5.55,-1.2,22
5.55,-1.05,73
5.55,-0.9,77
5.55,-0.75,45
5.55,-0.6,98
5.55,-0.45,52
5.55,-0.3,21
5.55,-0.15,55
5.55,0.0,45
5.55,0.15,34
5.55,0.3,16
5.55,0.45,10
5.55,0.6,32
5.55,0.75,36
5.55,0.9,26
5.55,1.05,16
5.55,1.2,25
5.55,1.35,36
5.55,1.5,55
5.7,-1.5,35
5.7,-1.35,28
5.7,-1.2,42
5.7,-1.05,60
5.7,-0.9,68
5.7,-0.75,61
5.7,-0.6,161
5.7,-0.45,61
5.7,-0.3,102
5.7,-0.15,55
5.7,0.0,22
5.7,0.15,47
5.7,0.3,9
5.7,0.45,27
5.7,0.6,42
5.7,0.75,36
5.7,0.9,20
5.7,1.05,0
5.7,1.2,14
5.7,1.35,36
5.7,1.5,48
5.85,-1.5,57
5.85,-1.35,58
5.85,-1.2,67
5.85,-1.05,77
5.85,-0.9,85
5.85,-0.75,88
5.85,-0.6,76
5.85,-0.45,57
5.85,-0.3,29
5.85,-0.15,51
5.85,0.0,62
5.85,0.15,7
5.85,0.3,46
5.85,0.45,45
5.85,0.6,77
5.85,0.75,60
5.85,0.9,38
5.85,1.05,14
5.85,1.2,21
5.85,1.35,40
5.85,1.5,48
6.0,-1.5,67
6.0,-1.35,70
6.0,-1.2,76
6.0,-1.05,84
6.0,-0.9,86
6.0,-0.75,91
6.0,-0.6,122
6.0,-0.45,187
6.0,-0.3,6
6.0,-0.15,38
6.0,0.0,226
6.0,0.15,106
6.0,0.3,73
6.0,0.45,129
6.0,0.6,107
6.0,0.75,82
6.0,0.9,56
6.0,1.05,43
6.0,1.2,41
6.0,1.35,44
6.0,1.5,42
6.15,-1.5,62
6.15,-1.35,54
6.15,-1.2,57
6.15,-1.05,77
6.15,-0.9,86
6.15,-0.75,78
6.15,-0.6,75
6.15,-0.45,19
6.15,-0.3,55
6.15,-0.15,68
6.15,0.0,255
6.15,0.15,102
6.15,0.3,111
6.15,0.45,96
6.15,0.6,96
6.15,0.75,89
6.15,0.9,65
6.15,1.05,59
6.15,1.2,54
6.15,1.35,53
6.15,1.5,54
6.3,-1.5,54
6.3,-1.35,54
6.3,-1.2,72
6.3,-1.05,74
6.3,-0.9,84
6.3,-0.75,74
6.3,-0.6,50
6.3,-0.45,62
6.3,-0.3,7
6.3,-0.15,0
6.3,0.0,94
6.3,0.15,111
6.3,0.3,3
6.3,0.45,95
6.3,0.6,100
6.3,0.75,96
6.3,0.9,91
6.3,1.05,85
6.3,1.2,88
6.3,1.35,74
6.3,1.5,73
6.45,-1.5,61
6.45,-1.35,61
6.45,-1.2,50
6.45,-1.05,56
6.45,-0.9,63
6.45,-0.75,87
6.45,-0.6,153
6.45,-0.45,46
6.45,-0.3,27
6.45,-0.15,22
6.45,0.0,99
6.45,0.15,137
6.45,0.3,102
6.45,0.45,89
6.45,0.6,107
6.45,0.75,98
6.45,0.9,109
6.45,1.05,99
6.45,1.2,85
6.45,1.35,84
6.45,1.5,83
6.6,-1.5,75
6.6,-1.35,73
6.6,-1.2,84
6.6,-1.05,77
6.6,-0.9,69
6.6,-0.75,89
6.6,-0.6,125
6.6,-0.45,125
6.6,-0.3,67
6.6,-0.15,22
6.6,0.0,71
6.6,0.15,52
6.6,0.3,67
6.6,0.45,73
6.6,0.6,85
6.6,0.75,96
6.6,0.9,100
6.6,1.05,84
6.6,1.2,82
6.6,1.35,96
6.6,1.5,95
6.75,-1.5,96
6.75,-1.35,92
6.75,-1.2,79
6.75,-1.05,68
6.75,-0.9,31
6.75,-0.75,48
6.75,-0.6,156
6.75,-0.45,120
6.75,-0.3,25
6.75,-0.15,47
6.75,0.0,53
6.75,0.15,28
6.75,0.3,44
6.75,0.45,65
6.75,0.6,82
6.75,0.75,87
6.75,0.9,88
6.75,1.05,91
6.75,1.2,80
6.75,1.35,85
6.75,1.5,83
6.9,-1.5,80
6.9,-1.35,77
6.9,-1.2,73
6.9,-1.05,66
6.9,-0.9,56
6.9,-0.75,35
6.9,-0.6,63
6.9,-0.45,33
6.9,-0.3,77
6.9,-0.15,5
6.9,0.0,52
6.9,0.15,29
6.9,0.3,46
6.9,0.45,61
6.9,0.6,88
6.9,0.75,83
6.9,0.9,78
6.9,1.05,85
6.9,1.2,82
6.9,1.35,80
6.9,1.5,85
7.05,-1.5,48
7.05,-1.35,48
7.05,-1.2,48
7.05,-1.05,51
7.05,-0.9,58
7.05,-0.75,56
7.05,-0.6,42
7.05,-0.45,107
7.05,-0.3,12
7.05,-0.15,109
7.05,0.0,79
7.05,0.15,45
7.05,0.3,51
7.05,0.45,145
7.05,0.6,151
7.05,0.75,106
7.05,0.9,88
7.05,1.05,78
7.05,1.2,74
7.05,1.35,74
7.05,1.5,74
7.2,-1.5,49
7.2,-1.35,48
7.2,-1.2,51
7.2,-1.05,63
7.2,-0.9,87
7.2,-0.75,175
7.2,-0.6,89
7.2,-0.45,156
7.2,-0.3,28
7.2,-0.15,12
7.2,0.0,55
7.2,0.15,43
7.2,0.3,82
7.2,0.45,141
7.2,0.6,146
7.2,0.75,106
7.2,0.9,88
7.2,1.05,79
7.2,1.2,74
7.2,1.35,74
7.2,1.5,74
7.35,-1.5,41
7.35,-1.35,50
7.35,-1.2,49
7.35,-1.05,53
7.35,-0.9,62
7.35,-0.75,69
7.35,-0.6,2
7.35,-0.45,81
7.35,-0.3,75
7.35,-0.15,135
7.35,0.0,39
7.35,0.15,55
7.35,0.3,138
7.35,0.45,90
7.35,0.6,95
7.35,0.75,91
7.35,0.9,81
7.35,1.05,78
7.35,1.2,75
7.35,1.35,74
7.35,1.5,74
7.5,-1.5,51
7.5,-1.35,51
7.5,-1.2,62
7.5,-1.05,62
7.5,-0.9,48
7.5,-0.75,17
7.5,-0.6,7
7.5,-0.45,1
7.5,-0.3,27
7.5,-0.15,96
7.5,0.0,102
7.5,0.15,70
7.5,0.3,57
7.5,0.45,60
7.5,0.6,70
7.5,0.75,74
7.5,0.9,74
7.5,1.05,74
7.5,1.2,74
7.5,1.35,85
7.5,1.5,84
7.65,-1.5,62
7.65,-1.35,62
7.65,-1.2,60
7.65,-1.05,41
7.65,-0.9,41
7.65,-0.75,39
7.65,-0.6,96
7.65,-0.45,23
7.65,-0.3,19
7.65,-0.15,52
7.65,0.0,59
7.65,0.15,39
7.65,0.3,23
7.65,0.45,38
7.65,0.6,66
7.65,0.75,74
7.65,0.9,79
7.65,1.05,85
7.65,1.2,86
7.65,1.35,86
7.65,1.5,91
7.8,-1.5,59
7.8,-1.35,45
7.8,-1.2,53
7.8,-1.05,52
7.8,-0.9,54
7.8,-0.75,62
7.8,-0.6,19
7.8,-0.45,19
7.8,-0.3,59
7.8,-0.15,56
7.8,0.0,54
7.8,0.15,41
7.8,0.3,34
7.8,0.45,48
7.8,0.6,62
7.8,0.75,71
7.8,0.9,75
7.8,1.05,78
7.8,1.2,80
7.8,1.35,81
7.8,1.5,81
7.95,-1.5,46
7.95,-1.35,46
7.95,-1.2,45
7.95,-1.05,45
7.95,-0.9,38
7.95,-0.75,27
7.95,-0.6,53
7.95,-0.45,43
7.95,-0.3,65
7.95,-0.15,52
7.95,0.0,118
7.95,0.15,82
7.95,0.3,57
7.95,0.45,63
7.95,0.6,62
7.95,0.75,61
7.95,0.9,61
7.95,1.05,61
7.95,1.2,77
7.95,1.35,79
7.95,1.5,79
8.1,-1.5,67
8.1,-1.35,79
8.1,-1.2,76
8.1,-1.05,69
8.1,-0.9,53
8.1,-0.75,116
8.1,-0.6,136
8.1,-0.45,67
8.1,-0.3,33
8.1,-0.15,13
8.1,0.0,58
8.1,0.15,79
8.1,0.3,118
8.1,0.45,75
8.1,0.6,66
8.1,0.75,62
8.1,0.9,64
8.1,1.05,47
8.1,1.2,50
8.1,1.35,50
8.1,1.5,79
8.25,-1.5,72
8.25,-1.35,71
8.25,-1.2,84
8.25,-1.05,84
8.25,-0.9,73
8.25,-0.75,94
8.25,-0.6,182
8.25,-0.45,62
8.25,-0.3,7
8.25,-0.15,49
8.25,0.0,40
8.25,0.15,22
8.25,0.3,81
8.25,0.45,76
8.25,0.6,66
8.25,0.75,62
8.25,0.9,74
8.25,1.05,60
8.25,1.2,60
8.25,1.35,64
8.25,1.5,64
8.4,-1.5,57
8.4,-1.35,57
8.4,-1.2,58
8.4,-1.05,81
8.4,-0.9,91
8.4,-0.75,66
8.4,-0.6,57
8.4,-0.45,45
8.4,-0.3,53
8.4,-0.15,23
8.4,0.0,38
8.4,0.15,2
8.4,0.3,71
8.4,0.45,72
8.4,0.6,65
8.4,0.75,62
8.4,0.9,62
8.4,1.05,62
8.4,1.2,62
8.4,1.35,64
8.4,1.5,64
8.55,-1.5,46
8.55,-1.35,47
8.55,-1.2,48
8.55,-1.05,51
8.55,-0.9,76
8.55,-0.75,102
8.55,-0.6,91
8.55,-0.45,56
8.55,-0.3,111
8.55,-0.15,43
8.55,0.0,45
8.55,0.15,43
8.55,0.3,43
8.55,0.45,58
8.55,0.6,65
8.55,0.75,68
8.55,0.9,69
8.55,1.05,69
8.55,1.2,64
8.55,1.35,64
8.55,1.5,64
8.7,-1.5,46
8.7,-1.35,46
8.7,-1.2,47
8.7,-1.05,54
8.7,-0.9,62
8.7,-0.75,77
8.7,-0.6,57
8.7,-0.45,189
8.7,-0.3,123
8.7,-0.15,43
8.7,0.0,45
8.7,0.15,35
8.7,0.3,45
8.7,0.45,62
8.7,0.6,70
8.7,0.75,70
8.7,0.9,68
8.7,1.05,75
8.7,1.2,84
8.7,1.35,84
8.7,1.5,87
8.85,-1.5,60
8.85,-1.35,44
8.85,-1.2,43
8.85,-1.05,40
8.85,-0.9,28
8.85,-0.75,27
8.85,-0.6,21
8.85,-0.45,15
8.85,-0.3,56
8.85,-0.15,55
8.85,0.0,47
8.85,0.15,15
8.85,0.3,50
8.85,0.45,101
8.85,0.6,97
8.85,0.75,91
8.85,0.9,88
8.85,1.05,85
8.85,1.2,83
8.85,1.35,83
8.85,1.5,104
9.0,-1.5,81
9.0,-1.35,80
9.0,-1.2,76
9.0,-1.05,70
9.0,-0.9,59
9.0,-0.75,54
9.0,-0.6,17
9.0,-0.45,72
9.0,-0.3,144
9.0,-0.15,44
9.0,0.0,27
9.0,0.15,32
9.0,0.3,75
9.0,0.45,216
9.0,0.6,121
9.0,0.75,96
9.0,0.9,86
9.0,1.05,83
9.0,1.2,104
9.0,1.35,104
9.0,1.5,104
9.15,-1.5,81
9.15,-1.35,76
9.15,-1.2,76
9.15,-1.05,79
9.15,-0.9,86
9.15,-0.75,98
9.15,-0.6,41
9.15,-0.45,95
9.15,-0.3,141
9.15,-0.15,42
9.15,0.0,32
9.15,0.15,27
9.15,0.3,56
9.15,0.45,103
9.15,0.6,101
9.15,0.75,91
9.15,0.9,103
9.15,1.05,103
9.15,1.2,103
9.15,1.35,104
9.15,1.5,104
9.3,-1.5,91
9.3,-1.35,76
9.3,-1.2,76
9.3,-1.05,86
9.3,-0.9,102
9.3,-0.75,144
9.3,-0.6,132
9.3,-0.45,68
9.3,-0.3,41
9.3,-0.15,21
9.3,0.0,33
9.3,0.15,66
9.3,0.3,88
9.3,0.45,81
9.3,0.6,83
9.3,0.75,102
9.3,0.9,106
9.3,1.05,108
9.3,1.2,108
9.3,1.35,112
9.3,1.5,107
9.45,-1.5,91
9.45,-1.35,91
9.45,-1.2,95
9.45,-1.05,103
9.45,-0.9,119
9.45,-0.75,109
9.45,-0.6,109
9.45,-0.45,26
9.45,-0.3,26
9.45,-0.15,71
9.45,0.0,40
9.45,0.15,69
9.45,0.3,68
9.45,0.45,77
9.45,0.6,104
9.45,0.75,116
9.45,0.9,121
9.45,1.05,122
9.45,1.2,121
9.45,1.35,120
9.45,1.5,118
9.6,-1.5,82
9.6,-1.35,85
9.6,-1.2,85
9.6,-1.05,94
9.6,-0.9,78
9.6,-0.75,77
9.6,-0.6,130
9.6,-0.45,78
9.6,-0.3,87
9.6,-0.15,75
9.6,0.0,69
9.6,0.15,0
9.6,0.3,55
9.6,0.45,92
9.6,0.6,119
9.6,0.75,140
9.6,0.9,138
9.6,1.05,132
9.6,1.2,127
9.6,1.35,124
9.6,1.5,121
9.75,-1.5,54
9.75,-1.35,52
9.75,-1.2,50
9.75,-1.05,36
9.75,-0.9,36
9.75,-0.75,34
9.75,-0.6,28
9.75,-0.45,60
9.75,-0.3,60
9.75,-0.15,112
9.75,0.0,124
9.75,0.15,73
9.75,0.3,91
9.75,0.45,141
9.75,0.6,215
9.75,0.75,202
9.75,0.9,170
9.75,1.05,153
9.75,1.2,144
9.75,1.35,124
9.75,1.5,121
9.9,-1.5,23
9.9,-1.35,23
9.9,-1.2,21
9.9,-1.05,6
9.9,-0.9,14
9.9,-0.75,14
9.9,-0.6,28
9.9,-0.45,89
9.9,-0.3,107
9.9,-0.15,121
9.9,0.0,185
9.9,0.15,104
9.9,0.3,95
9.9,0.45,179
9.9,0.6,255
9.9,0.75,242
9.9,0.9,175
9.9,1.05,147
9.9,1.2,133
9.9,1.35,135
9.9,1.5,131
10.05,-1.5,41
10.05,-1.35,25
10.05,-1.2,24
10.05,-1.05,22
10.05,-0.9,19
10.05,-0.75,14
10.05,-0.6,29
10.05,-0.45,96
10.05,-0.3,146
10.05,-0.15,157
10.05,0.0,160
10.05,0.15,117
10.05,0.3,66
10.05,0.45,135
10.05,0.6,216
10.05,0.75,202
10.05,0.9,170
10.05,1.05,151
10.05,1.2,140
10.05,1.35,123
10.05,1.5,129
10.2,-1.5,82
10.2,-1.35,64
10.2,-1.2,54
10.2,-1.05,51
10.2,-0.9,38
10.2,-0.75,41
10.2,-0.6,16
10.2,-0.45,132
10.2,-0.3,130
10.2,-0.15,66
10.2,0.0,125
10.2,0.15,184
10.2,0.3,94
10.2,0.45,108
10.2,0.6,138
10.2,0.75,148
10.2,0.9,136
10.2,1.05,128
10.2,1.2,133
10.2,1.35,123
10.2,1.5,119
10.35,-1.5,96
10.35,-1.35,95
10.35,-1.2,94
10.35,-1.05,88
10.35,-0.9,71
10.35,-0.75,87
10.35,-0.6,79
10.35,-0.45,140
10.35,-0.3,66
10.35,-0.15,95
10.35,0.0,75
10.35,0.15,9
10.35,0.3,46
10.35,0.45,79
10.35,0.6,103
10.35,0.75,114
10.35,0.9,120
10.35,1.05,109
10.35,1.2,116
10.35,1.35,115
10.35,1.5,117
10.5,-1.5,105
10.5,-1.35,112
10.5,-1.2,116
10.5,-1.05,121
10.5,-0.9,125
10.5,-0.75,119
10.5,-0.6,14
10.5,-0.45,30
10.5,-0.3,167
10.5,-0.15,84
10.5,0.0,54
10.5,0.15,22
10.5,0.3,19
10.5,0.45,57
10.5,0.6,73
10.5,0.75,86
10.5,0.9,103
10.5,1.05,108
10.5,1.2,110
10.5,1.35,110
10.5,1.5,110
10.65,-1.5,140
10.65,-1.35,144
10.65,-1.2,151
10.65,-1.05,163
10.65,-0.9,193
10.65,-0.75,210
10.65,-0.6,94
10.65,-0.45,192
10.65,-0.3,139
10.65,-0.15,103
10.65,0.0,39
10.65,0.15,46
10.65,0.3,37
10.65,0.45,58
10.65,0.6,80
10.65,0.75,88
10.65,0.9,94
10.65,1.05,102
10.65,1.2,105
10.65,1.35,107
10.65,1.5,108
10.8,-1.5,155
10.8,-1.35,163
10.8,-1.2,170
10.8,-1.05,185
10.8,-0.9,231
10.8,-0.75,255
10.8,-0.6,133
10.8,-0.45,22
10.8,-0.3,101
10.8,-0.15,107
10.8,0.0,62
10.8,0.15,51
10.8,0.3,69
10.8,0.45,62
10.8,0.6,68
10.8,0.75,92
10.8,0.9,98
10.8,1.05,103
10.8,1.2,102
10.8,1.35,102
10.8,1.5,102
10.95,-1.5,159
10.95,-1.35,152
10.95,-1.2,158
10.95,-1.05,169
10.95,-0.9,182
10.95,-0.75,182
10.95,-0.6,142
10.95,-0.45,144
10.95,-0.3,182
10.95,-0.15,85
10.95,0.0,50
10.95,0.15,53
10.95,0.3,81
10.95,0.45,75
10.95,0.6,82
10.95,0.75,84
10.95,0.9,90
10.95,1.05,104
10.95,1.2,102
10.95,1.35,102
10.95,1.5,119
11.1,-1.5,145
11.1,-1.35,148
11.1,-1.2,150
11.1,-1.05,148
11.1,-0.9,151
11.1,-0.75,138
11.1,-0.6,111
11.1,-0.45,71
11.1,-0.3,96
11.1,-0.15,71
11.1,0.0,8
11.1,0.15,55
11.1,0.3,109
11.1,0.45,102
11.1,0.6,118
11.1,0.75,121
11.1,0.9,120
11.1,1.05,118
11.1,1.2,117
11.1,1.35,138
11.1,1.5,138
11.25,-1.5,140
11.25,-1.35,139
11.25,-1.2,134
11.25,-1.05,151
11.25,-0.9,139
11.25,-0.75,112
11.25,-0.6,76
11.25,-0.45,63
11.25,-0.3,66
11.25,-0.15,6
11.25,0.0,64
11.25,0.15,95
11.25,0.3,113
11.25,0.45,138
11.25,0.6,149
11.25,0.75,138
11.25,0.9,130
11.25,1.05,127
11.25,1.2,124
11.25,1.35,122
11.25,1.5,137
11.4,-1.5,132
11.4,-1.35,107
11.4,-1.2,123
11.4,-1.05,103
11.4,-0.9,95
11.4,-0.75,79
11.4,-0.6,48
11.4,-0.45,62
11.4,-0.3,118
11.4,-0.15,68
11.4,0.0,186
11.4,0.15,95
11.4,0.3,117
11.4,0.45,205
11.4,0.6,184
11.4,0.75,158
11.4,0.9,147
11.4,1.05,132
11.4,1.2,127
11.4,1.35,124
11.4,1.5,122
11.55,-1.5,103
11.55,-1.35,100
11.55,-1.2,75
11.55,-1.05,71
11.55,-0.9,66
11.55,-0.75,48
11.55,-0.6,48
11.55,-0.45,64
11.55,-0.3,133
11.55,-0.15,150
11.55,0.0,208
11.55,0.15,71
11.55,0.3,110
11.55,0.45,183
11.55,0.6,180
11.55,0.75,162
11.55,0.9,153
11.55,1.05,138
11.55,1.2,133
11.55,1.35,128
11.55,1.5,124
11.7,-1.5,80
11.7,-1.35,77
11.7,-1.2,72
11.7,-1.05,67
11.7,-0.9,48
11.7,-0.75,53
11.7,-0.6,49
11.7,-0.45,48
11.7,-0.3,93
11.7,-0.15,185
11.7,0.0,255
11.7,0.15,158
11.7,0.3,123
11.7,0.45,157
11.7,0.6,163
11.7,0.75,158
11.7,0.9,153
11.7,1.05,139
11.7,1.2,133
11.7,1.35,128
11.7,1.5,124
11.85,-1.5,60
11.85,-1.35,47
11.85,-1.2,50
11.85,-1.05,47
11.85,-0.9,47
11.85,-0.75,44
11.85,-0.6,35
11.85,-0.45,8
11.85,-0.3,47
11.85,-0.15,140
11.85,0.0,216
11.85,0.15,255
11.85,0.3,216
11.85,0.45,175
11.85,0.6,166
11.85,0.75,161
11.85,0.9,158
11.85,1.05,153
11.85,1.2,148
11.85,1.35,142
11.85,1.5,138
12.0,-1.5,47
12.0,-1.35,47
12.0,-1.2,47
12.0,-1.05,50
12.0,-0.9,46
12.0,-0.75,48
12.0,-0.6,41
12.0,-0.45,38
12.0,-0.3,65
12.0,-0.15,126
12.0,0.0,171
12.0,0.15,203
12.0,0.3,199
12.0,0.45,177
12.0,0.6,167
12.0,0.75,162
12.0,0.9,157
12.0,1.05,151
12.0,1.2,144
12.0,1.35,138
12.0,1.5,132
12.15,-1.5,54
12.15,-1.35,55
12.15,-1.2,55
12.15,-1.05,53
12.15,-0.9,49
12.15,-0.75,43
12.15,-0.6,7
12.15,-0.45,19
12.15,-0.3,62
12.15,-0.15,100
12.15,0.0,124
12.15,0.15,146
12.15,0.3,163
12.15,0.45,161
12.15,0.6,158
12.15,0.75,157
12.15,0.9,151
12.15,1.05,144
12.15,1.2,137
12.15,1.35,129
12.15,1.5,123
12.3,-1.5,52
12.3,-1.35,55
12.3,-1.2,57
12.3,-1.05,55
12.3,-0.9,59
12.3,-0.75,56
12.3,-0.6,27
12.3,-0.45,31
12.3,-0.3,19
12.3,-0.15,118
12.3,0.0,104
12.3,0.15,111
12.3,0.3,131
12.3,0.45,146
12.3,0.6,148
12.3,0.75,145
12.3,0.9,139
12.3,1.05,134
12.3,1.2,125
12.3,1.35,115
12.3,1.5,108
12.45,-1.5,40
12.45,-1.35,45
12.45,-1.2,52
12.45,-1.05,63
12.45,-0.9,83
12.45,-0.75,109
12.45,-0.6,68
12.45,-0.45,57
12.45,-0.3,63
12.45,-0.15,255
12.45,0.0,96
12.45,0.15,108
12.45,0.3,114
12.45,0.45,125
12.45,0.6,137
12.45,0.75,134
12.45,0.9,128
12.45,1.05,118
12.45,1.2,106
12.45,1.35,93
12.45,1.5,86
12.6,-1.5,32
12.6,-1.35,39
12.6,-1.2,50
12.6,-1.05,62
12.6,-0.9,79
12.6,-0.75,89
12.6,-0.6,75
12.6,-0.45,71
12.6,-0.3,75
12.6,-0.15,145
12.6,0.0,137
12.6,0.15,112
12.6,0.3,109
12.6,0.45,107
12.6,0.6,116
12.6,0.75,113
12.6,0.9,116
12.6,1.05,103
12.6,1.2,85
12.6,1.35,67
12.6,1.5,57
12.75,-1.5,18
12.75,-1.35,26
12.75,-1.2,42
12.75,-1.05,56
12.75,-0.9,66
12.75,-0.75,69
12.75,-0.6,71
12.75,-0.45,65
12.75,-0.3,59
12.75,-0.15,54
12.75,0.0,55
12.75,0.15,78
12.75,0.3,95
12.75,0.45,101
12.75,0.6,107
12.75,0.75,104
12.75,0.9,95
12.75,1.05,87
12.75,1.2,62
12.75,1.35,38
12.75,1.5,26
12.9,-1.5,2
12.9,-1.35,12
12.9,-1.2,32
12.9,-1.05,48
12.9,-0.9,58
12.9,-0.75,68
12.9,-0.6,68
12.9,-0.45,64
12.9,-0.3,54
12.9,-0.15,16
12.9,0.0,18
12.9,0.15,56
12.9,0.3,74
12.9,0.45,92
12.9,0.6,94
12.9,0.75,96
12.9,0.9,86
12.9,1.05,67
12.9,1.2,44
12.9,1.35,15
12.9,1.5,3
13.05,-1.5,0
13.05,-1.35,8
13.05,-1.2,27
13.05,-1.05,43
13.05,-0.9,53
13.05,-0.75,65
13.05,-0.6,65
13.05,-0.45,63
13.05,-0.3,54
13.05,-0.15,40
13.05,0.0,41
13.05,0.15,56
13.05,0.3,70
13.05,0.45,86
13.05,0.6,89
13.05,0.75,85
13.05,0.9,80
13.05,1.05,60
13.05,1.2,34
13.05,1.35,9
13.05,1.5,0
