-3.0,-1.5,0
-3.0,-1.35,1
-3.0,-1.2,10
-3.0,-1.05,23
-3.0,-0.9,37
-3.0,-0.75,49
-3.0,-0.6,59
-3.0,-0.45,66
-3.0,-0.3,72
-3.0,-0.15,75
-3.0,0.0,77
-3.0,0.15,77
-3.0,0.3,77
-3.0,0.45,79
-3.0,0.6,72
-3.0,0.75,62
-3.0,0.9,48
-3.0,1.05,32
-3.0,1.2,15
-3.0,1.35,3
-3.0,1.5,0
-2.85,-1.5,1
-2.85,-1.35,5
-2.85,-1.2,14
-2.85,-1.05,27
-2.85,-0.9,41
-2.85,-0.75,53
-2.85,-0.6,62
-2.85,-0.45,70
-2.85,-0.3,75
-2.85,-0.15,79
-2.85,0.0,80
-2.85,0.15,81
-2.85,0.3,79
-2.85,0.45,83
-2.85,0.6,77
-2.85,0.75,67
-2.85,0.9,54
-2.85,1.05,38
-2.85,1.2,21
-2.85,1.35,8
-2.85,1.5,3
-2.7,-1.5,11
-2.7,-1.35,15
-2.7,-1.2,24
-2.7,-1.05,35
-2.7,-0.9,48
-2.7,-0.75,59
-2.7,-0.6,67
-2.7,-0.45,74
-2.7,-0.3,79
-2.7,-0.15,83
-2.7,0.0,85
-2.7,0.15,85
-2.7,0.3,84
-2.7,0.45,89
-2.7,0.6,84
-2.7,0.75,75
-2.7,0.9,64
-2.7,1.05,50
-2.7,1.2,34
-2.7,1.35,23
-2.7,1.5,18
-2.55,-1.5,26
-2.55,-1.35,30
-2.55,-1.2,36
-2.55,-1.05,46
-2.55,-0.9,56
-2.55,-0.75,65
-2.55,-0.6,73
-2.55,-0.45,79
-2.55,-0.3,83
-2.55,-0.15,87
-2.55,0.0,89
-2.55,0.15,90
-2.55,0.3,89
-2.55,0.45,95
-2.55,0.6,91
-2.55,0.75,85
-2.55,0.9,76
-2.55,1.05,64
-2.55,1.2,54
-2.55,1.35,44
-2.55,1.5,38
-2.4,-1.5,41
-2.4,-1.35,45
-2.4,-1.2,51
-2.4,-1.05,57
-2.4,-0.9,65
-2.4,-0.75,72
-2.4,-0.6,78
-2.4,-0.45,83
-2.4,-0.3,88
-2.4,-0.15,91
-2.4,0.0,93
-2.4,0.15,95
-2.4,0.3,95
-2.4,0.45,102
-2.4,0.6,99
-2.4,0.75,94
-2.4,0.9,90
-2.4,1.05,81
-2.4,1.2,72
-2.4,1.35,65
-2.4,1.5,60
-2.25,-1.5,54
-2.25,-1.35,58
-2.25,-1.2,63
-2.25,-1.05,69
-2.25,-0.9,75
-2.25,-0.75,78
-2.25,-0.6,83
-2.25,-0.45,87
-2.25,-0.3,91
-2.25,-0.15,95
-2.25,0.0,98
-2.25,0.15,100
-2.25,0.3,100
-2.25,0.45,108
-2.25,0.6,108
-2.25,0.75,105
-2.25,0.9,100
-2.25,1.05,94
-2.25,1.2,88
-2.25,1.35,82
-2.25,1.5,78
-2.1,-1.5,62
-2.1,-1.35,68
-2.1,-1.2,71
-2.1,-1.05,76
-2.1,-0.9,80
-2.1,-0.75,85
-2.1,-0.6,89
-2.1,-0.45,91
-2.1,-0.3,94
-2.1,-0.15,98
-2.1,0.0,102
-2.1,0.15,104
-2.1,0.3,115
-2.1,0.45,115
-2.1,0.6,113
-2.1,0.75,111
-2.1,0.9,108
-2.1,1.05,104
-2.1,1.2,100
-2.1,1.35,95
-2.1,1.5,92
-1.95,-1.5,70
-1.95,-1.35,72
-1.95,-1.2,78
-1.95,-1.05,81
-1.95,-0.9,84
-1.95,-0.75,87
-1.95,-0.6,90
-1.95,-0.45,102
-1.95,-0.3,106
-1.95,-0.15,111
-1.95,0.0,105
-1.95,0.15,118
-1.95,0.3,119
-1.95,0.45,119
-1.95,0.6,117
-1.95,0.75,116
-1.95,0.9,114
-1.95,1.05,111
-1.95,1.2,108
-1.95,1.35,105
-1.95,1.5,102
-1.8,-1.5,75
-1.8,-1.35,77
-1.8,-1.2,79
-1.8,-1.05,84
-1.8,-0.9,86
-1.8,-0.75,88
-1.8,-0.6,90
-1.8,-0.45,94
-1.8,-0.3,105
-1.8,-0.15,111
-1.8,0.0,118
-1.8,0.15,123
-1.8,0.3,123
-1.8,0.45,122
-1.8,0.6,119
-1.8,0.75,118
-1.8,0.9,117
-1.8,1.05,116
-1.8,1.2,114
-1.8,1.35,112
-1.8,1.5,102
-1.65,-1.5,79
-1.65,-1.35,80
-1.65,-1.2,81
-1.65,-1.05,82
-1.65,-0.9,86
-1.65,-0.75,87
-1.65,-0.6,88
-1.65,-0.45,91
-1.65,-0.3,104
-1.65,-0.15,111
-1.65,0.0,119
-1.65,0.15,127
-1.65,0.3,130
-1.65,0.45,125
-1.65,0.6,117
-1.65,0.75,116
-1.65,0.9,117
-1.65,1.05,118
-1.65,1.2,118
-1.65,1.35,109
-1.65,1.5,109
-1.5,-1.5,81
-1.5,-1.35,82
-1.5,-1.2,82
-1.5,-1.05,82
-1.5,-0.9,84
-1.5,-0.75,84
-1.5,-0.6,86
-1.5,-0.45,93
-1.5,-0.3,98
-1.5,-0.15,106
-1.5,0.0,118
-1.5,0.15,133
-1.5,0.3,141
-1.5,0.45,124
-1.5,0.6,102
-1.5,0.75,109
-1.5,0.9,118
-1.5,1.05,120
-1.5,1.2,114
-1.5,1.35,115
-1.5,1.5,110
-1.35,-1.5,83
-1.35,-1.35,83
-1.35,-1.2,83
-1.35,-1.05,82
-1.35,-0.9,84
-1.35,-0.75,81
-1.35,-0.6,77
-1.35,-0.45,77
-1.35,-0.3,87
-1.35,-0.15,96
-1.35,0.0,112
-1.35,0.15,140
-1.35,0.3,173
-1.35,0.45,146
-1.35,0.6,66
-1.35,0.75,102
-1.35,0.9,119
-1.35,1.05,124
-1.35,1.2,119
-1.35,1.35,115
-1.35,1.5,112
-1.2,-1.5,84
-1.2,-1.35,84
-1.2,-1.2,84
-1.2,-1.05,84
-1.2,-0.9,80
-1.2,-0.75,75
-1.2,-0.6,64
-1.2,-0.45,60
-1.2,-0.3,71
-1.2,-0.15,79
-1.2,0.0,92
-1.2,0.15,133
-1.2,0.3,206
-1.2,0.45,254
-1.2,0.6,131
-1.2,0.75,121
-1.2,0.9,126
-1.2,1.05,122
-1.2,1.2,120
-1.2,1.35,118
-1.2,1.5,116
-1.05,-1.5,85
-1.05,-1.35,88
-1.05,-1.2,87
-1.05,-1.05,85
-1.05,-0.9,80
-1.05,-0.75,70
-1.05,-0.6,47
-1.05,-0.45,26
-1.05,-0.3,50
-1.05,-0.15,56
-1.05,0.0,43
-1.05,0.15,95
-1.05,0.3,163
-1.05,0.45,188
-1.05,0.6,157
-1.05,0.75,138
-1.05,0.9,127
-1.05,1.05,123
-1.05,1.2,120
-1.05,1.35,118
-1.05,1.5,116
-0.9,-1.5,89
-0.9,-1.35,96
-0.9,-1.2,95
-0.9,-1.05,93
-0.9,-0.9,90
-0.9,-0.75,77
-0.9,-0.6,53
-0.9,-0.45,4
-0.9,-0.3,60
-0.9,-0.15,46
-0.9,0.0,0
-0.9,0.15,71
-0.9,0.3,134
-0.9,0.45,152
-0.9,0.6,146
-0.9,0.75,138
-0.9,0.9,128
-0.9,1.05,123
-0.9,1.2,120
-0.9,1.35,117
-0.9,1.5,115
-0.75,-1.5,96
-0.75,-1.35,96
-0.75,-1.2,96
-0.75,-1.05,96
-0.75,-0.9,96
-0.75,-0.75,100
-0.75,-0.6,114
-0.75,-0.45,173
-0.75,-0.3,168
-0.75,-0.15,95
-0.75,0.0,67
-0.75,0.15,103
-0.75,0.3,151
-0.75,0.45,165
-0.75,0.6,140
-0.75,0.75,130
-0.75,0.9,126
-0.75,1.05,122
-0.75,1.2,118
-0.75,1.35,115
-0.75,1.5,113
-0.6,-1.5,85
-0.6,-1.35,85
-0.6,-1.2,86
-0.6,-1.05,88
-0.6,-0.9,91
-0.6,-0.75,101
-0.6,-0.6,129
-0.6,-0.45,204
-0.6,-0.3,182
-0.6,-0.15,106
-0.6,0.0,94
-0.6,0.15,124
-0.6,0.3,174
-0.6,0.45,255
-0.6,0.6,122
-0.6,0.75,126
-0.6,0.9,123
-0.6,1.05,119
-0.6,1.2,115
-0.6,1.35,113
-0.6,1.5,110
-0.45,-1.5,72
-0.45,-1.35,73
-0.45,-1.2,85
-0.45,-1.05,87
-0.45,-0.9,89
-0.45,-0.75,92
-0.45,-0.6,92
-0.45,-0.45,65
-0.45,-0.3,38
-0.45,-0.15,76
-0.45,0.0,96
-0.45,0.15,113
-0.45,0.3,141
-0.45,0.45,141
-0.45,0.6,122
-0.45,0.75,124
-0.45,0.9,119
-0.45,1.05,115
-0.45,1.2,114
-0.45,1.35,111
-0.45,1.5,110
-0.3,-1.5,78
-0.3,-1.35,78
-0.3,-1.2,73
-0.3,-1.05,89
-0.3,-0.9,84
-0.3,-0.75,81
-0.3,-0.6,70
-0.3,-0.45,36
-0.3,-0.3,21
-0.3,-0.15,64
-0.3,0.0,84
-0.3,0.15,95
-0.3,0.3,117
-0.3,0.45,136
-0.3,0.6,124
-0.3,0.75,118
-0.3,0.9,113
-0.3,1.05,109
-0.3,1.2,107
-0.3,1.35,106
-0.3,1.5,105
-0.15,-1.5,77
-0.15,-1.35,77
-0.15,-1.2,78
-0.15,-1.05,78
-0.15,-0.9,87
-0.15,-0.75,82
-0.15,-0.6,74
-0.15,-0.45,63
-0.15,-0.3,60
-0.15,-0.15,76
-0.15,0.0,72
-0.15,0.15,69
-0.15,0.3,113
-0.15,0.45,220
-0.15,0.6,124
-0.15,0.75,102
-0.15,0.9,113
-0.15,1.05,114
-0.15,1.2,114
-0.15,1.35,117
-0.15,1.5,119
0.0,-1.5,77
0.0,-1.35,77
0.0,-1.2,77
0.0,-1.05,77
0.0,-0.9,77
0.0,-0.75,85
0.0,-0.6,80
0.0,-0.45,75
0.0,-0.3,71
0.0,-0.15,67
0.0,0.0,76
0.0,0.15,75
0.0,0.3,63
0.0,0.45,59
0.0,0.6,91
0.0,0.75,92
0.0,0.9,98
0.0,1.05,102
0.0,1.2,110
0.0,1.35,115
0.0,1.5,119
0.15,-1.5,85
0.15,-1.35,85
0.15,-1.2,85
0.15,-1.05,77
0.15,-0.9,77
0.15,-0.75,77
0.15,-0.6,83
0.15,-0.45,80
0.15,-0.3,73
0.15,-0.15,67
0.15,0.0,74
0.15,0.15,82
0.15,0.3,80
0.15,0.45,66
0.15,0.6,26
0.15,0.75,65
0.15,0.9,82
0.15,1.05,96
0.15,1.2,121
0.15,1.35,130
0.15,1.5,136
0.3,-1.5,85
0.3,-1.35,85
0.3,-1.2,85
0.3,-1.05,85
0.3,-0.9,85
0.3,-0.75,85
0.3,-0.6,85
0.3,-0.45,84
0.3,-0.3,78
0.3,-0.15,81
0.3,0.0,98
0.3,0.15,130
0.3,0.3,125
0.3,0.45,84
0.3,0.6,33
0.3,0.75,65
0.3,0.9,79
0.3,1.05,104
0.3,1.2,118
0.3,1.35,134
0.3,1.5,140
0.45,-1.5,85
0.45,-1.35,85
0.45,-1.2,85
0.45,-1.05,85
0.45,-0.9,85
0.45,-0.75,85
0.45,-0.6,85
0.45,-0.45,86
0.45,-0.3,91
0.45,-0.15,112
0.45,0.0,174
0.45,0.15,246
0.45,0.3,208
0.45,0.45,145
0.45,0.6,114
0.45,0.75,104
0.45,0.9,110
0.45,1.05,122
0.45,1.2,130
0.45,1.35,134
0.45,1.5,145
0.6,-1.5,85
0.6,-1.35,85
0.6,-1.2,85
0.6,-1.05,85
0.6,-0.9,75
0.6,-0.75,76
0.6,-0.6,85
0.6,-0.45,84
0.6,-0.3,80
0.6,-0.15,94
0.6,0.0,218
0.6,0.15,255
0.6,0.3,255
0.6,0.45,185
0.6,0.6,121
0.6,0.75,149
0.6,0.9,149
0.6,1.05,147
0.6,1.2,145
0.6,1.35,145
0.6,1.5,144
0.75,-1.5,85
0.75,-1.35,85
0.75,-1.2,83
0.75,-1.05,73
0.75,-0.9,78
0.75,-0.75,77
0.75,-0.6,77
0.75,-0.45,85
0.75,-0.3,75
0.75,-0.15,86
0.75,0.0,169
0.75,0.15,255
0.75,0.3,237
0.75,0.45,236
0.75,0.6,255
0.75,0.75,209
0.75,0.9,186
0.75,1.05,170
0.75,1.2,161
0.75,1.35,156
0.75,1.5,153
0.9,-1.5,85
0.9,-1.35,85
0.9,-1.2,82
0.9,-1.05,67
0.9,-0.9,63
0.9,-0.75,64
0.9,-0.6,66
0.9,-0.45,71
0.9,-0.3,66
0.9,-0.15,45
0.9,0.0,98
0.9,0.15,175
0.9,0.3,214
0.9,0.45,255
0.9,0.6,255
0.9,0.75,236
0.9,0.9,195
0.9,1.05,172
0.9,1.2,169
0.9,1.35,162
0.9,1.5,158
1.05,-1.5,85
1.05,-1.35,85
1.05,-1.2,81
1.05,-1.05,75
1.05,-0.9,64
1.05,-0.75,40
1.05,-0.6,26
1.05,-0.45,54
1.05,-0.3,59
1.05,-0.15,9
1.05,0.0,66
1.05,0.15,137
1.05,0.3,187
1.05,0.45,218
1.05,0.6,225
1.05,0.75,211
1.05,0.9,193
1.05,1.05,182
1.05,1.2,173
1.05,1.35,166
1.05,1.5,162
1.2,-1.5,73
1.2,-1.35,85
1.2,-1.2,82
1.2,-1.05,73
1.2,-0.9,62
1.2,-0.75,42
1.2,-0.6,2
1.2,-0.45,55
1.2,-0.3,99
1.2,-0.15,84
1.2,0.0,94
1.2,0.15,123
1.2,0.3,139
1.2,0.45,158
1.2,0.6,171
1.2,0.75,180
1.2,0.9,179
1.2,1.05,173
1.2,1.2,168
1.2,1.35,164
1.2,1.5,161
1.35,-1.5,76
1.35,-1.35,73
1.35,-1.2,73
1.35,-1.05,73
1.35,-0.9,69
1.35,-0.75,64
1.35,-0.6,72
1.35,-0.45,158
1.35,-0.3,208
1.35,-0.15,122
1.35,0.0,88
1.35,0.15,88
1.35,0.3,97
1.35,0.45,96
1.35,0.6,121
1.35,0.75,140
1.35,0.9,146
1.35,1.05,150
1.35,1.2,148
1.35,1.35,142
1.35,1.5,140
1.5,-1.5,78
1.5,-1.35,77
1.5,-1.2,76
1.5,-1.05,73
1.5,-0.9,74
1.5,-0.75,83
1.5,-0.6,105
1.5,-0.45,178
1.5,-0.3,216
1.5,-0.15,124
1.5,0.0,89
1.5,0.15,88
1.5,0.3,88
1.5,0.45,88
1.5,0.6,112
1.5,0.75,128
1.5,0.9,135
1.5,1.05,134
1.5,1.2,138
1.5,1.35,138
1.5,1.5,138
1.65,-1.5,80
1.65,-1.35,80
1.65,-1.2,79
1.65,-1.05,79
1.65,-0.9,79
1.65,-0.75,76
1.65,-0.6,76
1.65,-0.45,90
1.65,-0.3,115
1.65,-0.15,105
1.65,0.0,91
1.65,0.15,118
1.65,0.3,161
1.65,0.45,116
1.65,0.6,99
1.65,0.75,94
1.65,0.9,100
1.65,1.05,121
1.65,1.2,123
1.65,1.35,125
1.65,1.5,126
1.8,-1.5,79
1.8,-1.35,79
1.8,-1.2,81
1.8,-1.05,81
1.8,-0.9,81
1.8,-0.75,73
1.8,-0.6,46
1.8,-0.45,7
1.8,-0.3,74
1.8,-0.15,79
1.8,0.0,62
1.8,0.15,120
1.8,0.3,222
1.8,0.45,124
1.8,0.6,96
1.8,0.75,91
1.8,0.9,87
1.8,1.05,85
1.8,1.2,81
1.8,1.35,80
1.8,1.5,92
1.95,-1.5,79
1.95,-1.35,79
1.95,-1.2,79
1.95,-1.05,81
1.95,-0.9,81
1.95,-0.75,75
1.95,-0.6,61
1.95,-0.45,48
1.95,-0.3,95
1.95,-0.15,81
1.95,0.0,28
1.95,0.15,73
1.95,0.3,111
1.95,0.45,93
1.95,0.6,84
1.95,0.75,78
1.95,0.9,79
1.95,1.05,77
1.95,1.2,77
1.95,1.35,77
1.95,1.5,77
2.1,-1.5,79
2.1,-1.35,79
2.1,-1.2,79
2.1,-1.05,80
2.1,-0.9,81
2.1,-0.75,86
2.1,-0.6,95
2.1,-0.45,130
2.1,-0.3,208
2.1,-0.15,99
2.1,0.0,71
2.1,0.15,62
2.1,0.3,48
2.1,0.45,52
2.1,0.6,64
2.1,0.75,64
2.1,0.9,66
2.1,1.05,67
2.1,1.2,67
2.1,1.35,63
2.1,1.5,63
2.25,-1.5,81
2.25,-1.35,82
2.25,-1.2,83
2.25,-1.05,83
2.25,-0.9,85
2.25,-0.75,80
2.25,-0.6,94
2.25,-0.45,124
2.25,-0.3,153
2.25,-0.15,78
2.25,0.0,73
2.25,0.15,47
2.25,0.3,2
2.25,0.45,32
2.25,0.6,58
2.25,0.75,62
2.25,0.9,58
2.25,1.05,55
2.25,1.2,53
2.25,1.35,61
2.25,1.5,53
2.4,-1.5,76
2.4,-1.35,76
2.4,-1.2,77
2.4,-1.05,78
2.4,-0.9,80
2.4,-0.75,83
2.4,-0.6,88
2.4,-0.45,93
2.4,-0.3,89
2.4,-0.15,91
2.4,0.0,70
2.4,0.15,58
2.4,0.3,48
2.4,0.45,53
2.4,0.6,66
2.4,0.75,68
2.4,0.9,59
2.4,1.05,55
2.4,1.2,53
2.4,1.35,53
2.4,1.5,53
2.55,-1.5,66
2.55,-1.35,75
2.55,-1.2,76
2.55,-1.05,76
2.55,-0.9,77
2.55,-0.75,77
2.55,-0.6,79
2.55,-0.45,74
2.55,-0.3,68
2.55,-0.15,47
2.55,0.0,31
2.55,0.15,63
2.55,0.3,59
2.55,0.45,64
2.55,0.6,104
2.55,0.75,67
2.55,0.9,56
2.55,1.05,53
2.55,1.2,53
2.55,1.35,69
2.55,1.5,71
2.7,-1.5,80
2.7,-1.35,75
2.7,-1.2,84
2.7,-1.05,78
2.7,-0.9,77
2.7,-0.75,75
2.7,-0.6,71
2.7,-0.45,62
2.7,-0.3,62
2.7,-0.15,43
2.7,0.0,62
2.7,0.15,59
2.7,0.3,61
2.7,0.45,58
2.7,0.6,11
2.7,0.75,35
2.7,0.9,46
2.7,1.05,67
2.7,1.2,72
2.7,1.35,76
2.7,1.5,77
2.85,-1.5,84
2.85,-1.35,106
2.85,-1.2,92
2.85,-1.05,91
2.85,-0.9,89
2.85,-0.75,86
2.85,-0.6,77
2.85,-0.45,72
2.85,-0.3,65
2.85,-0.15,59
2.85,0.0,66
2.85,0.15,59
2.85,0.3,41
2.85,0.45,49
2.85,0.6,29
2.85,0.75,45
2.85,0.9,62
2.85,1.05,72
2.85,1.2,74
2.85,1.35,76
2.85,1.5,77
3.0,-1.5,71
3.0,-1.35,71
3.0,-1.2,71
3.0,-1.05,93
3.0,-0.9,92
3.0,-0.75,90
3.0,-0.6,88
3.0,-0.45,83
3.0,-0.3,86
3.0,-0.15,93
3.0,0.0,64
3.0,0.15,43
3.0,0.3,68
3.0,0.45,60
3.0,0.6,43
3.0,0.75,78
3.0,0.9,84
3.0,1.05,82
3.0,1.2,82
3.0,1.35,81
3.0,1.5,84
3.15,-1.5,71
3.15,-1.35,72
3.15,-1.2,95
3.15,-1.05,95
3.15,-0.9,95
3.15,-0.75,95
3.15,-0.6,90
3.15,-0.45,88
3.15,-0.3,67
3.15,-0.15,255
3.15,0.0,125
3.15,0.15,85
3.15,0.3,151
3.15,0.45,112
3.15,0.6,122
3.15,0.75,146
3.15,0.9,136
3.15,1.05,120
3.15,1.2,112
3.15,1.35,101
3.15,1.5,99
3.3,-1.5,67
3.3,-1.35,68
3.3,-1.2,69
3.3,-1.05,89
3.3,-0.9,94
3.3,-0.75,95
3.3,-0.6,97
3.3,-0.45,94
3.3,-0.3,78
3.3,-0.15,67
3.3,0.0,129
3.3,0.15,94
3.3,0.3,104
3.3,0.45,140
3.3,0.6,240
3.3,0.75,255
3.3,0.9,168
3.3,1.05,123
3.3,1.2,108
3.3,1.35,102
3.3,1.5,95
3.45,-1.5,80
3.45,-1.35,80
3.45,-1.2,81
3.45,-1.05,82
3.45,-0.9,83
3.45,-0.75,87
3.45,-0.6,94
3.45,-0.45,122
3.45,-0.3,78
3.45,-0.15,36
3.45,0.0,7
3.45,0.15,47
3.45,0.3,82
3.45,0.45,144
3.45,0.6,232
3.45,0.75,224
3.45,0.9,119
3.45,1.05,102
3.45,1.2,98
3.45,1.35,95
3.45,1.5,95
3.6,-1.5,83
3.6,-1.35,83
3.6,-1.2,83
3.6,-1.05,83
3.6,-0.9,84
3.6,-0.75,89
3.6,-0.6,100
3.6,-0.45,85
3.6,-0.3,82
3.6,-0.15,72
3.6,0.0,57
3.6,0.15,30
3.6,0.3,119
3.6,0.45,203
3.6,0.6,135
3.6,0.75,63
3.6,0.9,37
3.6,1.05,83
3.6,1.2,93
3.6,1.35,97
3.6,1.5,99
3.75,-1.5,95
3.75,-1.35,93
3.75,-1.2,95
3.75,-1.05,91
3.75,-0.9,86
3.75,-0.75,78
3.75,-0.6,91
3.75,-0.45,124
3.75,-0.3,168
3.75,-0.15,232
3.75,0.0,99
3.75,0.15,68
3.75,0.3,160
3.75,0.45,121
3.75,0.6,102
3.75,0.75,76
3.75,0.9,67
3.75,1.05,76
3.75,1.2,85
3.75,1.35,97
3.75,1.5,101
3.9,-1.5,121
3.9,-1.35,104
3.9,-1.2,100
3.9,-1.05,95
3.9,-0.9,91
3.9,-0.75,71
3.9,-0.6,69
3.9,-0.45,81
3.9,-0.3,106
3.9,-0.15,249
3.9,0.0,68
3.9,0.15,81
3.9,0.3,105
3.9,0.45,50
3.9,0.6,68
3.9,0.75,67
3.9,0.9,72
3.9,1.05,96
3.9,1.2,103
3.9,1.35,108
3.9,1.5,113
4.05,-1.5,110
4.05,-1.35,108
4.05,-1.2,105
4.05,-1.05,100
4.05,-0.9,92
4.05,-0.75,79
4.05,-0.6,55
4.05,-0.45,63
4.05,-0.3,122
4.05,-0.15,129
4.05,0.0,163
4.05,0.15,86
4.05,0.3,65
4.05,0.45,217
4.05,0.6,92
4.05,0.75,96
4.05,0.9,90
4.05,1.05,77
4.05,1.2,75
4.05,1.35,96
4.05,1.5,100
4.2,-1.5,77
4.2,-1.35,93
4.2,-1.2,76
4.2,-1.05,80
4.2,-0.9,85
4.2,-0.75,102
4.2,-0.6,98
4.2,-0.45,131
4.2,-0.3,168
4.2,-0.15,79
4.2,0.0,163
4.2,0.15,90
4.2,0.3,81
4.2,0.45,107
4.2,0.6,92
4.2,0.75,118
4.2,0.9,96
4.2,1.05,64
4.2,1.2,69
4.2,1.35,75
4.2,1.5,79
4.35,-1.5,77
4.35,-1.35,93
4.35,-1.2,93
4.35,-1.05,93
4.35,-0.9,90
4.35,-0.75,95
4.35,-0.6,111
4.35,-0.45,143
4.35,-0.3,208
4.35,-0.15,80
4.35,0.0,33
4.35,0.15,111
4.35,0.3,98
4.35,0.45,92
4.35,0.6,150
4.35,0.75,232
4.35,0.9,88
4.35,1.05,13
4.35,1.2,58
4.35,1.35,79
4.35,1.5,90
4.5,-1.5,72
4.5,-1.35,72
4.5,-1.2,73
4.5,-1.05,77
4.5,-0.9,75
4.5,-0.75,78
4.5,-0.6,90
4.5,-0.45,105
4.5,-0.3,101
4.5,-0.15,60
4.5,0.0,65
4.5,0.15,119
4.5,0.3,252
4.5,0.45,192
4.5,0.6,177
4.5,0.75,205
4.5,0.9,136
4.5,1.05,68
4.5,1.2,97
4.5,1.35,120
4.5,1.5,104
4.65,-1.5,85
4.65,-1.35,71
4.65,-1.2,71
4.65,-1.05,71
4.65,-0.9,71
4.65,-0.75,81
4.65,-0.6,72
4.65,-0.45,72
4.65,-0.3,89
4.65,-0.15,119
4.65,0.0,88
4.65,0.15,65
4.65,0.3,135
4.65,0.45,255
4.65,0.6,125
4.65,0.75,158
4.65,0.9,143
4.65,1.05,119
4.65,1.2,89
4.65,1.35,98
4.65,1.5,92
4.8,-1.5,52
4.8,-1.35,66
4.8,-1.2,65
4.8,-1.05,75
4.8,-0.9,75
4.8,-0.75,48
4.8,-0.6,45
4.8,-0.45,39
4.8,-0.3,58
4.8,-0.15,82
4.8,0.0,187
4.8,0.15,255
4.8,0.3,223
4.8,0.45,139
4.8,0.6,137
4.8,0.75,139
4.8,0.9,116
4.8,1.05,108
4.8,1.2,93
4.8,1.35,92
4.8,1.5,93
4.95,-1.5,45
4.95,-1.35,45
4.95,-1.2,45
4.95,-1.05,45
4.95,-0.9,45
4.95,-0.75,41
4.95,-0.6,22
4.95,-0.45,6
4.95,-0.3,24
4.95,-0.15,46
4.95,0.0,110
4.95,0.15,116
4.95,0.3,17
4.95,0.45,141
4.95,0.6,88
4.95,0.75,81
4.95,0.9,88
4.95,1.05,100
4.95,1.2,89
4.95,1.35,90
4.95,1.5,92
5.1,-1.5,49
5.1,-1.35,49
5.1,-1.2,45
5.1,-1.05,45
5.1,-0.9,45
5.1,-0.75,43
5.1,-0.6,34
5.1,-0.45,21
5.1,-0.3,3
5.1,-0.15,32
5.1,0.0,67
5.1,0.15,255
5.1,0.3,151
5.1,0.45,59
5.1,0.6,78
5.1,0.75,67
5.1,0.9,71
5.1,1.05,74
5.1,1.2,66
5.1,1.35,66
5.1,1.5,83
5.25,-1.5,49
5.25,-1.35,45
5.25,-1.2,51
5.25,-1.05,52
5.25,-0.9,50
5.25,-0.75,51
5.25,-0.6,53
5.25,-0.45,35
5.25,-0.3,13
5.25,-0.15,59
5.25,0.0,17
5.25,0.15,64
5.25,0.3,107
5.25,0.45,103
5.25,0.6,120
5.25,0.75,47
5.25,0.9,51
5.25,1.05,66
5.25,1.2,79
5.25,1.35,83
5.25,1.5,86
5.4,-1.5,59
5.4,-1.35,55
5.4,-1.2,51
5.4,-1.05,50
5.4,-0.9,53
5.4,-0.75,64
5.4,-0.6,105
5.4,-0.45,73
5.4,-0.3,17
5.4,-0.15,63
5.4,0.0,70
5.4,0.15,42
5.4,0.3,77
5.4,0.45,115
5.4,0.6,176
5.4,0.75,72
5.4,0.9,17
5.4,1.05,66
5.4,1.2,83
5.4,1.35,87
5.4,1.5,91
5.55,-1.5,63
5.55,-1.35,63
5.55,-1.2,62
5.55,-1.05,61
5.55,-0.9,59
5.55,-0.75,49
5.55,-0.6,70
5.55,-0.45,93
5.55,-0.3,46
5.55,-0.15,59
5.55,0.0,26
5.55,0.15,227
5.55,0.3,87
5.55,0.45,87
5.55,0.6,117
5.55,0.75,98
5.55,0.9,89
5.55,1.05,97
5.55,1.2,94
5.55,1.35,98
5.55,1.5,100
5.7,-1.5,67
5.7,-1.35,66
5.7,-1.2,61
5.7,-1.05,59
5.7,-0.9,54
5.7,-0.75,36
5.7,-0.6,29
5.7,-0.45,39
5.7,-0.3,43
5.7,-0.15,59
5.7,0.0,63
5.7,0.15,99
5.7,0.3,80
5.7,0.45,87
5.7,0.6,107
5.7,0.75,131
5.7,0.9,136
5.7,1.05,114
5.7,1.2,108
5.7,1.35,119
5.7,1.5,119
5.85,-1.5,71
5.85,-1.35,70
5.85,-1.2,68
5.85,-1.05,65
5.85,-0.9,50
5.85,-0.75,50
5.85,-0.6,61
5.85,-0.45,56
5.85,-0.3,39
5.85,-0.15,43
5.85,0.0,88
5.85,0.15,149
5.85,0.3,63
5.85,0.45,143
5.85,0.6,99
5.85,0.75,204
5.85,0.9,169
5.85,1.05,131
5.85,1.2,119
5.85,1.35,114
5.85,1.5,111
6.0,-1.5,75
6.0,-1.35,70
6.0,-1.2,57
6.0,-1.05,57
6.0,-0.9,58
6.0,-0.75,60
6.0,-0.6,62
6.0,-0.45,77
6.0,-0.3,0
6.0,-0.15,37
6.0,0.0,61
6.0,0.15,186
6.0,0.3,100
6.0,0.45,62
6.0,0.6,99
6.0,0.75,145
6.0,0.9,147
6.0,1.05,132
6.0,1.2,116
6.0,1.35,110
6.0,1.5,106
6.15,-1.5,54
6.15,-1.35,54
6.15,-1.2,55
6.15,-1.05,56
6.15,-0.9,58
6.15,-0.75,71
6.15,-0.6,78
6.15,-0.45,128
6.15,-0.3,49
6.15,-0.15,19
6.15,0.0,26
6.15,0.15,7
6.15,0.3,2
6.15,0.45,91
6.15,0.6,35
6.15,0.75,100
6.15,0.9,126
6.15,1.05,130
6.15,1.2,127
6.15,1.35,124
6.15,1.5,116
6.3,-1.5,49
6.3,-1.35,49
6.3,-1.2,50
6.3,-1.05,68
6.3,-0.9,69
6.3,-0.75,71
6.3,-0.6,69
6.3,-0.45,64
6.3,-0.3,92
6.3,-0.15,29
6.3,0.0,66
6.3,0.15,80
6.3,0.3,13
6.3,0.45,62
6.3,0.6,16
6.3,0.75,116
6.3,0.9,152
6.3,1.05,145
6.3,1.2,138
6.3,1.35,126
6.3,1.5,124
6.45,-1.5,48
6.45,-1.35,77
6.45,-1.2,91
6.45,-1.05,90
6.45,-0.9,88
6.45,-0.75,81
6.45,-0.6,74
6.45,-0.45,50
6.45,-0.3,50
6.45,-0.15,67
6.45,0.0,196
6.45,0.15,68
6.45,0.3,131
6.45,0.45,124
6.45,0.6,60
6.45,0.75,142
6.45,0.9,169
6.45,1.05,130
6.45,1.2,118
6.45,1.35,113
6.45,1.5,114
6.6,-1.5,63
6.6,-1.35,68
6.6,-1.2,68
6.6,-1.05,86
6.6,-0.9,85
6.6,-0.75,81
6.6,-0.6,80
6.6,-0.45,51
6.6,-0.3,71
6.6,-0.15,66
6.6,0.0,77
6.6,0.15,68
6.6,0.3,108
6.6,0.45,51
6.6,0.6,21
6.6,0.75,102
6.6,0.9,119
6.6,1.05,108
6.6,1.2,103
6.6,1.35,114
6.6,1.5,111
6.75,-1.5,68
6.75,-1.35,68
6.75,-1.2,73
6.75,-1.05,64
6.75,-0.9,61
6.75,-0.75,83
6.75,-0.6,86
6.75,-0.45,115
6.75,-0.3,191
6.75,-0.15,115
6.75,0.0,41
6.75,0.15,158
6.75,0.3,67
6.75,0.45,101
6.75,0.6,191
6.75,0.75,143
6.75,0.9,121
6.75,1.05,102
6.75,1.2,97
6.75,1.35,111
6.75,1.5,104
6.9,-1.5,71
6.9,-1.35,71
6.9,-1.2,71
6.9,-1.05,71
6.9,-0.9,70
6.9,-0.75,61
6.9,-0.6,60
6.9,-0.45,57
6.9,-0.3,87
6.9,-0.15,66
6.9,0.0,4
6.9,0.15,18
6.9,0.3,36
6.9,0.45,86
6.9,0.6,110
6.9,0.75,130
6.9,0.9,128
6.9,1.05,124
6.9,1.2,120
6.9,1.35,117
6.9,1.5,100
7.05,-1.5,50
7.05,-1.35,50
7.05,-1.2,50
7.05,-1.05,50
7.05,-0.9,50
7.05,-0.75,49
7.05,-0.6,43
7.05,-0.45,27
7.05,-0.3,60
7.05,-0.15,132
7.05,0.0,76
7.05,0.15,76
7.05,0.3,49
7.05,0.45,162
7.05,0.6,85
7.05,0.75,103
7.05,0.9,105
7.05,1.05,97
7.05,1.2,88
7.05,1.35,87
7.05,1.5,88
7.2,-1.5,56
7.2,-1.35,55
7.2,-1.2,58
7.2,-1.05,58
7.2,-0.9,53
7.2,-0.75,44
7.2,-0.6,47
7.2,-0.45,37
7.2,-0.3,49
7.2,-0.15,15
7.2,0.0,24
7.2,0.15,47
7.2,0.3,46
7.2,0.45,25
7.2,0.6,147
7.2,0.75,101
7.2,0.9,72
7.2,1.05,65
7.2,1.2,72
7.2,1.35,74
7.2,1.5,77
7.35,-1.5,55
7.35,-1.35,57
7.35,-1.2,57
7.35,-1.05,56
7.35,-0.9,58
7.35,-0.75,55
7.35,-0.6,67
7.35,-0.45,94
7.35,-0.3,47
7.35,-0.15,33
7.35,0.0,39
7.35,0.15,25
7.35,0.3,25
7.35,0.45,86
7.35,0.6,90
7.35,0.75,53
7.35,0.9,49
7.35,1.05,58
7.35,1.2,61
7.35,1.35,61
7.35,1.5,73
7.5,-1.5,58
7.5,-1.35,58
7.5,-1.2,58
7.5,-1.05,58
7.5,-0.9,56
7.5,-0.75,47
7.5,-0.6,0
7.5,-0.45,70
7.5,-0.3,43
7.5,-0.15,20
7.5,0.0,23
7.5,0.15,80
7.5,0.3,71
7.5,0.45,66
7.5,0.6,9
7.5,0.75,11
7.5,0.9,34
7.5,1.05,60
7.5,1.2,65
7.5,1.35,68
7.5,1.5,71
7.65,-1.5,63
7.65,-1.35,63
7.65,-1.2,63
7.65,-1.05,63
7.65,-0.9,62
7.65,-0.75,61
7.65,-0.6,73
7.65,-0.45,169
7.65,-0.3,50
7.65,-0.15,7
7.65,0.0,74
7.65,0.15,24
7.65,0.3,49
7.65,0.45,57
7.65,0.6,31
7.65,0.75,40
7.65,0.9,48
7.65,1.05,61
7.65,1.2,70
7.65,1.35,71
7.65,1.5,71
7.8,-1.5,63
7.8,-1.35,63
7.8,-1.2,63
7.8,-1.05,63
7.8,-0.9,63
7.8,-0.75,64
7.8,-0.6,76
7.8,-0.45,77
7.8,-0.3,126
7.8,-0.15,70
7.8,0.0,40
7.8,0.15,19
7.8,0.3,27
7.8,0.45,54
7.8,0.6,27
7.8,0.75,90
7.8,0.9,73
7.8,1.05,68
7.8,1.2,64
7.8,1.35,64
7.8,1.5,64
7.95,-1.5,61
7.95,-1.35,60
7.95,-1.2,60
7.95,-1.05,55
7.95,-0.9,59
7.95,-0.75,57
7.95,-0.6,51
7.95,-0.45,31
7.95,-0.3,60
7.95,-0.15,62
7.95,0.0,2
7.95,0.15,26
7.95,0.3,26
7.95,0.45,26
7.95,0.6,184
7.95,0.75,124
7.95,0.9,104
7.95,1.05,81
7.95,1.2,74
7.95,1.35,71
7.95,1.5,69
8.1,-1.5,50
8.1,-1.35,49
8.1,-1.2,48
8.1,-1.05,35
8.1,-0.9,35
8.1,-0.75,34
8.1,-0.6,34
8.1,-0.45,35
8.1,-0.3,31
8.1,-0.15,8
8.1,0.0,53
8.1,0.15,116
8.1,0.3,255
8.1,0.45,98
8.1,0.6,123
8.1,0.75,104
8.1,0.9,97
8.1,1.05,101
8.1,1.2,101
8.1,1.35,77
8.1,1.5,74
8.25,-1.5,29
8.25,-1.35,30
8.25,-1.2,30
8.25,-1.05,30
8.25,-0.9,34
8.25,-0.75,33
8.25,-0.6,35
8.25,-0.45,9
8.25,-0.3,64
8.25,-0.15,82
8.25,0.0,236
8.25,0.15,82
8.25,0.3,40
8.25,0.45,51
8.25,0.6,82
8.25,0.75,88
8.25,0.9,99
8.25,1.05,94
8.25,1.2,92
8.25,1.35,96
8.25,1.5,95
8.4,-1.5,29
8.4,-1.35,30
8.4,-1.2,29
8.4,-1.05,29
8.4,-0.9,29
8.4,-0.75,28
8.4,-0.6,34
8.4,-0.45,32
8.4,-0.3,57
8.4,-0.15,62
8.4,0.0,172
8.4,0.15,37
8.4,0.3,56
8.4,0.45,72
8.4,0.6,76
8.4,0.75,76
8.4,0.9,73
8.4,1.05,74
8.4,1.2,83
8.4,1.35,85
8.4,1.5,82
8.55,-1.5,23
8.55,-1.35,23
8.55,-1.2,23
8.55,-1.05,23
8.55,-0.9,20
8.55,-0.75,20
8.55,-0.6,29
8.55,-0.45,36
8.55,-0.3,61
8.55,-0.15,69
8.55,0.0,192
8.55,0.15,37
8.55,0.3,65
8.55,0.45,61
8.55,0.6,63
8.55,0.75,69
8.55,0.9,38
8.55,1.05,46
8.55,1.2,48
8.55,1.35,45
8.55,1.5,54
8.7,-1.5,18
8.7,-1.35,17
8.7,-1.2,22
8.7,-1.05,21
8.7,-0.9,21
8.7,-0.75,20
8.7,-0.6,31
8.7,-0.45,9
8.7,-0.3,39
8.7,-0.15,66
8.7,0.0,66
8.7,0.15,46
8.7,0.3,9
8.7,0.45,31
8.7,0.6,44
8.7,0.75,3
8.7,0.9,26
8.7,1.05,36
8.7,1.2,42
8.7,1.35,44
8.7,1.5,44
8.85,-1.5,12
8.85,-1.35,12
8.85,-1.2,16
8.85,-1.05,15
8.85,-0.9,10
8.85,-0.75,9
8.85,-0.6,5
8.85,-0.45,9
8.85,-0.3,2
8.85,-0.15,16
8.85,0.0,45
8.85,0.15,16
8.85,0.3,4
8.85,0.45,76
8.85,0.6,45
8.85,0.75,33
8.85,0.9,33
8.85,1.05,40
8.85,1.2,38
8.85,1.35,39
8.85,1.5,40
9.0,-1.5,17
9.0,-1.35,12
9.0,-1.2,7
9.0,-1.05,6
9.0,-0.9,5
9.0,-0.75,1
9.0,-0.6,0
9.0,-0.45,0
9.0,-0.3,7
9.0,-0.15,28
9.0,0.0,31
9.0,0.15,20
9.0,0.3,28
9.0,0.45,26
9.0,0.6,40
9.0,0.75,33
9.0,0.9,33
9.0,1.05,41
9.0,1.2,38
9.0,1.35,39
9.0,1.5,39
9.15,-1.5,27
9.15,-1.35,26
9.15,-1.2,36
9.15,-1.05,34
9.15,-0.9,29
9.15,-0.75,17
9.15,-0.6,3
9.15,-0.45,16
9.15,-0.3,41
9.15,-0.15,60
9.15,0.0,46
9.15,0.15,100
9.15,0.3,47
9.15,0.45,8
9.15,0.6,41
9.15,0.75,39
9.15,0.9,37
9.15,1.05,39
9.15,1.2,48
9.15,1.35,58
9.15,1.5,55
9.3,-1.5,52
9.3,-1.35,50
9.3,-1.2,51
9.3,-1.05,48
9.3,-0.9,43
9.3,-0.75,32
9.3,-0.6,21
9.3,-0.45,31
9.3,-0.3,64
9.3,-0.15,72
9.3,0.0,80
9.3,0.15,50
9.3,0.3,32
9.3,0.45,30
9.3,0.6,38
9.3,0.75,48
9.3,0.9,48
9.3,1.05,51
9.3,1.2,50
9.3,1.35,49
9.3,1.5,49
9.45,-1.5,68
9.45,-1.35,62
9.45,-1.2,60
9.45,-1.05,57
9.45,-0.9,53
9.45,-0.75,36
9.45,-0.6,13
9.45,-0.45,50
9.45,-0.3,64
9.45,-0.15,63
9.45,0.0,51
9.45,0.15,43
9.45,0.3,47
9.45,0.45,42
9.45,0.6,176
9.45,0.75,94
9.45,0.9,69
9.45,1.05,60
9.45,1.2,56
9.45,1.35,53
9.45,1.5,52
9.6,-1.5,68
9.6,-1.35,67
9.6,-1.2,67
9.6,-1.05,66
9.6,-0.9,65
9.6,-0.75,64
9.6,-0.6,64
9.6,-0.45,97
9.6,-0.3,97
9.6,-0.15,108
9.6,0.0,119
9.6,0.15,68
9.6,0.3,59
9.6,0.45,72
9.6,0.6,148
9.6,0.75,100
9.6,0.9,81
9.6,1.05,73
9.6,1.2,68
9.6,1.35,61
9.6,1.5,54
9.75,-1.5,84
9.75,-1.35,84
9.75,-1.2,88
9.75,-1.05,87
9.75,-0.9,79
9.75,-0.75,80
9.75,-0.6,82
9.75,-0.45,94
9.75,-0.3,76
9.75,-0.15,86
9.75,0.0,156
9.75,0.15,122
9.75,0.3,74
9.75,0.45,76
9.75,0.6,73
9.75,0.75,75
9.75,0.9,86
9.75,1.05,75
9.75,1.2,73
9.75,1.35,67
9.75,1.5,65
9.9,-1.5,100
9.9,-1.35,89
9.9,-1.2,95
9.9,-1.05,100
9.9,-0.9,103
9.9,-0.75,100
9.9,-0.6,114
9.9,-0.45,130
9.9,-0.3,99
9.9,-0.15,71
9.9,0.0,141
9.9,0.15,111
9.9,0.3,94
9.9,0.45,64
9.9,0.6,75
9.9,0.75,79
9.9,0.9,87
9.9,1.05,84
9.9,1.2,84
9.9,1.35,83
9.9,1.5,83
10.05,-1.5,108
10.05,-1.35,110
10.05,-1.2,115
10.05,-1.05,116
10.05,-0.9,114
10.05,-0.75,110
10.05,-0.6,142
10.05,-0.45,205
10.05,-0.3,127
10.05,-0.15,139
10.05,0.0,132
10.05,0.15,94
10.05,0.3,96
10.05,0.45,70
10.05,0.6,82
10.05,0.75,87
10.05,0.9,87
10.05,1.05,89
10.05,1.2,90
10.05,1.35,91
10.05,1.5,91
10.2,-1.5,111
10.2,-1.35,112
10.2,-1.2,114
10.2,-1.05,117
10.2,-0.9,121
10.2,-0.75,131
10.2,-0.6,153
10.2,-0.45,182
10.2,-0.3,240
10.2,-0.15,66
10.2,0.0,95
10.2,0.15,106
10.2,0.3,244
10.2,0.45,126
10.2,0.6,102
10.2,0.75,89
10.2,0.9,101
10.2,1.05,103
10.2,1.2,105
10.2,1.35,106
10.2,1.5,107
10.35,-1.5,120
10.35,-1.35,121
10.35,-1.2,122
10.35,-1.05,116
10.35,-0.9,113
10.35,-0.75,120
10.35,-0.6,129
10.35,-0.45,159
10.35,-0.3,216
10.35,-0.15,85
10.35,0.0,80
10.35,0.15,105
10.35,0.3,87
10.35,0.45,109
10.35,0.6,102
10.35,0.75,93
10.35,0.9,93
10.35,1.05,93
10.35,1.2,93
10.35,1.35,105
10.35,1.5,106
10.5,-1.5,128
10.5,-1.35,128
10.5,-1.2,128
10.5,-1.05,120
10.5,-0.9,118
10.5,-0.75,113
10.5,-0.6,97
10.5,-0.45,68
10.5,-0.3,121
10.5,-0.15,13
10.5,0.0,49
10.5,0.15,118
10.5,0.3,127
10.5,0.45,22
10.5,0.6,79
10.5,0.75,97
10.5,0.9,93
10.5,1.05,93
10.5,1.2,93
10.5,1.35,93
10.5,1.5,105
10.65,-1.5,121
10.65,-1.35,121
10.65,-1.2,120
10.65,-1.05,119
10.65,-0.9,115
10.65,-0.75,102
10.65,-0.6,79
10.65,-0.45,37
10.65,-0.3,74
10.65,-0.15,165
10.65,0.0,131
10.65,0.15,128
10.65,0.3,205
10.65,0.45,126
10.65,0.6,92
10.65,0.75,100
10.65,0.9,100
10.65,1.05,102
10.65,1.2,94
10.65,1.35,94
10.65,1.5,94
10.8,-1.5,117
10.8,-1.35,116
10.8,-1.2,115
10.8,-1.05,114
10.8,-0.9,111
10.8,-0.75,102
10.8,-0.6,96
10.8,-0.45,94
10.8,-0.3,126
10.8,-0.15,55
10.8,0.0,189
10.8,0.15,181
10.8,0.3,128
10.8,0.45,77
10.8,0.6,86
10.8,0.75,100
10.8,0.9,108
10.8,1.05,113
10.8,1.2,105
10.8,1.35,106
10.8,1.5,107
10.95,-1.5,113
10.95,-1.35,95
10.95,-1.2,95
10.95,-1.05,95
10.95,-0.9,96
10.95,-0.75,98
10.95,-0.6,103
10.95,-0.45,122
10.95,-0.3,137
10.95,-0.15,129
10.95,0.0,149
10.95,0.15,161
10.95,0.3,129
10.95,0.45,90
10.95,0.6,86
10.95,0.75,104
10.95,0.9,110
10.95,1.05,114
10.95,1.2,116
10.95,1.35,117
10.95,1.5,107
11.1,-1.5,80
11.1,-1.35,91
11.1,-1.2,91
11.1,-1.05,91
11.1,-0.9,83
11.1,-0.75,87
11.1,-0.6,91
11.1,-0.45,100
11.1,-0.3,116
11.1,-0.15,113
11.1,0.0,75
11.1,0.15,111
11.1,0.3,131
11.1,0.45,117
11.1,0.6,107
11.1,0.75,106
11.1,0.9,106
11.1,1.05,114
11.1,1.2,116
11.1,1.35,117
11.1,1.5,118
11.25,-1.5,77
11.25,-1.35,76
11.25,-1.2,75
11.25,-1.05,67
11.25,-0.9,70
11.25,-0.75,76
11.25,-0.6,80
11.25,-0.45,86
11.25,-0.3,111
11.25,-0.15,77
11.25,0.0,85
11.25,0.15,121
11.25,0.3,174
11.25,0.45,142
11.25,0.6,116
11.25,0.75,107
11.25,0.9,106
11.25,1.05,106
11.25,1.2,107
11.25,1.35,107
11.25,1.5,118
11.4,-1.5,77
11.4,-1.35,75
11.4,-1.2,75
11.4,-1.05,70
11.4,-0.9,59
11.4,-0.75,66
11.4,-0.6,81
11.4,-0.45,106
11.4,-0.3,186
11.4,-0.15,86
11.4,0.0,88
11.4,0.15,146
11.4,0.3,255
11.4,0.45,144
11.4,0.6,96
11.4,0.75,99
11.4,0.9,103
11.4,1.05,105
11.4,1.2,106
11.4,1.35,107
11.4,1.5,104
11.55,-1.5,88
11.55,-1.35,83
11.55,-1.2,76
11.55,-1.05,67
11.55,-0.9,48
11.55,-0.75,33
11.55,-0.6,68
11.55,-0.45,101
11.55,-0.3,97
11.55,-0.15,81
11.55,0.0,84
11.55,0.15,115
11.55,0.3,112
11.55,0.45,75
11.55,0.6,69
11.55,0.75,87
11.55,0.9,95
11.55,1.05,103
11.55,1.2,105
11.55,1.35,103
11.55,1.5,102
11.7,-1.5,77
11.7,-1.35,74
11.7,-1.2,78
11.7,-1.05,63
11.7,-0.9,33
11.7,-0.75,0
11.7,-0.6,43
11.7,-0.45,53
11.7,-0.3,38
11.7,-0.15,69
11.7,0.0,78
11.7,0.15,94
11.7,0.3,85
11.7,0.45,77
11.7,0.6,78
11.7,0.75,81
11.7,0.9,93
11.7,1.05,85
11.7,1.2,85
11.7,1.35,83
11.7,1.5,85
11.85,-1.5,78
11.85,-1.35,77
11.85,-1.2,73
11.85,-1.05,65
11.85,-0.9,51
11.85,-0.75,42
11.85,-0.6,60
11.85,-0.45,67
11.85,-0.3,63
11.85,-0.15,63
11.85,0.0,71
11.85,0.15,79
11.85,0.3,83
11.85,0.45,83
11.85,0.6,83
11.85,0.75,81
11.85,0.9,75
11.85,1.05,81
11.85,1.2,80
11.85,1.35,79
11.85,1.5,74
12.0,-1.5,79
12.0,-1.35,80
12.0,-1.2,81
12.0,-1.05,80
12.0,-0.9,80
12.0,-0.75,85
12.0,-0.6,93
12.0,-0.45,89
12.0,-0.3,63
12.0,-0.15,37
12.0,0.0,57
12.0,0.15,71
12.0,0.3,79
12.0,0.45,77
12.0,0.6,80
12.0,0.75,75
12.0,0.9,76
12.0,1.05,77
12.0,1.2,76
12.0,1.35,74
12.0,1.5,72
12.15,-1.5,76
12.15,-1.35,80
12.15,-1.2,84
12.15,-1.05,91
12.15,-0.9,101
12.15,-0.75,120
12.15,-0.6,140
12.15,-0.45,130
12.15,-0.3,71
12.15,-0.15,0
12.15,0.0,40
12.15,0.15,50
12.15,0.3,65
12.15,0.45,77
12.15,0.6,76
12.15,0.75,68
12.15,0.9,68
12.15,1.05,70
12.15,1.2,67
12.15,1.35,68
12.15,1.5,65
12.3,-1.5,73
12.3,-1.35,79
12.3,-1.2,87
12.3,-1.05,98
12.3,-0.9,114
12.3,-0.75,142
12.3,-0.6,202
12.3,-0.45,203
12.3,-0.3,122
12.3,-0.15,74
12.3,0.0,20
12.3,0.15,20
12.3,0.3,52
12.3,0.45,64
12.3,0.6,69
12.3,0.75,72
12.3,0.9,72
12.3,1.05,64
12.3,1.2,61
12.3,1.35,57
12.3,1.5,54
12.45,-1.5,64
12.45,-1.35,72
12.45,-1.2,84
12.45,-1.05,97
12.45,-0.9,114
12.45,-0.75,136
12.45,-0.6,171
12.45,-0.45,149
12.45,-0.3,163
12.45,-0.15,104
12.45,0.0,35
12.45,0.15,29
12.45,0.3,53
12.45,0.45,61
12.45,0.6,68
12.45,0.75,70
12.45,0.9,68
12.45,1.05,64
12.45,1.2,60
12.45,1.35,54
12.45,1.5,42
12.6,-1.5,48
12.6,-1.35,59
12.6,-1.2,74
12.6,-1.05,90
12.6,-0.9,103
12.6,-0.75,111
12.6,-0.6,109
12.6,-0.45,109
12.6,-0.3,117
12.6,-0.15,101
12.6,0.0,71
12.6,0.15,62
12.6,0.3,60
12.6,0.45,65
12.6,0.6,68
12.6,0.75,68
12.6,0.9,64
12.6,1.05,57
12.6,1.2,47
12.6,1.35,39
12.6,1.5,33
12.75,-1.5,25
12.75,-1.35,37
12.75,-1.2,60
12.75,-1.05,80
12.75,-0.9,92
12.75,-0.75,93
12.75,-0.6,75
12.75,-0.45,68
12.75,-0.3,94
12.75,-0.15,94
12.75,0.0,83
12.75,0.15,74
12.75,0.3,70
12.75,0.45,70
12.75,0.6,69
12.75,0.75,66
12.75,0.9,59
12.75,1.05,49
12.75,1.2,34
12.75,1.35,20
12.75,1.5,14
12.9,-1.5,3
12.9,-1.35,16
12.9,-1.2,44
12.9,-1.05,70
12.9,-0.9,84
12.9,-0.75,86
12.9,-0.6,80
12.9,-0.45,79
12.9,-0.3,88
12.9,-0.15,90
12.9,0.0,86
12.9,0.15,73
12.9,0.3,74
12.9,0.45,73
12.9,0.6,70
12.9,0.75,65
12.9,0.9,56
12.9,1.05,42
12.9,1.2,24
12.9,1.35,7
12.9,1.5,1
13.05,-1.5,0
13.05,-1.35,11
13.05,-1.2,38
13.05,-1.05,63
13.05,-0.9,78
13.05,-0.75,84
13.05,-0.6,84
13.05,-0.45,85
13.05,-0.3,87
13.05,-0.15,87
13.05,0.0,78
13.05,0.15,74
13.05,0.3,74
13.05,0.45,74
13.05,0.6,70
13.05,0.75,64
13.05,0.9,54
13.05,1.05,39
13.05,1.2,21
13.05,1.35,5
13.05,1.5,0
