-3.0,-1.5,0
-3.0,-1.35,4
-3.0,-1.2,21
-3.0,-1.05,34
-3.0,-0.9,40
-3.0,-0.75,42
-3.0,-0.6,42
-3.0,-0.45,43
-3.0,-0.3,45
-3.0,-0.15,45
-3.0,0.0,44
-3.0,0.15,38
-3.0,0.3,33
-3.0,0.45,21
-3.0,0.6,12
-3.0,0.75,12
-3.0,0.9,17
-3.0,1.05,17
-3.0,1.2,11
-3.0,1.35,1
-3.0,1.5,0
-2.85,-1.5,4
-2.85,-1.35,13
-2.85,-1.2,28
-2.85,-1.05,38
-2.85,-0.9,42
-2.85,-0.75,42
-2.85,-0.6,40
-2.85,-0.45,41
-2.85,-0.3,44
-2.85,-0.15,47
-2.85,0.0,45
-2.85,0.15,44
-2.85,0.3,33
-2.85,0.45,14
-2.85,0.6,0
-2.85,0.75,3
-2.85,0.9,14
-2.85,1.05,19
-2.85,1.2,14
-2.85,1.35,5
-2.85,1.5,1
-2.7,-1.5,25
-2.7,-1.35,32
-2.7,-1.2,37
-2.7,-1.05,43
-2.7,-0.9,46
-2.7,-0.75,46
-2.7,-0.6,33
-2.7,-0.45,36
-2.7,-0.3,44
-2.7,-0.15,49
-2.7,0.0,49
-2.7,0.15,49
-2.7,0.3,38
-2.7,0.45,18
-2.7,0.6,1
-2.7,0.75,4
-2.7,0.9,16
-2.7,1.05,22
-2.7,1.2,21
-2.7,1.35,15
-2.7,1.5,11
-2.55,-1.5,44
-2.55,-1.35,47
-2.55,-1.2,50
-2.55,-1.05,47
-2.55,-0.9,47
-2.55,-0.75,57
-2.55,-0.6,4
-2.55,-0.45,31
-2.55,-0.3,46
-2.55,-0.15,52
-2.55,0.0,57
-2.55,0.15,56
-2.55,0.3,50
-2.55,0.45,36
-2.55,0.6,21
-2.55,0.75,20
-2.55,0.9,25
-2.55,1.05,29
-2.55,1.2,29
-2.55,1.35,25
-2.55,1.5,23
-2.4,-1.5,57
-2.4,-1.35,58
-2.4,-1.2,59
-2.4,-1.05,56
-2.4,-0.9,47
-2.4,-0.75,36
-2.4,-0.6,25
-2.4,-0.45,42
-2.4,-0.3,53
-2.4,-0.15,57
-2.4,0.0,61
-2.4,0.15,60
-2.4,0.3,58
-2.4,0.45,51
-2.4,0.6,42
-2.4,0.75,38
-2.4,0.9,37
-2.4,1.05,38
-2.4,1.2,37
-2.4,1.35,35
-2.4,1.5,34
-2.25,-1.5,67
-2.25,-1.35,68
-2.25,-1.2,69
-2.25,-1.05,66
-2.25,-0.9,61
-2.25,-0.75,55
-2.25,-0.6,52
-2.25,-0.45,58
-2.25,-0.3,61
-2.25,-0.15,63
-2.25,0.0,62
-2.25,0.15,61
-2.25,0.3,61
-2.25,0.45,58
-2.25,0.6,54
-2.25,0.75,50
-2.25,0.9,48
-2.25,1.05,47
-2.25,1.2,46
-2.25,1.35,44
-2.25,1.5,37
-2.1,-1.5,81
-2.1,-1.35,83
-2.1,-1.2,80
-2.1,-1.05,81
-2.1,-0.9,80
-2.1,-0.75,75
-2.1,-0.6,67
-2.1,-0.45,64
-2.1,-0.3,63
-2.1,-0.15,67
-2.1,0.0,65
-2.1,0.15,62
-2.1,0.3,62
-2.1,0.45,62
-2.1,0.6,61
-2.1,0.75,59
-2.1,0.9,57
-2.1,1.05,55
-2.1,1.2,46
-2.1,1.35,45
-2.1,1.5,43
-1.95,-1.5,85
-1.95,-1.35,89
-1.95,-1.2,95
-1.95,-1.05,103
-1.95,-0.9,103
-1.95,-0.75,97
-1.95,-0.6,83
-1.95,-0.45,77
-1.95,-0.3,75
-1.95,-0.15,74
-1.95,0.0,70
-1.95,0.15,65
-1.95,0.3,64
-1.95,0.45,66
-1.95,0.6,66
-1.95,0.75,65
-1.95,0.9,64
-1.95,1.05,62
-1.95,1.2,50
-1.95,1.35,48
-1.95,1.5,47
-1.8,-1.5,84
-1.8,-1.35,87
-1.8,-1.2,99
-1.8,-1.05,119
-1.8,-0.9,141
-1.8,-0.75,124
-1.8,-0.6,77
-1.8,-0.45,78
-1.8,-0.3,91
-1.8,-0.15,90
-1.8,0.0,85
-1.8,0.15,78
-1.8,0.3,71
-1.8,0.45,72
-1.8,0.6,72
-1.8,0.75,72
-1.8,0.9,62
-1.8,1.05,68
-1.8,1.2,55
-1.8,1.35,53
-1.8,1.5,61
-1.65,-1.5,77
-1.65,-1.35,76
-1.65,-1.2,93
-1.65,-1.05,131
-1.65,-0.9,195
-1.65,-0.75,215
-1.65,-0.6,99
-1.65,-0.45,96
-1.65,-0.3,109
-1.65,-0.15,109
-1.65,0.0,97
-1.65,0.15,92
-1.65,0.3,90
-1.65,0.45,89
-1.65,0.6,89
-1.65,0.75,77
-1.65,0.9,76
-1.65,1.05,75
-1.65,1.2,59
-1.65,1.35,68
-1.65,1.5,62
-1.5,-1.5,73
-1.5,-1.35,62
-1.5,-1.2,74
-1.5,-1.05,107
-1.5,-0.9,180
-1.5,-0.75,210
-1.5,-0.6,140
-1.5,-0.45,125
-1.5,-0.3,123
-1.5,-0.15,121
-1.5,0.0,119
-1.5,0.15,109
-1.5,0.3,113
-1.5,0.45,111
-1.5,0.6,98
-1.5,0.75,84
-1.5,0.9,82
-1.5,1.05,76
-1.5,1.2,74
-1.5,1.35,68
-1.5,1.5,66
-1.35,-1.5,78
-1.35,-1.35,68
-1.35,-1.2,61
-1.35,-1.05,39
-1.35,-0.9,102
-1.35,-0.75,142
-1.35,-0.6,136
-1.35,-0.45,128
-1.35,-0.3,129
-1.35,-0.15,132
-1.35,0.0,125
-1.35,0.15,120
-1.35,0.3,125
-1.35,0.45,112
-1.35,0.6,106
-1.35,0.75,89
-1.35,0.9,86
-1.35,1.05,80
-1.35,1.2,73
-1.35,1.35,71
-1.35,1.5,81
-1.2,-1.5,94
-1.2,-1.35,82
-1.2,-1.2,51
-1.2,-1.05,6
-1.2,-0.9,80
-1.2,-0.75,134
-1.2,-0.6,137
-1.2,-0.45,140
-1.2,-0.3,139
-1.2,-0.15,147
-1.2,0.0,155
-1.2,0.15,155
-1.2,0.3,141
-1.2,0.45,134
-1.2,0.6,130
-1.2,0.75,111
-1.2,0.9,120
-1.2,1.05,118
-1.2,1.2,92
-1.2,1.35,82
-1.2,1.5,80
-1.05,-1.5,110
-1.05,-1.35,103
-1.05,-1.2,93
-1.05,-1.05,96
-1.05,-0.9,139
-1.05,-0.75,161
-1.05,-0.6,154
-1.05,-0.45,138
-1.05,-0.3,154
-1.05,-0.15,186
-1.05,0.0,178
-1.05,0.15,164
-1.05,0.3,144
-1.05,0.45,133
-1.05,0.6,127
-1.05,0.75,123
-1.05,0.9,130
-1.05,1.05,130
-1.05,1.2,126
-1.05,1.35,125
-1.05,1.5,121
-0.9,-1.5,126
-0.9,-1.35,129
-0.9,-1.2,135
-0.9,-1.05,161
-0.9,-0.9,210
-0.9,-0.75,212
-0.9,-0.6,183
-0.9,-0.45,98
-0.9,-0.3,148
-0.9,-0.15,250
-0.9,0.0,196
-0.9,0.15,161
-0.9,0.3,150
-0.9,0.45,141
-0.9,0.6,136
-0.9,0.75,130
-0.9,0.9,128
-0.9,1.05,126
-0.9,1.2,125
-0.9,1.35,125
-0.9,1.5,125
-0.75,-1.5,137
-0.75,-1.35,144
-0.75,-1.2,157
-0.75,-1.05,185
-0.75,-0.9,223
-0.75,-0.75,223
-0.75,-0.6,246
-0.75,-0.45,133
-0.75,-0.3,125
-0.75,-0.15,169
-0.75,0.0,163
-0.75,0.15,152
-0.75,0.3,146
-0.75,0.45,141
-0.75,0.6,138
-0.75,0.75,135
-0.75,0.9,125
-0.75,1.05,124
-0.75,1.2,124
-0.75,1.35,120
-0.75,1.5,120
-0.6,-1.5,156
-0.6,-1.35,163
-0.6,-1.2,174
-0.6,-1.05,187
-0.6,-0.9,201
-0.6,-0.75,193
-0.6,-0.6,162
-0.6,-0.45,110
-0.6,-0.3,48
-0.6,-0.15,76
-0.6,0.0,133
-0.6,0.15,135
-0.6,0.3,136
-0.6,0.45,134
-0.6,0.6,130
-0.6,0.75,128
-0.6,0.9,116
-0.6,1.05,116
-0.6,1.2,116
-0.6,1.35,117
-0.6,1.5,128
-0.45,-1.5,163
-0.45,-1.35,169
-0.45,-1.2,177
-0.45,-1.05,192
-0.45,-0.9,206
-0.45,-0.75,239
-0.45,-0.6,112
-0.45,-0.45,95
-0.45,-0.3,131
-0.45,-0.15,153
-0.45,0.0,128
-0.45,0.15,103
-0.45,0.3,129
-0.45,0.45,124
-0.45,0.6,118
-0.45,0.75,108
-0.45,0.9,108
-0.45,1.05,118
-0.45,1.2,130
-0.45,1.35,133
-0.45,1.5,134
-0.3,-1.5,157
-0.3,-1.35,164
-0.3,-1.2,171
-0.3,-1.05,191
-0.3,-0.9,201
-0.3,-0.75,208
-0.3,-0.6,179
-0.3,-0.45,215
-0.3,-0.3,255
-0.3,-0.15,255
-0.3,0.0,252
-0.3,0.15,140
-0.3,0.3,126
-0.3,0.45,100
-0.3,0.6,89
-0.3,0.75,99
-0.3,0.9,105
-0.3,1.05,119
-0.3,1.2,125
-0.3,1.35,130
-0.3,1.5,134
-0.15,-1.5,154
-0.15,-1.35,159
-0.15,-1.2,168
-0.15,-1.05,183
-0.15,-0.9,186
-0.15,-0.75,191
-0.15,-0.6,195
-0.15,-0.45,211
-0.15,-0.3,255
-0.15,-0.15,252
-0.15,0.0,205
-0.15,0.15,167
-0.15,0.3,99
-0.15,0.45,35
-0.15,0.6,58
-0.15,0.75,78
-0.15,0.9,95
-0.15,1.05,108
-0.15,1.2,116
-0.15,1.35,141
-0.15,1.5,147
0.0,-1.5,153
0.0,-1.35,156
0.0,-1.2,159
0.0,-1.05,162
0.0,-0.9,167
0.0,-0.75,168
0.0,-0.6,173
0.0,-0.45,192
0.0,-0.3,199
0.0,-0.15,210
0.0,0.0,229
0.0,0.15,209
0.0,0.3,113
0.0,0.45,15
0.0,0.6,39
0.0,0.75,71
0.0,0.9,93
0.0,1.05,108
0.0,1.2,118
0.0,1.35,125
0.0,1.5,131
0.15,-1.5,147
0.15,-1.35,147
0.15,-1.2,147
0.15,-1.05,136
0.15,-0.9,149
0.15,-0.75,165
0.15,-0.6,176
0.15,-0.45,164
0.15,-0.3,186
0.15,-0.15,203
0.15,0.0,237
0.15,0.15,238
0.15,0.3,161
0.15,0.45,20
0.15,0.6,23
0.15,0.75,71
0.15,0.9,96
0.15,1.05,111
0.15,1.2,121
0.15,1.35,128
0.15,1.5,133
0.3,-1.5,112
0.3,-1.35,116
0.3,-1.2,127
0.3,-1.05,125
0.3,-0.9,124
0.3,-0.75,123
0.3,-0.6,123
0.3,-0.45,139
0.3,-0.3,126
0.3,-0.15,129
0.3,0.0,169
0.3,0.15,162
0.3,0.3,130
0.3,0.45,85
0.3,0.6,75
0.3,0.75,92
0.3,0.9,108
0.3,1.05,120
0.3,1.2,128
0.3,1.35,133
0.3,1.5,137
0.45,-1.5,85
0.45,-1.35,101
0.45,-1.2,99
0.45,-1.05,101
0.45,-0.9,91
0.45,-0.75,100
0.45,-0.6,105
0.45,-0.45,122
0.45,-0.3,114
0.45,-0.15,94
0.45,0.0,157
0.45,0.15,152
0.45,0.3,118
0.45,0.45,114
0.45,0.6,113
0.45,0.75,119
0.45,0.9,126
0.45,1.05,132
0.45,1.2,136
0.45,1.35,140
0.45,1.5,133
0.6,-1.5,73
0.6,-1.35,72
0.6,-1.2,60
0.6,-1.05,67
0.6,-0.9,77
0.6,-0.75,79
0.6,-0.6,70
0.6,-0.45,114
0.6,-0.3,143
0.6,-0.15,209
0.6,0.0,227
0.6,0.15,130
0.6,0.3,48
0.6,0.45,96
0.6,0.6,131
0.6,0.75,141
0.6,0.9,144
0.6,1.05,145
0.6,1.2,146
0.6,1.35,146
0.6,1.5,146
0.75,-1.5,59
0.75,-1.35,57
0.75,-1.2,55
0.75,-1.05,51
0.75,-0.9,48
0.75,-0.75,51
0.75,-0.6,73
0.75,-0.45,96
0.75,-0.3,136
0.75,-0.15,148
0.75,0.0,143
0.75,0.15,139
0.75,0.3,56
0.75,0.45,112
0.75,0.6,161
0.75,0.75,158
0.75,0.9,153
0.75,1.05,148
0.75,1.2,145
0.75,1.35,145
0.75,1.5,145
0.9,-1.5,59
0.9,-1.35,57
0.9,-1.2,43
0.9,-1.05,38
0.9,-0.9,23
0.9,-0.75,1
0.9,-0.6,56
0.9,-0.45,68
0.9,-0.3,68
0.9,-0.15,70
0.9,0.0,125
0.9,0.15,255
0.9,0.3,184
0.9,0.45,179
0.9,0.6,203
0.9,0.75,183
0.9,0.9,164
0.9,1.05,149
0.9,1.2,150
0.9,1.35,148
0.9,1.5,145
1.05,-1.5,58
1.05,-1.35,59
1.05,-1.2,54
1.05,-1.05,40
1.05,-0.9,34
1.05,-0.75,28
1.05,-0.6,52
1.05,-0.45,55
1.05,-0.3,36
1.05,-0.15,40
1.05,0.0,87
1.05,0.15,214
1.05,0.3,185
1.05,0.45,212
1.05,0.6,247
1.05,0.75,196
1.05,0.9,164
1.05,1.05,148
1.05,1.2,150
1.05,1.35,130
1.05,1.5,136
1.2,-1.5,60
1.2,-1.35,58
1.2,-1.2,54
1.2,-1.05,52
1.2,-0.9,46
1.2,-0.75,44
1.2,-0.6,65
1.2,-0.45,101
1.2,-0.3,60
1.2,-0.15,59
1.2,0.0,83
1.2,0.15,139
1.2,0.3,152
1.2,0.45,172
1.2,0.6,194
1.2,0.75,178
1.2,0.9,161
1.2,1.05,151
1.2,1.2,140
1.2,1.35,130
1.2,1.5,130
1.35,-1.5,48
1.35,-1.35,61
1.35,-1.2,58
1.35,-1.05,52
1.35,-0.9,43
1.35,-0.75,28
1.35,-0.6,54
1.35,-0.45,165
1.35,-0.3,93
1.35,-0.15,71
1.35,0.0,139
1.35,0.15,139
1.35,0.3,108
1.35,0.45,129
1.35,0.6,149
1.35,0.75,153
1.35,0.9,153
1.35,1.05,144
1.35,1.2,139
1.35,1.35,131
1.35,1.5,124
1.5,-1.5,52
1.5,-1.35,68
1.5,-1.2,67
1.5,-1.05,64
1.5,-0.9,36
1.5,-0.75,27
1.5,-0.6,60
1.5,-0.45,85
1.5,-0.3,110
1.5,-0.15,78
1.5,0.0,87
1.5,0.15,87
1.5,0.3,66
1.5,0.45,103
1.5,0.6,123
1.5,0.75,128
1.5,0.9,127
1.5,1.05,125
1.5,1.2,123
1.5,1.35,121
1.5,1.5,119
1.65,-1.5,83
1.65,-1.35,84
1.65,-1.2,86
1.65,-1.05,90
1.65,-0.9,110
1.65,-0.75,94
1.65,-0.6,92
1.65,-0.45,97
1.65,-0.3,77
1.65,-0.15,77
1.65,0.0,65
1.65,0.15,85
1.65,0.3,82
1.65,0.45,83
1.65,0.6,85
1.65,0.75,88
1.65,0.9,110
1.65,1.05,112
1.65,1.2,113
1.65,1.35,109
1.65,1.5,109
1.8,-1.5,103
1.8,-1.35,106
1.8,-1.2,104
1.8,-1.05,91
1.8,-0.9,151
1.8,-0.75,62
1.8,-0.6,248
1.8,-0.45,144
1.8,-0.3,64
1.8,-0.15,82
1.8,0.0,79
1.8,0.15,90
1.8,0.3,78
1.8,0.45,72
1.8,0.6,71
1.8,0.75,75
1.8,0.9,89
1.8,1.05,93
1.8,1.2,95
1.8,1.35,97
1.8,1.5,119
1.95,-1.5,102
1.95,-1.35,104
1.95,-1.2,111
1.95,-1.05,109
1.95,-0.9,102
1.95,-0.75,133
1.95,-0.6,95
1.95,-0.45,76
1.95,-0.3,72
1.95,-0.15,78
1.95,0.0,94
1.95,0.15,82
1.95,0.3,49
1.95,0.45,40
1.95,0.6,49
1.95,0.75,51
1.95,0.9,70
1.95,1.05,70
1.95,1.2,73
1.95,1.35,88
1.95,1.5,89
2.1,-1.5,98
2.1,-1.35,109
2.1,-1.2,113
2.1,-1.05,104
2.1,-0.9,103
2.1,-0.75,103
2.1,-0.6,93
2.1,-0.45,117
2.1,-0.3,89
2.1,-0.15,71
2.1,0.0,67
2.1,0.15,60
2.1,0.3,34
2.1,0.45,37
2.1,0.6,42
2.1,0.75,45
2.1,0.9,48
2.1,1.05,58
2.1,1.2,73
2.1,1.35,75
2.1,1.5,77
2.25,-1.5,98
2.25,-1.35,108
2.25,-1.2,127
2.25,-1.05,134
2.25,-0.9,165
2.25,-0.75,188
2.25,-0.6,93
2.25,-0.45,67
2.25,-0.3,78
2.25,-0.15,196
2.25,0.0,70
2.25,0.15,49
2.25,0.3,2
2.25,0.45,22
2.25,0.6,37
2.25,0.75,44
2.25,0.9,47
2.25,1.05,49
2.25,1.2,50
2.25,1.35,51
2.25,1.5,52
2.4,-1.5,81
2.4,-1.35,76
2.4,-1.2,78
2.4,-1.05,109
2.4,-0.9,158
2.4,-0.75,184
2.4,-0.6,221
2.4,-0.45,192
2.4,-0.3,103
2.4,-0.15,59
2.4,0.0,49
2.4,0.15,82
2.4,0.3,36
2.4,0.45,33
2.4,0.6,36
2.4,0.75,39
2.4,0.9,40
2.4,1.05,45
2.4,1.2,46
2.4,1.35,47
2.4,1.5,47
2.55,-1.5,46
2.55,-1.35,33
2.55,-1.2,26
2.55,-1.05,103
2.55,-0.9,144
2.55,-0.75,170
2.55,-0.6,118
2.55,-0.45,145
2.55,-0.3,82
2.55,-0.15,75
2.55,0.0,93
2.55,0.15,91
2.55,0.3,56
2.55,0.45,47
2.55,0.6,47
2.55,0.75,47
2.55,0.9,47
2.55,1.05,41
2.55,1.2,42
2.55,1.35,42
2.55,1.5,42
2.7,-1.5,43
2.7,-1.35,22
2.7,-1.2,10
2.7,-1.05,57
2.7,-0.9,101
2.7,-0.75,83
2.7,-0.6,37
2.7,-0.45,10
2.7,-0.3,63
2.7,-0.15,84
2.7,0.0,49
2.7,0.15,15
2.7,0.3,43
2.7,0.45,47
2.7,0.6,30
2.7,0.75,29
2.7,0.9,38
2.7,1.05,38
2.7,1.2,38
2.7,1.35,49
2.7,1.5,50
2.85,-1.5,43
2.85,-1.35,44
2.85,-1.2,43
2.85,-1.05,47
2.85,-0.9,61
2.85,-0.75,48
2.85,-0.6,34
2.85,-0.45,42
2.85,-0.3,62
2.85,-0.15,94
2.85,0.0,56
2.85,0.15,100
2.85,0.3,45
2.85,0.45,42
2.85,0.6,41
2.85,0.75,41
2.85,0.9,60
2.85,1.05,52
2.85,1.2,52
2.85,1.35,63
2.85,1.5,69
3.0,-1.5,43
3.0,-1.35,57
3.0,-1.2,52
3.0,-1.05,25
3.0,-0.9,0
3.0,-0.75,30
3.0,-0.6,47
3.0,-0.45,49
3.0,-0.3,107
3.0,-0.15,67
3.0,0.0,82
3.0,0.15,26
3.0,0.3,54
3.0,0.45,63
3.0,0.6,65
3.0,0.75,59
3.0,0.9,61
3.0,1.05,72
3.0,1.2,72
3.0,1.35,72
3.0,1.5,77
3.15,-1.5,46
3.15,-1.35,48
3.15,-1.2,41
3.15,-1.05,33
3.15,-0.9,33
3.15,-0.75,44
3.15,-0.6,60
3.15,-0.45,99
3.15,-0.3,222
3.15,-0.15,72
3.15,0.0,120
3.15,0.15,114
3.15,0.3,77
3.15,0.45,87
3.15,0.6,89
3.15,0.75,80
3.15,0.9,90
3.15,1.05,89
3.15,1.2,89
3.15,1.35,88
3.15,1.5,88
3.3,-1.5,40
3.3,-1.35,32
3.3,-1.2,38
3.3,-1.05,61
3.3,-0.9,81
3.3,-0.75,124
3.3,-0.6,126
3.3,-0.45,148
3.3,-0.3,72
3.3,-0.15,74
3.3,0.0,92
3.3,0.15,108
3.3,0.3,111
3.3,0.45,124
3.3,0.6,114
3.3,0.75,121
3.3,0.9,119
3.3,1.05,101
3.3,1.2,100
3.3,1.35,99
3.3,1.5,98
3.45,-1.5,36
3.45,-1.35,28
3.45,-1.2,0
3.45,-1.05,61
3.45,-0.9,108
3.45,-0.75,141
3.45,-0.6,228
3.45,-0.45,97
3.45,-0.3,79
3.45,-0.15,117
3.45,0.0,120
3.45,0.15,65
3.45,0.3,112
3.45,0.45,178
3.45,0.6,130
3.45,0.75,118
3.45,0.9,114
3.45,1.05,112
3.45,1.2,114
3.45,1.35,113
3.45,1.5,112
3.6,-1.5,59
3.6,-1.35,48
3.6,-1.2,45
3.6,-1.05,75
3.6,-0.9,68
3.6,-0.75,234
3.6,-0.6,134
3.6,-0.45,88
3.6,-0.3,190
3.6,-0.15,98
3.6,0.0,99
3.6,0.15,143
3.6,0.3,67
3.6,0.45,133
3.6,0.6,129
3.6,0.75,125
3.6,0.9,142
3.6,1.05,144
3.6,1.2,145
3.6,1.35,146
3.6,1.5,147
3.75,-1.5,67
3.75,-1.35,66
3.75,-1.2,80
3.75,-1.05,74
3.75,-0.9,89
3.75,-0.75,74
3.75,-0.6,67
3.75,-0.45,25
3.75,-0.3,75
3.75,-0.15,53
3.75,0.0,97
3.75,0.15,146
3.75,0.3,120
3.75,0.45,123
3.75,0.6,127
3.75,0.75,129
3.75,0.9,142
3.75,1.05,145
3.75,1.2,147
3.75,1.35,148
3.75,1.5,148
3.9,-1.5,89
3.9,-1.35,84
3.9,-1.2,73
3.9,-1.05,81
3.9,-0.9,84
3.9,-0.75,83
3.9,-0.6,113
3.9,-0.45,144
3.9,-0.3,78
3.9,-0.15,63
3.9,0.0,126
3.9,0.15,161
3.9,0.3,172
3.9,0.45,148
3.9,0.6,130
3.9,0.75,135
3.9,0.9,142
3.9,1.05,144
3.9,1.2,165
3.9,1.35,167
3.9,1.5,151
4.05,-1.5,107
4.05,-1.35,91
4.05,-1.2,62
4.05,-1.05,84
4.05,-0.9,100
4.05,-0.75,117
4.05,-0.6,131
4.05,-0.45,233
4.05,-0.3,113
4.05,-0.15,69
4.05,0.0,71
4.05,0.15,181
4.05,0.3,255
4.05,0.45,163
4.05,0.6,140
4.05,0.75,151
4.05,0.9,159
4.05,1.05,160
4.05,1.2,160
4.05,1.35,148
4.05,1.5,148
4.2,-1.5,132
4.2,-1.35,120
4.2,-1.2,104
4.2,-1.05,120
4.2,-0.9,133
4.2,-0.75,255
4.2,-0.6,0
4.2,-0.45,57
4.2,-0.3,76
4.2,-0.15,40
4.2,0.0,54
4.2,0.15,87
4.2,0.3,142
4.2,0.45,136
4.2,0.6,129
4.2,0.75,124
4.2,0.9,137
4.2,1.05,135
4.2,1.2,134
4.2,1.35,133
4.2,1.5,127
4.35,-1.5,152
4.35,-1.35,152
4.35,-1.2,152
4.35,-1.05,132
4.35,-0.9,7
4.35,-0.75,119
4.35,-0.6,24
4.35,-0.45,78
4.35,-0.3,93
4.35,-0.15,76
4.35,0.0,86
4.35,0.15,81
4.35,0.3,130
4.35,0.45,143
4.35,0.6,146
4.35,0.75,139
4.35,0.9,139
4.35,1.05,133
4.35,1.2,131
4.35,1.35,127
4.35,1.5,127
4.5,-1.5,166
4.5,-1.35,177
4.5,-1.2,201
4.5,-1.05,220
4.5,-0.9,255
4.5,-0.75,75
4.5,-0.6,69
4.5,-0.45,145
4.5,-0.3,133
4.5,-0.15,28
4.5,0.0,255
4.5,0.15,143
4.5,0.3,241
4.5,0.45,176
4.5,0.6,156
4.5,0.75,155
4.5,0.9,152
4.5,1.05,150
4.5,1.2,128
4.5,1.35,127
4.5,1.5,127
4.65,-1.5,172
4.65,-1.35,174
4.65,-1.2,227
4.65,-1.05,255
4.65,-0.9,210
4.65,-0.75,95
4.65,-0.6,52
4.65,-0.45,79
4.65,-0.3,91
4.65,-0.15,120
4.65,0.0,255
4.65,0.15,245
4.65,0.3,63
4.65,0.45,159
4.65,0.6,126
4.65,0.75,119
4.65,0.9,116
4.65,1.05,123
4.65,1.2,148
4.65,1.35,127
4.65,1.5,127
4.8,-1.5,143
4.8,-1.35,156
4.8,-1.2,177
4.8,-1.05,199
4.8,-0.9,139
4.8,-0.75,51
4.8,-0.6,4
4.8,-0.45,70
4.8,-0.3,190
4.8,-0.15,46
4.8,0.0,90
4.8,0.15,124
4.8,0.3,55
4.8,0.45,82
4.8,0.6,101
4.8,0.75,107
4.8,0.9,110
4.8,1.05,111
4.8,1.2,96
4.8,1.35,96
4.8,1.5,97
4.95,-1.5,118
4.95,-1.35,115
4.95,-1.2,107
4.95,-1.05,80
4.95,-0.9,86
4.95,-0.75,97
4.95,-0.6,59
4.95,-0.45,49
4.95,-0.3,46
4.95,-0.15,155
4.95,0.0,21
4.95,0.15,21
4.95,0.3,12
4.95,0.45,39
4.95,0.6,57
4.95,0.75,66
4.95,0.9,70
4.95,1.05,72
4.95,1.2,74
4.95,1.35,74
4.95,1.5,75
5.1,-1.5,89
5.1,-1.35,78
5.1,-1.2,50
5.1,-1.05,4
5.1,-0.9,52
5.1,-0.75,85
5.1,-0.6,76
5.1,-0.45,64
5.1,-0.3,48
5.1,-0.15,21
5.1,0.0,29
5.1,0.15,36
5.1,0.3,10
5.1,0.45,12
5.1,0.6,14
5.1,0.75,35
5.1,0.9,39
5.1,1.05,46
5.1,1.2,47
5.1,1.35,48
5.1,1.5,49
5.25,-1.5,83
5.25,-1.35,87
5.25,-1.2,45
5.25,-1.05,26
5.25,-0.9,42
5.25,-0.75,65
5.25,-0.6,59
5.25,-0.45,92
5.25,-0.3,62
5.25,-0.15,78
5.25,0.0,78
5.25,0.15,46
5.25,0.3,40
5.25,0.45,36
5.25,0.6,32
5.25,0.75,33
5.25,0.9,34
5.25,1.05,21
5.25,1.2,45
5.25,1.35,46
5.25,1.5,47
5.4,-1.5,77
5.4,-1.35,54
5.4,-1.2,53
5.4,-1.05,52
5.4,-0.9,53
5.4,-0.75,26
5.4,-0.6,22
5.4,-0.45,103
5.4,-0.3,50
5.4,-0.15,54
5.4,0.0,68
5.4,0.15,73
5.4,0.3,45
5.4,0.45,52
5.4,0.6,54
5.4,0.75,45
5.4,0.9,45
5.4,1.05,46
5.4,1.2,46
5.4,1.35,46
5.4,1.5,27
5.55,-1.5,71
5.55,-1.35,73
5.55,-1.2,77
5.55,-1.05,85
5.55,-0.9,97
5.55,-0.75,68
5.55,-0.6,93
5.55,-0.45,51
5.55,-0.3,46
5.55,-0.15,18
5.55,0.0,73
5.55,0.15,61
5.55,0.3,45
5.55,0.45,53
5.55,0.6,57
5.55,0.75,57
5.55,0.9,43
5.55,1.05,43
5.55,1.2,33
5.55,1.35,33
5.55,1.5,33
5.7,-1.5,78
5.7,-1.35,81
5.7,-1.2,86
5.7,-1.05,103
5.7,-0.9,189
5.7,-0.75,4
5.7,-0.6,132
5.7,-0.45,56
5.7,-0.3,23
5.7,-0.15,42
5.7,0.0,43
5.7,0.15,53
5.7,0.3,52
5.7,0.45,56
5.7,0.6,57
5.7,0.75,57
5.7,0.9,57
5.7,1.05,49
5.7,1.2,49
5.7,1.35,49
5.7,1.5,44
5.85,-1.5,79
5.85,-1.35,95
5.85,-1.2,95
5.85,-1.05,91
5.85,-0.9,61
5.85,-0.75,70
5.85,-0.6,103
5.85,-0.45,67
5.85,-0.3,77
5.85,-0.15,35
5.85,0.0,57
5.85,0.15,60
5.85,0.3,60
5.85,0.45,58
5.85,0.6,55
5.85,0.75,57
5.85,0.9,57
5.85,1.05,54
5.85,1.2,54
5.85,1.35,49
5.85,1.5,48
6.0,-1.5,84
6.0,-1.35,83
6.0,-1.2,77
6.0,-1.05,70
6.0,-0.9,65
6.0,-0.75,63
6.0,-0.6,24
6.0,-0.45,71
6.0,-0.3,81
6.0,-0.15,108
6.0,0.0,83
6.0,0.15,70
6.0,0.3,64
6.0,0.45,59
6.0,0.6,57
6.0,0.75,55
6.0,0.9,54
6.0,1.05,49
6.0,1.2,58
6.0,1.35,58
6.0,1.5,59
6.15,-1.5,65
6.15,-1.35,65
6.15,-1.2,65
6.15,-1.05,65
6.15,-0.9,62
6.15,-0.75,39
6.15,-0.6,54
6.15,-0.45,53
6.15,-0.3,43
6.15,-0.15,92
6.15,0.0,19
6.15,0.15,74
6.15,0.3,55
6.15,0.45,48
6.15,0.6,47
6.15,0.75,47
6.15,0.9,47
6.15,1.05,57
6.15,1.2,58
6.15,1.35,58
6.15,1.5,59
6.3,-1.5,70
6.3,-1.35,69
6.3,-1.2,80
6.3,-1.05,65
6.3,-0.9,66
6.3,-0.75,61
6.3,-0.6,112
6.3,-0.45,41
6.3,-0.3,56
6.3,-0.15,66
6.3,0.0,38
6.3,0.15,59
6.3,0.3,15
6.3,0.45,46
6.3,0.6,62
6.3,0.75,67
6.3,0.9,70
6.3,1.05,71
6.3,1.2,72
6.3,1.35,73
6.3,1.5,73
6.45,-1.5,75
6.45,-1.35,75
6.45,-1.2,84
6.45,-1.05,86
6.45,-0.9,105
6.45,-0.75,74
6.45,-0.6,76
6.45,-0.45,7
6.45,-0.3,118
6.45,-0.15,34
6.45,0.0,66
6.45,0.15,65
6.45,0.3,39
6.45,0.45,48
6.45,0.6,63
6.45,0.75,68
6.45,0.9,70
6.45,1.05,72
6.45,1.2,73
6.45,1.35,73
6.45,1.5,74
6.6,-1.5,63
6.6,-1.35,64
6.6,-1.2,70
6.6,-1.05,93
6.6,-0.9,119
6.6,-0.75,175
6.6,-0.6,163
6.6,-0.45,118
6.6,-0.3,66
6.6,-0.15,73
6.6,0.0,21
6.6,0.15,48
6.6,0.3,40
6.6,0.45,58
6.6,0.6,65
6.6,0.75,64
6.6,0.9,71
6.6,1.05,72
6.6,1.2,73
6.6,1.35,74
6.6,1.5,74
6.75,-1.5,54
6.75,-1.35,57
6.75,-1.2,56
6.75,-1.05,54
6.75,-0.9,73
6.75,-0.75,104
6.75,-0.6,96
6.75,-0.45,66
6.75,-0.3,82
6.75,-0.15,64
6.75,0.0,29
6.75,0.15,51
6.75,0.3,127
6.75,0.45,128
6.75,0.6,55
6.75,0.75,64
6.75,0.9,62
6.75,1.05,62
6.75,1.2,62
6.75,1.35,61
6.75,1.5,61
6.9,-1.5,39
6.9,-1.35,40
6.9,-1.2,32
6.9,-1.05,25
6.9,-0.9,1
6.9,-0.75,51
6.9,-0.6,59
6.9,-0.45,80
6.9,-0.3,44
6.9,-0.15,65
6.9,0.0,60
6.9,0.15,56
6.9,0.3,111
6.9,0.45,68
6.9,0.6,36
6.9,0.75,56
6.9,0.9,58
6.9,1.05,58
6.9,1.2,57
6.9,1.35,57
6.9,1.5,60
7.05,-1.5,37
7.05,-1.35,36
7.05,-1.2,40
7.05,-1.05,33
7.05,-0.9,7
7.05,-0.75,43
7.05,-0.6,73
7.05,-0.45,74
7.05,-0.3,62
7.05,-0.15,107
7.05,0.0,59
7.05,0.15,71
7.05,0.3,54
7.05,0.45,55
7.05,0.6,47
7.05,0.75,44
7.05,0.9,43
7.05,1.05,41
7.05,1.2,44
7.05,1.35,43
7.05,1.5,43
7.2,-1.5,57
7.2,-1.35,52
7.2,-1.2,41
7.2,-1.05,44
7.2,-0.9,63
7.2,-0.75,15
7.2,-0.6,67
7.2,-0.45,0
7.2,-0.3,1
7.2,-0.15,32
7.2,0.0,30
7.2,0.15,18
7.2,0.3,14
7.2,0.45,24
7.2,0.6,30
7.2,0.75,36
7.2,0.9,37
7.2,1.05,38
7.2,1.2,38
7.2,1.35,38
7.2,1.5,38
7.35,-1.5,67
7.35,-1.35,62
7.35,-1.2,60
7.35,-1.05,52
7.35,-0.9,131
7.35,-0.75,65
7.35,-0.6,68
7.35,-0.45,118
7.35,-0.3,38
7.35,-0.15,48
7.35,0.0,31
7.35,0.15,8
7.35,0.3,2
7.35,0.45,12
7.35,0.6,37
7.35,0.75,41
7.35,0.9,44
7.35,1.05,47
7.35,1.2,38
7.35,1.35,38
7.35,1.5,38
7.5,-1.5,83
7.5,-1.35,85
7.5,-1.2,72
7.5,-1.05,61
7.5,-0.9,36
7.5,-0.75,62
7.5,-0.6,65
7.5,-0.45,51
7.5,-0.3,61
7.5,-0.15,56
7.5,0.0,45
7.5,0.15,10
7.5,0.3,12
7.5,0.45,22
7.5,0.6,24
7.5,0.75,26
7.5,0.9,43
7.5,1.05,45
7.5,1.2,47
7.5,1.35,47
7.5,1.5,48
7.65,-1.5,88
7.65,-1.35,82
7.65,-1.2,84
7.65,-1.05,99
7.65,-0.9,228
7.65,-0.75,29
7.65,-0.6,77
7.65,-0.45,63
7.65,-0.3,77
7.65,-0.15,72
7.65,0.0,59
7.65,0.15,42
7.65,0.3,28
7.65,0.45,35
7.65,0.6,36
7.65,0.75,35
7.65,0.9,50
7.65,1.05,50
7.65,1.2,50
7.65,1.35,50
7.65,1.5,47
7.8,-1.5,93
7.8,-1.35,85
7.8,-1.2,83
7.8,-1.05,81
7.8,-0.9,70
7.8,-0.75,58
7.8,-0.6,114
7.8,-0.45,79
7.8,-0.3,42
7.8,-0.15,91
7.8,0.0,43
7.8,0.15,34
7.8,0.3,66
7.8,0.45,72
7.8,0.6,62
7.8,0.75,55
7.8,0.9,38
7.8,1.05,38
7.8,1.2,38
7.8,1.35,38
7.8,1.5,38
7.95,-1.5,90
7.95,-1.35,93
7.95,-1.2,104
7.95,-1.05,116
7.95,-0.9,94
7.95,-0.75,64
7.95,-0.6,47
7.95,-0.45,27
7.95,-0.3,58
7.95,-0.15,75
7.95,0.0,65
7.95,0.15,64
7.95,0.3,63
7.95,0.45,63
7.95,0.6,50
7.95,0.75,46
7.95,0.9,40
7.95,1.05,38
7.95,1.2,38
7.95,1.35,38
7.95,1.5,38
8.1,-1.5,110
8.1,-1.35,110
8.1,-1.2,117
8.1,-1.05,108
8.1,-0.9,90
8.1,-0.75,117
8.1,-0.6,77
8.1,-0.45,157
8.1,-0.3,61
8.1,-0.15,75
8.1,0.0,57
8.1,0.15,181
8.1,0.3,42
8.1,0.45,39
8.1,0.6,46
8.1,0.75,46
8.1,0.9,43
8.1,1.05,42
8.1,1.2,42
8.1,1.35,38
8.1,1.5,38
8.25,-1.5,101
8.25,-1.35,101
8.25,-1.2,105
8.25,-1.05,135
8.25,-0.9,134
8.25,-0.75,95
8.25,-0.6,55
8.25,-0.45,64
8.25,-0.3,73
8.25,-0.15,62
8.25,0.0,26
8.25,0.15,80
8.25,0.3,23
8.25,0.45,49
8.25,0.6,57
8.25,0.75,50
8.25,0.9,51
8.25,1.05,42
8.25,1.2,66
8.25,1.35,67
8.25,1.5,72
8.4,-1.5,94
8.4,-1.35,89
8.4,-1.2,76
8.4,-1.05,79
8.4,-0.9,142
8.4,-0.75,39
8.4,-0.6,54
8.4,-0.45,70
8.4,-0.3,63
8.4,-0.15,113
8.4,0.0,188
8.4,0.15,77
8.4,0.3,25
8.4,0.45,51
8.4,0.6,67
8.4,0.75,62
8.4,0.9,65
8.4,1.05,67
8.4,1.2,73
8.4,1.35,69
8.4,1.5,74
8.55,-1.5,89
8.55,-1.35,73
8.55,-1.2,59
8.55,-1.05,37
8.55,-0.9,102
8.55,-0.75,81
8.55,-0.6,48
8.55,-0.45,60
8.55,-0.3,114
8.55,-0.15,183
8.55,0.0,141
8.55,0.15,123
8.55,0.3,93
8.55,0.45,94
8.55,0.6,97
8.55,0.75,76
8.55,0.9,78
8.55,1.05,79
8.55,1.2,80
8.55,1.35,80
8.55,1.5,80
8.7,-1.5,74
8.7,-1.35,72
8.7,-1.2,69
8.7,-1.05,71
8.7,-0.9,69
8.7,-0.75,31
8.7,-0.6,61
8.7,-0.45,85
8.7,-0.3,56
8.7,-0.15,127
8.7,0.0,160
8.7,0.15,63
8.7,0.3,108
8.7,0.45,103
8.7,0.6,98
8.7,0.75,80
8.7,0.9,61
8.7,1.05,76
8.7,1.2,80
8.7,1.35,80
8.7,1.5,66
8.85,-1.5,53
8.85,-1.35,38
8.85,-1.2,40
8.85,-1.05,47
8.85,-0.9,60
8.85,-0.75,32
8.85,-0.6,24
8.85,-0.45,112
8.85,-0.3,30
8.85,-0.15,55
8.85,0.0,0
8.85,0.15,255
8.85,0.3,112
8.85,0.45,97
8.85,0.6,90
8.85,0.75,83
8.85,0.9,81
8.85,1.05,80
8.85,1.2,78
8.85,1.35,77
8.85,1.5,71
9.0,-1.5,43
9.0,-1.35,42
9.0,-1.2,34
9.0,-1.05,37
9.0,-0.9,48
9.0,-0.75,54
9.0,-0.6,36
9.0,-0.45,102
9.0,-0.3,55
9.0,-0.15,55
9.0,0.0,68
9.0,0.15,87
9.0,0.3,90
9.0,0.45,95
9.0,0.6,97
9.0,0.75,88
9.0,0.9,86
9.0,1.05,84
9.0,1.2,82
9.0,1.35,71
9.0,1.5,71
9.15,-1.5,40
9.15,-1.35,41
9.15,-1.2,32
9.15,-1.05,8
9.15,-0.9,17
9.15,-0.75,42
9.15,-0.6,22
9.15,-0.45,23
9.15,-0.3,47
9.15,-0.15,40
9.15,0.0,30
9.15,0.15,32
9.15,0.3,67
9.15,0.45,81
9.15,0.6,85
9.15,0.75,85
9.15,0.9,83
9.15,1.05,80
9.15,1.2,74
9.15,1.35,72
9.15,1.5,72
9.3,-1.5,40
9.3,-1.35,38
9.3,-1.2,39
9.3,-1.05,38
9.3,-0.9,47
9.3,-0.75,65
9.3,-0.6,50
9.3,-0.45,15
9.3,-0.3,39
9.3,-0.15,45
9.3,0.0,37
9.3,0.15,61
9.3,0.3,87
9.3,0.45,83
9.3,0.6,81
9.3,0.75,85
9.3,0.9,85
9.3,1.05,85
9.3,1.2,85
9.3,1.35,84
9.3,1.5,84
9.45,-1.5,36
9.45,-1.35,36
9.45,-1.2,44
9.45,-1.05,46
9.45,-0.9,51
9.45,-0.75,58
9.45,-0.6,65
9.45,-0.45,251
9.45,-0.3,69
9.45,-0.15,44
9.45,0.0,52
9.45,0.15,126
9.45,0.3,112
9.45,0.45,82
9.45,0.6,75
9.45,0.75,70
9.45,0.9,65
9.45,1.05,61
9.45,1.2,60
9.45,1.35,60
9.45,1.5,60
9.6,-1.5,36
9.6,-1.35,36
9.6,-1.2,36
9.6,-1.05,37
9.6,-0.9,36
9.6,-0.75,42
9.6,-0.6,42
9.6,-0.45,61
9.6,-0.3,5
9.6,-0.15,39
9.6,0.0,34
9.6,0.15,72
9.6,0.3,64
9.6,0.45,69
9.6,0.6,69
9.6,0.75,62
9.6,0.9,54
9.6,1.05,52
9.6,1.2,52
9.6,1.35,55
9.6,1.5,57
9.75,-1.5,36
9.75,-1.35,36
9.75,-1.2,38
9.75,-1.05,36
9.75,-0.9,39
9.75,-0.75,51
9.75,-0.6,92
9.75,-0.45,93
9.75,-0.3,87
9.75,-0.15,38
9.75,0.0,12
9.75,0.15,66
9.75,0.3,42
9.75,0.45,58
9.75,0.6,64
9.75,0.75,53
9.75,0.9,37
9.75,1.05,33
9.75,1.2,42
9.75,1.35,48
9.75,1.5,50
9.9,-1.5,61
9.9,-1.35,58
9.9,-1.2,48
9.9,-1.05,22
9.9,-0.9,28
9.9,-0.75,43
9.9,-0.6,74
9.9,-0.45,143
9.9,-0.3,101
9.9,-0.15,73
9.9,0.0,58
9.9,0.15,124
9.9,0.3,119
9.9,0.45,67
9.9,0.6,60
9.9,0.75,40
9.9,0.9,6
9.9,1.05,11
9.9,1.2,29
9.9,1.35,41
9.9,1.5,47
10.05,-1.5,64
10.05,-1.35,63
10.05,-1.2,55
10.05,-1.05,59
10.05,-0.9,41
10.05,-0.75,35
10.05,-0.6,57
10.05,-0.45,82
10.05,-0.3,98
10.05,-0.15,111
10.05,0.0,68
10.05,0.15,61
10.05,0.3,52
10.05,0.45,64
10.05,0.6,54
10.05,0.75,34
10.05,0.9,5
10.05,1.05,9
10.05,1.2,24
10.05,1.35,34
10.05,1.5,40
10.2,-1.5,77
10.2,-1.35,78
10.2,-1.2,77
10.2,-1.05,70
10.2,-0.9,75
10.2,-0.75,51
10.2,-0.6,56
10.2,-0.45,1
10.2,-0.3,120
10.2,-0.15,46
10.2,0.0,54
10.2,0.15,50
10.2,0.3,54
10.2,0.45,56
10.2,0.6,52
10.2,0.75,41
10.2,0.9,28
10.2,1.05,26
10.2,1.2,31
10.2,1.35,37
10.2,1.5,41
10.35,-1.5,82
10.35,-1.35,102
10.35,-1.2,122
10.35,-1.05,142
10.35,-0.9,107
10.35,-0.75,58
10.35,-0.6,51
10.35,-0.45,162
10.35,-0.3,44
10.35,-0.15,15
10.35,0.0,29
10.35,0.15,12
10.35,0.3,45
10.35,0.45,49
10.35,0.6,55
10.35,0.75,52
10.35,0.9,46
10.35,1.05,44
10.35,1.2,45
10.35,1.35,48
10.35,1.5,50
10.5,-1.5,88
10.5,-1.35,114
10.5,-1.2,152
10.5,-1.05,245
10.5,-0.9,135
10.5,-0.75,67
10.5,-0.6,62
10.5,-0.45,79
10.5,-0.3,58
10.5,-0.15,47
10.5,0.0,42
10.5,0.15,56
10.5,0.3,49
10.5,0.45,47
10.5,0.6,53
10.5,0.75,54
10.5,0.9,53
10.5,1.05,52
10.5,1.2,62
10.5,1.35,64
10.5,1.5,65
10.65,-1.5,88
10.65,-1.35,108
10.65,-1.2,125
10.65,-1.05,133
10.65,-0.9,97
10.65,-0.75,63
10.65,-0.6,33
10.65,-0.45,57
10.65,-0.3,13
10.65,-0.15,50
10.65,0.0,73
10.65,0.15,90
10.65,0.3,10
10.65,0.45,40
10.65,0.6,64
10.65,0.75,71
10.65,0.9,73
10.65,1.05,67
10.65,1.2,66
10.65,1.35,70
10.65,1.5,70
10.8,-1.5,112
10.8,-1.35,111
10.8,-1.2,98
10.8,-1.05,81
10.8,-0.9,62
10.8,-0.75,55
10.8,-0.6,36
10.8,-0.45,76
10.8,-0.3,83
10.8,-0.15,80
10.8,0.0,96
10.8,0.15,103
10.8,0.3,70
10.8,0.45,69
10.8,0.6,67
10.8,0.75,71
10.8,0.9,81
10.8,1.05,80
10.8,1.2,73
10.8,1.35,71
10.8,1.5,75
10.95,-1.5,124
10.95,-1.35,118
10.95,-1.2,106
10.95,-1.05,91
10.95,-0.9,67
10.95,-0.75,68
10.95,-0.6,80
10.95,-0.45,125
10.95,-0.3,197
10.95,-0.15,156
10.95,0.0,126
10.95,0.15,122
10.95,0.3,123
10.95,0.45,109
10.95,0.6,101
10.95,0.75,93
10.95,0.9,79
10.95,1.05,87
10.95,1.2,85
10.95,1.35,83
10.95,1.5,75
11.1,-1.5,133
11.1,-1.35,142
11.1,-1.2,132
11.1,-1.05,114
11.1,-0.9,92
11.1,-0.75,28
11.1,-0.6,75
11.1,-0.45,132
11.1,-0.3,168
11.1,-0.15,155
11.1,0.0,158
11.1,0.15,179
11.1,0.3,190
11.1,0.45,148
11.1,0.6,123
11.1,0.75,113
11.1,0.9,107
11.1,1.05,91
11.1,1.2,84
11.1,1.35,88
11.1,1.5,75
11.25,-1.5,151
11.25,-1.35,158
11.25,-1.2,165
11.25,-1.05,154
11.25,-0.9,123
11.25,-0.75,86
11.25,-0.6,98
11.25,-0.45,132
11.25,-0.3,125
11.25,-0.15,135
11.25,0.0,141
11.25,0.15,199
11.25,0.3,217
11.25,0.45,160
11.25,0.6,134
11.25,0.75,121
11.25,0.9,114
11.25,1.05,96
11.25,1.2,92
11.25,1.35,89
11.25,1.5,75
11.4,-1.5,167
11.4,-1.35,169
11.4,-1.2,190
11.4,-1.05,205
11.4,-0.9,177
11.4,-0.75,120
11.4,-0.6,71
11.4,-0.45,37
11.4,-0.3,107
11.4,-0.15,117
11.4,0.0,123
11.4,0.15,146
11.4,0.3,162
11.4,0.45,152
11.4,0.6,131
11.4,0.75,122
11.4,0.9,116
11.4,1.05,112
11.4,1.2,95
11.4,1.35,83
11.4,1.5,75
11.55,-1.5,163
11.55,-1.35,183
11.55,-1.2,224
11.55,-1.05,255
11.55,-0.9,255
11.55,-0.75,133
11.55,-0.6,100
11.55,-0.45,132
11.55,-0.3,78
11.55,-0.15,92
11.55,0.0,107
11.55,0.15,112
11.55,0.3,125
11.55,0.45,126
11.55,0.6,123
11.55,0.75,109
11.55,0.9,104
11.55,1.05,101
11.55,1.2,93
11.55,1.35,82
11.55,1.5,78
11.7,-1.5,153
11.7,-1.35,174
11.7,-1.2,211
11.7,-1.05,255
11.7,-0.9,245
11.7,-0.75,132
11.7,-0.6,94
11.7,-0.45,89
11.7,-0.3,56
11.7,-0.15,14
11.7,0.0,80
11.7,0.15,102
11.7,0.3,115
11.7,0.45,122
11.7,0.6,107
11.7,0.75,98
11.7,0.9,95
11.7,1.05,85
11.7,1.2,85
11.7,1.35,82
11.7,1.5,70
11.85,-1.5,142
11.85,-1.35,145
11.85,-1.2,145
11.85,-1.05,136
11.85,-0.9,126
11.85,-0.75,86
11.85,-0.6,88
11.85,-0.45,71
11.85,-0.3,62
11.85,-0.15,59
11.85,0.0,73
11.85,0.15,86
11.85,0.3,92
11.85,0.45,97
11.85,0.6,107
11.85,0.75,89
11.85,0.9,74
11.85,1.05,74
11.85,1.2,74
11.85,1.35,71
11.85,1.5,69
12.0,-1.5,124
12.0,-1.35,116
12.0,-1.2,86
12.0,-1.05,11
12.0,-0.9,51
12.0,-0.75,69
12.0,-0.6,69
12.0,-0.45,72
12.0,-0.3,64
12.0,-0.15,71
12.0,0.0,85
12.0,0.15,92
12.0,0.3,85
12.0,0.45,87
12.0,0.6,91
12.0,0.75,92
12.0,0.9,91
12.0,1.05,89
12.0,1.2,82
12.0,1.35,72
12.0,1.5,69
12.15,-1.5,109
12.15,-1.35,96
12.15,-1.2,73
12.15,-1.05,44
12.15,-0.9,64
12.15,-0.75,78
12.15,-0.6,77
12.15,-0.45,109
12.15,-0.3,97
12.15,-0.15,82
12.15,0.0,83
12.15,0.15,76
12.15,0.3,70
12.15,0.45,79
12.15,0.6,79
12.15,0.75,75
12.15,0.9,82
12.15,1.05,80
12.15,1.2,77
12.15,1.35,71
12.15,1.5,62
12.3,-1.5,94
12.3,-1.35,92
12.3,-1.2,83
12.3,-1.05,76
12.3,-0.9,80
12.3,-0.75,87
12.3,-0.6,96
12.3,-0.45,109
12.3,-0.3,109
12.3,-0.15,108
12.3,0.0,94
12.3,0.15,80
12.3,0.3,64
12.3,0.45,66
12.3,0.6,61
12.3,0.75,65
12.3,0.9,66
12.3,1.05,64
12.3,1.2,62
12.3,1.35,64
12.3,1.5,61
12.45,-1.5,84
12.45,-1.35,84
12.45,-1.2,84
12.45,-1.05,85
12.45,-0.9,87
12.45,-0.75,89
12.45,-0.6,92
12.45,-0.45,102
12.45,-0.3,153
12.45,-0.15,148
12.45,0.0,109
12.45,0.15,69
12.45,0.3,44
12.45,0.45,39
12.45,0.6,48
12.45,0.75,53
12.45,0.9,55
12.45,1.05,53
12.45,1.2,52
12.45,1.35,47
12.45,1.5,43
12.6,-1.5,64
12.6,-1.35,70
12.6,-1.2,78
12.6,-1.05,83
12.6,-0.9,85
12.6,-0.75,74
12.6,-0.6,51
12.6,-0.45,43
12.6,-0.3,193
12.6,-0.15,151
12.6,0.0,109
12.6,0.15,46
12.6,0.3,6
12.6,0.45,17
12.6,0.6,33
12.6,0.75,45
12.6,0.9,48
12.6,1.05,46
12.6,1.2,39
12.6,1.35,33
12.6,1.5,28
12.75,-1.5,34
12.75,-1.35,46
12.75,-1.2,65
12.75,-1.05,77
12.75,-0.9,79
12.75,-0.75,59
12.75,-0.6,41
12.75,-0.45,22
12.75,-0.3,112
12.75,-0.15,126
12.75,0.0,84
12.75,0.15,30
12.75,0.3,4
12.75,0.45,14
12.75,0.6,28
12.75,0.75,40
12.75,0.9,43
12.75,1.05,39
12.75,1.2,28
12.75,1.35,17
12.75,1.5,12
12.9,-1.5,4
12.9,-1.35,20
12.9,-1.2,50
12.9,-1.05,68
12.9,-0.9,68
12.9,-0.75,61
12.9,-0.6,58
12.9,-0.45,65
12.9,-0.3,87
12.9,-0.15,89
12.9,0.0,54
12.9,0.15,4
12.9,0.3,5
12.9,0.45,20
12.9,0.6,29
12.9,0.75,35
12.9,0.9,40
12.9,1.05,34
12.9,1.2,20
12.9,1.35,5
12.9,1.5,0
13.05,-1.5,0
13.05,-1.35,12
13.05,-1.2,42
13.05,-1.05,56
13.05,-0.9,67
13.05,-0.75,62
13.05,-0.6,65
13.05,-0.45,70
13.05,-0.3,75
13.05,-0.15,69
13.05,0.0,45
13.05,0.15,16
13.05,0.3,14
13.05,0.45,25
13.05,0.6,32
13.05,0.75,36
13.05,0.9,35
13.05,1.05,32
13.05,1.2,18
13.05,1.35,3
13.05,1.5,0
