-3.0,-1.5,0
-3.0,-1.35,13
-3.0,-1.2,54
-3.0,-1.05,92
-3.0,-0.9,128
-3.0,-0.75,155
-3.0,-0.6,177
-3.0,-0.45,196
-3.0,-0.3,227
-3.0,-0.15,255
-3.0,0.0,255
-3.0,0.15,255
-3.0,0.3,255
-3.0,0.45,165
-3.0,0.6,79
-3.0,0.75,64
-3.0,0.9,90
-3.0,1.05,95
-3.0,1.2,66
-3.0,1.35,19
-3.0,1.5,0
-2.85,-1.5,12
-2.85,-1.35,30
-2.85,-1.2,70
-2.85,-1.05,110
-2.85,-0.9,133
-2.85,-0.75,157
-2.85,-0.6,176
-2.85,-0.45,193
-2.85,-0.3,220
-2.85,-0.15,241
-2.85,0.0,255
-2.85,0.15,255
-2.85,0.3,238
-2.85,0.45,167
-2.85,0.6,88
-2.85,0.75,70
-2.85,0.9,96
-2.85,1.05,102
-2.85,1.2,78
-2.85,1.35,38
-2.85,1.5,17
-2.7,-1.5,46
-2.7,-1.35,60
-2.7,-1.2,98
-2.7,-1.05,125
-2.7,-0.9,152
-2.7,-0.75,173
-2.7,-0.6,175
-2.7,-0.45,187
-2.7,-0.3,209
-2.7,-0.15,218
-2.7,0.0,226
-2.7,0.15,232
-2.7,0.3,222
-2.7,0.45,191
-2.7,0.6,144
-2.7,0.75,121
-2.7,0.9,121
-2.7,1.05,117
-2.7,1.2,100
-2.7,1.35,74
-2.7,1.5,58
-2.55,-1.5,82
-2.55,-1.35,94
-2.55,-1.2,114
-2.55,-1.05,148
-2.55,-0.9,159
-2.55,-0.75,174
-2.55,-0.6,185
-2.55,-0.45,195
-2.55,-0.3,201
-2.55,-0.15,200
-2.55,0.0,196
-2.55,0.15,212
-2.55,0.3,255
-2.55,0.45,223
-2.55,0.6,177
-2.55,0.75,152
-2.55,0.9,141
-2.55,1.05,133
-2.55,1.2,121
-2.55,1.35,106
-2.55,1.5,88
-2.4,-1.5,110
-2.4,-1.35,119
-2.4,-1.2,131
-2.4,-1.05,159
-2.4,-0.9,162
-2.4,-0.75,173
-2.4,-0.6,182
-2.4,-0.45,192
-2.4,-0.3,195
-2.4,-0.15,192
-2.4,0.0,171
-2.4,0.15,124
-2.4,0.3,255
-2.4,0.45,226
-2.4,0.6,163
-2.4,0.75,149
-2.4,0.9,147
-2.4,1.05,144
-2.4,1.2,137
-2.4,1.35,129
-2.4,1.5,119
-2.25,-1.5,123
-2.25,-1.35,135
-2.25,-1.2,142
-2.25,-1.05,150
-2.25,-0.9,157
-2.25,-0.75,168
-2.25,-0.6,184
-2.25,-0.45,185
-2.25,-0.3,198
-2.25,-0.15,200
-2.25,0.0,186
-2.25,0.15,161
-2.25,0.3,198
-2.25,0.45,142
-2.25,0.6,94
-2.25,0.75,124
-2.25,0.9,144
-2.25,1.05,150
-2.25,1.2,149
-2.25,1.35,136
-2.25,1.5,130
-2.1,-1.5,135
-2.1,-1.35,139
-2.1,-1.2,144
-2.1,-1.05,147
-2.1,-0.9,150
-2.1,-0.75,165
-2.1,-0.6,166
-2.1,-0.45,175
-2.1,-0.3,189
-2.1,-0.15,209
-2.1,0.0,213
-2.1,0.15,200
-2.1,0.3,180
-2.1,0.45,107
-2.1,0.6,68
-2.1,0.75,119
-2.1,0.9,142
-2.1,1.05,152
-2.1,1.2,135
-2.1,1.35,131
-2.1,1.5,130
-1.95,-1.5,137
-1.95,-1.35,139
-1.95,-1.2,147
-1.95,-1.05,147
-1.95,-0.9,146
-1.95,-0.75,149
-1.95,-0.6,143
-1.95,-0.45,149
-1.95,-0.3,184
-1.95,-0.15,214
-1.95,0.0,218
-1.95,0.15,217
-1.95,0.3,199
-1.95,0.45,160
-1.95,0.6,137
-1.95,0.75,149
-1.95,0.9,164
-1.95,1.05,162
-1.95,1.2,141
-1.95,1.35,137
-1.95,1.5,133
-1.8,-1.5,137
-1.8,-1.35,142
-1.8,-1.2,142
-1.8,-1.05,141
-1.8,-0.9,146
-1.8,-0.75,139
-1.8,-0.6,124
-1.8,-0.45,111
-1.8,-0.3,170
-1.8,-0.15,232
-1.8,0.0,254
-1.8,0.15,240
-1.8,0.3,218
-1.8,0.45,198
-1.8,0.6,182
-1.8,0.75,178
-1.8,0.9,177
-1.8,1.05,177
-1.8,1.2,152
-1.8,1.35,147
-1.8,1.5,143
-1.65,-1.5,138
-1.65,-1.35,139
-1.65,-1.2,153
-1.65,-1.05,148
-1.65,-0.9,133
-1.65,-0.75,125
-1.65,-0.6,111
-1.65,-0.45,125
-1.65,-0.3,178
-1.65,-0.15,246
-1.65,0.0,255
-1.65,0.15,242
-1.65,0.3,218
-1.65,0.45,202
-1.65,0.6,198
-1.65,0.75,191
-1.65,0.9,181
-1.65,1.05,169
-1.65,1.2,164
-1.65,1.35,154
-1.65,1.5,126
-1.5,-1.5,142
-1.5,-1.35,155
-1.5,-1.2,154
-1.5,-1.05,149
-1.5,-0.9,138
-1.5,-0.75,110
-1.5,-0.6,64
-1.5,-0.45,93
-1.5,-0.3,158
-1.5,-0.15,204
-1.5,0.0,202
-1.5,0.15,237
-1.5,0.3,212
-1.5,0.45,200
-1.5,0.6,188
-1.5,0.75,176
-1.5,0.9,164
-1.5,1.05,142
-1.5,1.2,134
-1.5,1.35,129
-1.5,1.5,106
-1.35,-1.5,149
-1.35,-1.35,149
-1.35,-1.2,155
-1.35,-1.05,155
-1.35,-0.9,150
-1.35,-0.75,135
-1.35,-0.6,104
-1.35,-0.45,111
-1.35,-0.3,113
-1.35,-0.15,161
-1.35,0.0,206
-1.35,0.15,211
-1.35,0.3,203
-1.35,0.45,189
-1.35,0.6,176
-1.35,0.75,161
-1.35,0.9,144
-1.35,1.05,130
-1.35,1.2,119
-1.35,1.35,115
-1.35,1.5,114
-1.2,-1.5,137
-1.2,-1.35,137
-1.2,-1.2,139
-1.2,-1.05,144
-1.2,-0.9,155
-1.2,-0.75,169
-1.2,-0.6,148
-1.2,-0.45,113
-1.2,-0.3,67
-1.2,-0.15,115
-1.2,0.0,146
-1.2,0.15,145
-1.2,0.3,204
-1.2,0.45,176
-1.2,0.6,160
-1.2,0.75,144
-1.2,0.9,110
-1.2,1.05,91
-1.2,1.2,81
-1.2,1.35,80
-1.2,1.5,84
-1.05,-1.5,137
-1.05,-1.35,137
-1.05,-1.2,140
-1.05,-1.05,139
-1.05,-0.9,160
-1.05,-0.75,208
-1.05,-0.6,180
-1.05,-0.45,118
-1.05,-0.3,94
-1.05,-0.15,111
-1.05,0.0,80
-1.05,0.15,81
-1.05,0.3,139
-1.05,0.45,146
-1.05,0.6,136
-1.05,0.75,118
-1.05,0.9,78
-1.05,1.05,52
-1.05,1.2,44
-1.05,1.35,52
-1.05,1.5,63
-0.9,-1.5,137
-0.9,-1.35,140
-0.9,-1.2,143
-0.9,-1.05,147
-0.9,-0.9,149
-0.9,-0.75,159
-0.9,-0.6,136
-0.9,-0.45,113
-0.9,-0.3,92
-0.9,-0.15,75
-0.9,0.0,68
-0.9,0.15,84
-0.9,0.3,109
-0.9,0.45,103
-0.9,0.6,96
-0.9,0.75,80
-0.9,0.9,58
-0.9,1.05,17
-0.9,1.2,14
-0.9,1.35,37
-0.9,1.5,49
-0.75,-1.5,135
-0.75,-1.35,139
-0.75,-1.2,144
-0.75,-1.05,148
-0.75,-0.9,147
-0.75,-0.75,118
-0.75,-0.6,78
-0.75,-0.45,138
-0.75,-0.3,113
-0.75,-0.15,62
-0.75,0.0,0
-0.75,0.15,67
-0.75,0.3,86
-0.75,0.45,80
-0.75,0.6,75
-0.75,0.75,62
-0.75,0.9,38
-0.75,1.05,6
-0.75,1.2,5
-0.75,1.35,24
-0.75,1.5,41
-0.6,-1.5,135
-0.6,-1.35,137
-0.6,-1.2,144
-0.6,-1.05,158
-0.6,-0.9,184
-0.6,-0.75,151
-0.6,-0.6,18
-0.6,-0.45,206
-0.6,-0.3,128
-0.6,-0.15,80
-0.6,0.0,77
-0.6,0.15,103
-0.6,0.3,79
-0.6,0.45,34
-0.6,0.6,43
-0.6,0.75,50
-0.6,0.9,41
-0.6,1.05,25
-0.6,1.2,24
-0.6,1.35,34
-0.6,1.5,45
-0.45,-1.5,130
-0.45,-1.35,134
-0.45,-1.2,141
-0.45,-1.05,155
-0.45,-0.9,183
-0.45,-0.75,168
-0.45,-0.6,116
-0.45,-0.45,120
-0.45,-0.3,65
-0.45,-0.15,69
-0.45,0.0,104
-0.45,0.15,210
-0.45,0.3,90
-0.45,0.45,3
-0.45,0.6,32
-0.45,0.75,52
-0.45,0.9,58
-0.45,1.05,51
-0.45,1.2,48
-0.45,1.35,50
-0.45,1.5,56
-0.3,-1.5,126
-0.3,-1.35,128
-0.3,-1.2,132
-0.3,-1.05,138
-0.3,-0.9,143
-0.3,-0.75,128
-0.3,-0.6,116
-0.3,-0.45,133
-0.3,-0.3,103
-0.3,-0.15,81
-0.3,0.0,100
-0.3,0.15,158
-0.3,0.3,63
-0.3,0.45,49
-0.3,0.6,50
-0.3,0.75,57
-0.3,0.9,58
-0.3,1.05,58
-0.3,1.2,55
-0.3,1.35,55
-0.3,1.5,67
-0.15,-1.5,123
-0.15,-1.35,124
-0.15,-1.2,114
-0.15,-1.05,116
-0.15,-0.9,116
-0.15,-0.75,116
-0.15,-0.6,114
-0.15,-0.45,155
-0.15,-0.3,255
-0.15,-0.15,61
-0.15,0.0,84
-0.15,0.15,79
-0.15,0.3,35
-0.15,0.45,47
-0.15,0.6,73
-0.15,0.75,67
-0.15,0.9,68
-0.15,1.05,66
-0.15,1.2,65
-0.15,1.35,69
-0.15,1.5,69
0.0,-1.5,117
0.0,-1.35,105
0.0,-1.2,104
0.0,-1.05,103
0.0,-0.9,102
0.0,-0.75,108
0.0,-0.6,130
0.0,-0.45,191
0.0,-0.3,132
0.0,-0.15,121
0.0,0.0,112
0.0,0.15,78
0.0,0.3,81
0.0,0.45,85
0.0,0.6,88
0.0,0.75,90
0.0,0.9,80
0.0,1.05,78
0.0,1.2,77
0.0,1.35,75
0.0,1.5,75
0.15,-1.5,100
0.15,-1.35,99
0.15,-1.2,96
0.15,-1.05,91
0.15,-0.9,84
0.15,-0.75,79
0.15,-0.6,33
0.15,-0.45,104
0.15,-0.3,91
0.15,-0.15,137
0.15,0.0,144
0.15,0.15,129
0.15,0.3,132
0.15,0.45,112
0.15,0.6,90
0.15,0.75,85
0.15,0.9,83
0.15,1.05,75
0.15,1.2,75
0.15,1.35,81
0.15,1.5,80
0.3,-1.5,96
0.3,-1.35,94
0.3,-1.2,91
0.3,-1.05,89
0.3,-0.9,69
0.3,-0.75,56
0.3,-0.6,58
0.3,-0.45,82
0.3,-0.3,95
0.3,-0.15,178
0.3,0.0,140
0.3,0.15,139
0.3,0.3,192
0.3,0.45,125
0.3,0.6,108
0.3,0.75,103
0.3,0.9,93
0.3,1.05,95
0.3,1.2,86
0.3,1.35,80
0.3,1.5,80
0.45,-1.5,86
0.45,-1.35,75
0.45,-1.2,65
0.45,-1.05,65
0.45,-0.9,61
0.45,-0.75,60
0.45,-0.6,65
0.45,-0.45,63
0.45,-0.3,95
0.45,-0.15,120
0.45,0.0,110
0.45,0.15,61
0.45,0.3,103
0.45,0.45,112
0.45,0.6,113
0.45,0.75,110
0.45,0.9,105
0.45,1.05,103
0.45,1.2,90
0.45,1.35,88
0.45,1.5,82
0.6,-1.5,83
0.6,-1.35,78
0.6,-1.2,71
0.6,-1.05,70
0.6,-0.9,67
0.6,-0.75,66
0.6,-0.6,59
0.6,-0.45,54
0.6,-0.3,74
0.6,-0.15,81
0.6,0.0,54
0.6,0.15,69
0.6,0.3,90
0.6,0.45,105
0.6,0.6,110
0.6,0.75,113
0.6,0.9,109
0.6,1.05,108
0.6,1.2,106
0.6,1.35,101
0.6,1.5,100
0.75,-1.5,71
0.75,-1.35,71
0.75,-1.2,71
0.75,-1.05,75
0.75,-0.9,73
0.75,-0.75,83
0.75,-0.6,87
0.75,-0.45,23
0.75,-0.3,62
0.75,-0.15,92
0.75,0.0,108
0.75,0.15,83
0.75,0.3,122
0.75,0.45,120
0.75,0.6,109
0.75,0.75,112
0.75,0.9,108
0.75,1.05,106
0.75,1.2,105
0.75,1.35,104
0.75,1.5,104
0.9,-1.5,86
0.9,-1.35,86
0.9,-1.2,82
0.9,-1.05,76
0.9,-0.9,83
0.9,-0.75,94
0.9,-0.6,178
0.9,-0.45,71
0.9,-0.3,63
0.9,-0.15,74
0.9,0.0,78
0.9,0.15,128
0.9,0.3,188
0.9,0.45,138
0.9,0.6,113
0.9,0.75,100
0.9,0.9,95
0.9,1.05,106
0.9,1.2,106
0.9,1.35,106
0.9,1.5,102
1.05,-1.5,85
1.05,-1.35,84
1.05,-1.2,86
1.05,-1.05,82
1.05,-0.9,78
1.05,-0.75,84
1.05,-0.6,44
1.05,-0.45,67
1.05,-0.3,59
1.05,-0.15,52
1.05,0.0,72
1.05,0.15,202
1.05,0.3,160
1.05,0.45,124
1.05,0.6,93
1.05,0.75,85
1.05,0.9,86
1.05,1.05,87
1.05,1.2,87
1.05,1.35,87
1.05,1.5,98
1.2,-1.5,94
1.2,-1.35,93
1.2,-1.2,88
1.2,-1.05,76
1.2,-0.9,74
1.2,-0.75,87
1.2,-0.6,127
1.2,-0.45,127
1.2,-0.3,58
1.2,-0.15,62
1.2,0.0,52
1.2,0.15,92
1.2,0.3,107
1.2,0.45,68
1.2,0.6,34
1.2,0.75,58
1.2,0.9,72
1.2,1.05,78
1.2,1.2,81
1.2,1.35,83
1.2,1.5,84
1.35,-1.5,95
1.35,-1.35,95
1.35,-1.2,91
1.35,-1.05,75
1.35,-0.9,34
1.35,-0.75,82
1.35,-0.6,123
1.35,-0.45,116
1.35,-0.3,51
1.35,-0.15,2
1.35,0.0,46
1.35,0.15,48
1.35,0.3,55
1.35,0.45,36
1.35,0.6,11
1.35,0.75,44
1.35,0.9,61
1.35,1.05,68
1.35,1.2,72
1.35,1.35,75
1.35,1.5,73
1.5,-1.5,103
1.5,-1.35,103
1.5,-1.2,108
1.5,-1.05,118
1.5,-0.9,53
1.5,-0.75,78
1.5,-0.6,69
1.5,-0.45,54
1.5,-0.3,74
1.5,-0.15,50
1.5,0.0,38
1.5,0.15,51
1.5,0.3,47
1.5,0.45,36
1.5,0.6,30
1.5,0.75,31
1.5,0.9,31
1.5,1.05,33
1.5,1.2,44
1.5,1.35,46
1.5,1.5,43
1.65,-1.5,98
1.65,-1.35,97
1.65,-1.2,107
1.65,-1.05,133
1.65,-0.9,28
1.65,-0.75,116
1.65,-0.6,58
1.65,-0.45,39
1.65,-0.3,74
1.65,-0.15,56
1.65,0.0,1
1.65,0.15,44
1.65,0.3,43
1.65,0.45,35
1.65,0.6,36
1.65,0.75,34
1.65,0.9,34
1.65,1.05,31
1.65,1.2,31
1.65,1.35,31
1.65,1.5,31
1.8,-1.5,86
1.8,-1.35,73
1.8,-1.2,74
1.8,-1.05,113
1.8,-0.9,157
1.8,-0.75,188
1.8,-0.6,109
1.8,-0.45,65
1.8,-0.3,49
1.8,-0.15,49
1.8,0.0,0
1.8,0.15,48
1.8,0.3,30
1.8,0.45,26
1.8,0.6,34
1.8,0.75,34
1.8,0.9,34
1.8,1.05,34
1.8,1.2,35
1.8,1.35,35
1.8,1.5,32
1.95,-1.5,91
1.95,-1.35,73
1.95,-1.2,69
1.95,-1.05,120
1.95,-0.9,177
1.95,-0.75,175
1.95,-0.6,133
1.95,-0.45,83
1.95,-0.3,47
1.95,-0.15,50
1.95,0.0,52
1.95,0.15,56
1.95,0.3,51
1.95,0.45,46
1.95,0.6,40
1.95,0.75,38
1.95,0.9,38
1.95,1.05,38
1.95,1.2,32
1.95,1.35,32
1.95,1.5,32
2.1,-1.5,92
2.1,-1.35,95
2.1,-1.2,103
2.1,-1.05,131
2.1,-0.9,163
2.1,-0.75,157
2.1,-0.6,112
2.1,-0.45,70
2.1,-0.3,30
2.1,-0.15,64
2.1,0.0,56
2.1,0.15,84
2.1,0.3,55
2.1,0.45,34
2.1,0.6,38
2.1,0.75,40
2.1,0.9,40
2.1,1.05,41
2.1,1.2,35
2.1,1.35,35
2.1,1.5,39
2.25,-1.5,99
2.25,-1.35,100
2.25,-1.2,103
2.25,-1.05,118
2.25,-0.9,118
2.25,-0.75,96
2.25,-0.6,53
2.25,-0.45,38
2.25,-0.3,41
2.25,-0.15,55
2.25,0.0,45
2.25,0.15,68
2.25,0.3,60
2.25,0.45,9
2.25,0.6,32
2.25,0.75,37
2.25,0.9,39
2.25,1.05,41
2.25,1.2,41
2.25,1.35,41
2.25,1.5,41
2.4,-1.5,103
2.4,-1.35,103
2.4,-1.2,93
2.4,-1.05,95
2.4,-0.9,103
2.4,-0.75,79
2.4,-0.6,60
2.4,-0.45,23
2.4,-0.3,35
2.4,-0.15,47
2.4,0.0,11
2.4,0.15,78
2.4,0.3,91
2.4,0.45,2
2.4,0.6,23
2.4,0.75,32
2.4,0.9,35
2.4,1.05,38
2.4,1.2,39
2.4,1.35,41
2.4,1.5,39
2.55,-1.5,89
2.55,-1.35,90
2.55,-1.2,87
2.55,-1.05,88
2.55,-0.9,90
2.55,-0.75,56
2.55,-0.6,110
2.55,-0.45,75
2.55,-0.3,117
2.55,-0.15,64
2.55,0.0,46
2.55,0.15,25
2.55,0.3,59
2.55,0.45,30
2.55,0.6,27
2.55,0.75,34
2.55,0.9,39
2.55,1.05,42
2.55,1.2,44
2.55,1.35,39
2.55,1.5,39
2.7,-1.5,87
2.7,-1.35,70
2.7,-1.2,71
2.7,-1.05,75
2.7,-0.9,82
2.7,-0.75,79
2.7,-0.6,55
2.7,-0.45,97
2.7,-0.3,78
2.7,-0.15,82
2.7,0.0,46
2.7,0.15,39
2.7,0.3,18
2.7,0.45,0
2.7,0.6,24
2.7,0.75,37
2.7,0.9,42
2.7,1.05,48
2.7,1.2,49
2.7,1.35,49
2.7,1.5,49
2.85,-1.5,70
2.85,-1.35,69
2.85,-1.2,67
2.85,-1.05,54
2.85,-0.9,49
2.85,-0.75,43
2.85,-0.6,10
2.85,-0.45,40
2.85,-0.3,73
2.85,-0.15,61
2.85,0.0,37
2.85,0.15,37
2.85,0.3,32
2.85,0.45,36
2.85,0.6,45
2.85,0.75,53
2.85,0.9,50
2.85,1.05,49
2.85,1.2,51
2.85,1.35,50
2.85,1.5,50
3.0,-1.5,70
3.0,-1.35,70
3.0,-1.2,68
3.0,-1.05,59
3.0,-0.9,49
3.0,-0.75,38
3.0,-0.6,39
3.0,-0.45,66
3.0,-0.3,96
3.0,-0.15,76
3.0,0.0,67
3.0,0.15,69
3.0,0.3,95
3.0,0.45,60
3.0,0.6,63
3.0,0.75,68
3.0,0.9,60
3.0,1.05,53
3.0,1.2,50
3.0,1.35,48
3.0,1.5,47
3.15,-1.5,68
3.15,-1.35,68
3.15,-1.2,80
3.15,-1.05,88
3.15,-0.9,65
3.15,-0.75,55
3.15,-0.6,56
3.15,-0.45,119
3.15,-0.3,142
3.15,-0.15,68
3.15,0.0,86
3.15,0.15,66
3.15,0.3,77
3.15,0.45,40
3.15,0.6,88
3.15,0.75,88
3.15,0.9,66
3.15,1.05,53
3.15,1.2,49
3.15,1.35,42
3.15,1.5,41
3.3,-1.5,74
3.3,-1.35,76
3.3,-1.2,101
3.3,-1.05,107
3.3,-0.9,129
3.3,-0.75,70
3.3,-0.6,175
3.3,-0.45,30
3.3,-0.3,113
3.3,-0.15,255
3.3,0.0,66
3.3,0.15,112
3.3,0.3,104
3.3,0.45,94
3.3,0.6,87
3.3,0.75,78
3.3,0.9,60
3.3,1.05,62
3.3,1.2,66
3.3,1.35,69
3.3,1.5,71
3.45,-1.5,65
3.45,-1.35,71
3.45,-1.2,95
3.45,-1.05,136
3.45,-0.9,202
3.45,-0.75,114
3.45,-0.6,140
3.45,-0.45,95
3.45,-0.3,82
3.45,-0.15,84
3.45,0.0,45
3.45,0.15,255
3.45,0.3,148
3.45,0.45,101
3.45,0.6,82
3.45,0.75,22
3.45,0.9,26
3.45,1.05,58
3.45,1.2,69
3.45,1.35,76
3.45,1.5,80
3.6,-1.5,44
3.6,-1.35,47
3.6,-1.2,63
3.6,-1.05,72
3.6,-0.9,87
3.6,-0.75,73
3.6,-0.6,153
3.6,-0.45,78
3.6,-0.3,101
3.6,-0.15,88
3.6,0.0,55
3.6,0.15,79
3.6,0.3,115
3.6,0.45,88
3.6,0.6,76
3.6,0.75,27
3.6,0.9,26
3.6,1.05,49
3.6,1.2,47
3.6,1.35,54
3.6,1.5,53
3.75,-1.5,36
3.75,-1.35,35
3.75,-1.2,30
3.75,-1.05,30
3.75,-0.9,25
3.75,-0.75,21
3.75,-0.6,63
3.75,-0.45,46
3.75,-0.3,117
3.75,-0.15,116
3.75,0.0,71
3.75,0.15,78
3.75,0.3,42
3.75,0.45,63
3.75,0.6,59
3.75,0.75,48
3.75,0.9,46
3.75,1.05,47
3.75,1.2,49
3.75,1.35,48
3.75,1.5,50
3.9,-1.5,34
3.9,-1.35,28
3.9,-1.2,21
3.9,-1.05,11
3.9,-0.9,8
3.9,-0.75,25
3.9,-0.6,61
3.9,-0.45,83
3.9,-0.3,54
3.9,-0.15,110
3.9,0.0,64
3.9,0.15,83
3.9,0.3,74
3.9,0.45,72
3.9,0.6,66
3.9,0.75,54
3.9,0.9,51
3.9,1.05,36
3.9,1.2,37
3.9,1.35,38
3.9,1.5,38
4.05,-1.5,30
4.05,-1.35,25
4.05,-1.2,17
4.05,-1.05,14
4.05,-0.9,5
4.05,-0.75,21
4.05,-0.6,121
4.05,-0.45,199
4.05,-0.3,36
4.05,-0.15,71
4.05,0.0,63
4.05,0.15,102
4.05,0.3,63
4.05,0.45,72
4.05,0.6,72
4.05,0.75,40
4.05,0.9,36
4.05,1.05,34
4.05,1.2,33
4.05,1.35,37
4.05,1.5,38
4.2,-1.5,24
4.2,-1.35,19
4.2,-1.2,13
4.2,-1.05,22
4.2,-0.9,13
4.2,-0.75,45
4.2,-0.6,71
4.2,-0.45,39
4.2,-0.3,42
4.2,-0.15,206
4.2,0.0,52
4.2,0.15,41
4.2,0.3,41
4.2,0.45,44
4.2,0.6,41
4.2,0.75,39
4.2,0.9,34
4.2,1.05,36
4.2,1.2,33
4.2,1.35,30
4.2,1.5,30
4.35,-1.5,22
4.35,-1.35,12
4.35,-1.2,0
4.35,-1.05,30
4.35,-0.9,51
4.35,-0.75,77
4.35,-0.6,102
4.35,-0.45,66
4.35,-0.3,61
4.35,-0.15,52
4.35,0.0,66
4.35,0.15,207
4.35,0.3,54
4.35,0.45,41
4.35,0.6,40
4.35,0.75,21
4.35,0.9,20
4.35,1.05,21
4.35,1.2,21
4.35,1.35,25
4.35,1.5,26
4.5,-1.5,33
4.5,-1.35,30
4.5,-1.2,38
4.5,-1.05,56
4.5,-0.9,90
4.5,-0.75,83
4.5,-0.6,87
4.5,-0.45,61
4.5,-0.3,13
4.5,-0.15,58
4.5,0.0,136
4.5,0.15,58
4.5,0.3,48
4.5,0.45,44
4.5,0.6,23
4.5,0.75,14
4.5,0.9,26
4.5,1.05,33
4.5,1.2,36
4.5,1.35,40
4.5,1.5,43
4.65,-1.5,49
4.65,-1.35,52
4.65,-1.2,75
4.65,-1.05,96
4.65,-0.9,100
4.65,-0.75,50
4.65,-0.6,104
4.65,-0.45,84
4.65,-0.3,48
4.65,-0.15,120
4.65,0.0,64
4.65,0.15,70
4.65,0.3,55
4.65,0.45,34
4.65,0.6,21
4.65,0.75,4
4.65,0.9,21
4.65,1.05,30
4.65,1.2,55
4.65,1.35,61
4.65,1.5,65
4.8,-1.5,78
4.8,-1.35,80
4.8,-1.2,76
4.8,-1.05,100
4.8,-0.9,131
4.8,-0.75,104
4.8,-0.6,63
4.8,-0.45,54
4.8,-0.3,111
4.8,-0.15,114
4.8,0.0,120
4.8,0.15,87
4.8,0.3,60
4.8,0.45,33
4.8,0.6,35
4.8,0.75,28
4.8,0.9,45
4.8,1.05,53
4.8,1.2,60
4.8,1.35,65
4.8,1.5,61
4.95,-1.5,94
4.95,-1.35,84
4.95,-1.2,88
4.95,-1.05,89
4.95,-0.9,77
4.95,-0.75,66
4.95,-0.6,61
4.95,-0.45,17
4.95,-0.3,173
4.95,-0.15,202
4.95,0.0,141
4.95,0.15,65
4.95,0.3,92
4.95,0.45,54
4.95,0.6,50
4.95,0.75,58
4.95,0.9,57
4.95,1.05,60
4.95,1.2,67
4.95,1.35,68
4.95,1.5,69
5.1,-1.5,97
5.1,-1.35,99
5.1,-1.2,99
5.1,-1.05,99
5.1,-0.9,96
5.1,-0.75,80
5.1,-0.6,45
5.1,-0.45,50
5.1,-0.3,31
5.1,-0.15,76
5.1,0.0,35
5.1,0.15,134
5.1,0.3,91
5.1,0.45,67
5.1,0.6,72
5.1,0.75,74
5.1,0.9,89
5.1,1.05,86
5.1,1.2,84
5.1,1.35,77
5.1,1.5,73
5.25,-1.5,97
5.25,-1.35,97
5.25,-1.2,99
5.25,-1.05,99
5.25,-0.9,113
5.25,-0.75,117
5.25,-0.6,50
5.25,-0.45,109
5.25,-0.3,19
5.25,-0.15,62
5.25,0.0,63
5.25,0.15,53
5.25,0.3,53
5.25,0.45,46
5.25,0.6,70
5.25,0.75,130
5.25,0.9,140
5.25,1.05,128
5.25,1.2,114
5.25,1.35,103
5.25,1.5,97
5.4,-1.5,112
5.4,-1.35,100
5.4,-1.2,100
5.4,-1.05,104
5.4,-0.9,114
5.4,-0.75,181
5.4,-0.6,2
5.4,-0.45,70
5.4,-0.3,44
5.4,-0.15,59
5.4,0.0,150
5.4,0.15,120
5.4,0.3,18
5.4,0.45,57
5.4,0.6,75
5.4,0.75,226
5.4,0.9,227
5.4,1.05,172
5.4,1.2,143
5.4,1.35,129
5.4,1.5,121
5.55,-1.5,104
5.55,-1.35,102
5.55,-1.2,104
5.55,-1.05,103
5.55,-0.9,114
5.55,-0.75,82
5.55,-0.6,75
5.55,-0.45,161
5.55,-0.3,151
5.55,-0.15,70
5.55,0.0,36
5.55,0.15,55
5.55,0.3,74
5.55,0.45,60
5.55,0.6,73
5.55,0.75,255
5.55,0.9,236
5.55,1.05,164
5.55,1.2,136
5.55,1.35,123
5.55,1.5,120
5.7,-1.5,115
5.7,-1.35,114
5.7,-1.2,98
5.7,-1.05,99
5.7,-0.9,76
5.7,-0.75,91
5.7,-0.6,40
5.7,-0.45,66
5.7,-0.3,11
5.7,-0.15,78
5.7,0.0,15
5.7,0.15,24
5.7,0.3,255
5.7,0.45,122
5.7,0.6,108
5.7,0.75,125
5.7,0.9,125
5.7,1.05,127
5.7,1.2,126
5.7,1.35,122
5.7,1.5,120
5.85,-1.5,96
5.85,-1.35,99
5.85,-1.2,84
5.85,-1.05,83
5.85,-0.9,69
5.85,-0.75,55
5.85,-0.6,47
5.85,-0.45,139
5.85,-0.3,48
5.85,-0.15,48
5.85,0.0,45
5.85,0.15,7
5.85,0.3,61
5.85,0.45,90
5.85,0.6,101
5.85,0.75,73
5.85,0.9,65
5.85,1.05,102
5.85,1.2,116
5.85,1.35,120
5.85,1.5,121
6.0,-1.5,79
6.0,-1.35,80
6.0,-1.2,90
6.0,-1.05,90
6.0,-0.9,76
6.0,-0.75,85
6.0,-0.6,97
6.0,-0.45,53
6.0,-0.3,143
6.0,-0.15,78
6.0,0.0,43
6.0,0.15,62
6.0,0.3,44
6.0,0.45,66
6.0,0.6,91
6.0,0.75,89
6.0,0.9,86
6.0,1.05,102
6.0,1.2,114
6.0,1.35,120
6.0,1.5,121
6.15,-1.5,72
6.15,-1.35,80
6.15,-1.2,85
6.15,-1.05,97
6.15,-0.9,117
6.15,-0.75,76
6.15,-0.6,94
6.15,-0.45,93
6.15,-0.3,14
6.15,-0.15,182
6.15,0.0,48
6.15,0.15,55
6.15,0.3,62
6.15,0.45,84
6.15,0.6,86
6.15,0.75,86
6.15,0.9,92
6.15,1.05,96
6.15,1.2,98
6.15,1.35,110
6.15,1.5,112
6.3,-1.5,72
6.3,-1.35,77
6.3,-1.2,81
6.3,-1.05,90
6.3,-0.9,146
6.3,-0.75,28
6.3,-0.6,64
6.3,-0.45,157
6.3,-0.3,20
6.3,-0.15,65
6.3,0.0,81
6.3,0.15,104
6.3,0.3,84
6.3,0.45,104
6.3,0.6,103
6.3,0.75,86
6.3,0.9,86
6.3,1.05,92
6.3,1.2,95
6.3,1.35,95
6.3,1.5,96
6.45,-1.5,58
6.45,-1.35,58
6.45,-1.2,56
6.45,-1.05,51
6.45,-0.9,58
6.45,-0.75,93
6.45,-0.6,43
6.45,-0.45,107
6.45,-0.3,50
6.45,-0.15,178
6.45,0.0,57
6.45,0.15,74
6.45,0.3,91
6.45,0.45,97
6.45,0.6,106
6.45,0.75,105
6.45,0.9,103
6.45,1.05,102
6.45,1.2,101
6.45,1.35,117
6.45,1.5,108
6.6,-1.5,73
6.6,-1.35,69
6.6,-1.2,57
6.6,-1.05,32
6.6,-0.9,21
6.6,-0.75,14
6.6,-0.6,33
6.6,-0.45,54
6.6,-0.3,85
6.6,-0.15,47
6.6,0.0,65
6.6,0.15,118
6.6,0.3,101
6.6,0.45,109
6.6,0.6,102
6.6,0.75,101
6.6,0.9,104
6.6,1.05,104
6.6,1.2,103
6.6,1.35,103
6.6,1.5,118
6.75,-1.5,61
6.75,-1.35,58
6.75,-1.2,32
6.75,-1.05,38
6.75,-0.9,41
6.75,-0.75,59
6.75,-0.6,107
6.75,-0.45,55
6.75,-0.3,36
6.75,-0.15,85
6.75,0.0,121
6.75,0.15,117
6.75,0.3,120
6.75,0.45,107
6.75,0.6,83
6.75,0.75,90
6.75,0.9,98
6.75,1.05,100
6.75,1.2,78
6.75,1.35,78
6.75,1.5,78
6.9,-1.5,51
6.9,-1.35,51
6.9,-1.2,52
6.9,-1.05,52
6.9,-0.9,75
6.9,-0.75,81
6.9,-0.6,36
6.9,-0.45,75
6.9,-0.3,36
6.9,-0.15,101
6.9,0.0,143
6.9,0.15,144
6.9,0.3,94
6.9,0.45,62
6.9,0.6,75
6.9,0.75,82
6.9,0.9,77
6.9,1.05,78
6.9,1.2,78
6.9,1.35,78
6.9,1.5,78
7.05,-1.5,61
7.05,-1.35,62
7.05,-1.2,60
7.05,-1.05,65
7.05,-0.9,64
7.05,-0.75,51
7.05,-0.6,76
7.05,-0.45,24
7.05,-0.3,11
7.05,-0.15,46
7.05,0.0,92
7.05,0.15,68
7.05,0.3,70
7.05,0.45,72
7.05,0.6,61
7.05,0.75,60
7.05,0.9,57
7.05,1.05,56
7.05,1.2,56
7.05,1.35,60
7.05,1.5,64
7.2,-1.5,61
7.2,-1.35,62
7.2,-1.2,62
7.2,-1.05,62
7.2,-0.9,58
7.2,-0.75,58
7.2,-0.6,35
7.2,-0.45,55
7.2,-0.3,59
7.2,-0.15,127
7.2,0.0,71
7.2,0.15,58
7.2,0.3,64
7.2,0.45,45
7.2,0.6,51
7.2,0.75,50
7.2,0.9,55
7.2,1.05,56
7.2,1.2,57
7.2,1.35,58
7.2,1.5,59
7.35,-1.5,35
7.35,-1.35,27
7.35,-1.2,31
7.35,-1.05,34
7.35,-0.9,33
7.35,-0.75,36
7.35,-0.6,34
7.35,-0.45,18
7.35,-0.3,153
7.35,-0.15,68
7.35,0.0,16
7.35,0.15,63
7.35,0.3,57
7.35,0.45,21
7.35,0.6,37
7.35,0.75,42
7.35,0.9,54
7.35,1.05,57
7.35,1.2,59
7.35,1.35,57
7.35,1.5,65
7.5,-1.5,21
7.5,-1.35,17
7.5,-1.2,17
7.5,-1.05,16
7.5,-0.9,16
7.5,-0.75,15
7.5,-0.6,43
7.5,-0.45,57
7.5,-0.3,82
7.5,-0.15,66
7.5,0.0,91
7.5,0.15,105
7.5,0.3,75
7.5,0.45,45
7.5,0.6,45
7.5,0.75,58
7.5,0.9,62
7.5,1.05,61
7.5,1.2,70
7.5,1.35,72
7.5,1.5,70
7.65,-1.5,51
7.65,-1.35,46
7.65,-1.2,36
7.65,-1.05,19
7.65,-0.9,19
7.65,-0.75,17
7.65,-0.6,44
7.65,-0.45,34
7.65,-0.3,23
7.65,-0.15,36
7.65,0.0,37
7.65,0.15,76
7.65,0.3,111
7.65,0.45,18
7.65,0.6,55
7.65,0.75,60
7.65,0.9,65
7.65,1.05,68
7.65,1.2,70
7.65,1.35,72
7.65,1.5,76
7.8,-1.5,60
7.8,-1.35,67
7.8,-1.2,66
7.8,-1.05,52
7.8,-0.9,43
7.8,-0.75,32
7.8,-0.6,26
7.8,-0.45,90
7.8,-0.3,33
7.8,-0.15,23
7.8,0.0,78
7.8,0.15,88
7.8,0.3,115
7.8,0.45,99
7.8,0.6,61
7.8,0.75,68
7.8,0.9,70
7.8,1.05,72
7.8,1.2,77
7.8,1.35,77
7.8,1.5,77
7.95,-1.5,98
7.95,-1.35,98
7.95,-1.2,96
7.95,-1.05,82
7.95,-0.9,71
7.95,-0.75,77
7.95,-0.6,54
7.95,-0.45,110
7.95,-0.3,40
7.95,-0.15,11
7.95,0.0,19
7.95,0.15,9
7.95,0.3,45
7.95,0.45,59
7.95,0.6,65
7.95,0.75,68
7.95,0.9,79
7.95,1.05,83
7.95,1.2,65
7.95,1.35,62
7.95,1.5,62
8.1,-1.5,111
8.1,-1.35,111
8.1,-1.2,112
8.1,-1.05,118
8.1,-0.9,131
8.1,-0.75,109
8.1,-0.6,36
8.1,-0.45,27
8.1,-0.3,43
8.1,-0.15,88
8.1,0.0,51
8.1,0.15,8
8.1,0.3,23
8.1,0.45,23
8.1,0.6,28
8.1,0.75,58
8.1,0.9,71
8.1,1.05,70
8.1,1.2,67
8.1,1.35,64
8.1,1.5,62
8.25,-1.5,110
8.25,-1.35,110
8.25,-1.2,112
8.25,-1.05,108
8.25,-0.9,109
8.25,-0.75,149
8.25,-0.6,41
8.25,-0.45,52
8.25,-0.3,40
8.25,-0.15,50
8.25,0.0,36
8.25,0.15,26
8.25,0.3,45
8.25,0.45,23
8.25,0.6,23
8.25,0.75,118
8.25,0.9,97
8.25,1.05,77
8.25,1.2,67
8.25,1.35,67
8.25,1.5,57
8.4,-1.5,111
8.4,-1.35,111
8.4,-1.2,108
8.4,-1.05,99
8.4,-0.9,81
8.4,-0.75,81
8.4,-0.6,56
8.4,-0.45,32
8.4,-0.3,41
8.4,-0.15,73
8.4,0.0,57
8.4,0.15,71
8.4,0.3,53
8.4,0.45,38
8.4,0.6,86
8.4,0.75,186
8.4,0.9,111
8.4,1.05,86
8.4,1.2,72
8.4,1.35,65
8.4,1.5,61
8.55,-1.5,91
8.55,-1.35,91
8.55,-1.2,91
8.55,-1.05,102
8.55,-0.9,104
8.55,-0.75,160
8.55,-0.6,59
8.55,-0.45,14
8.55,-0.3,59
8.55,-0.15,153
8.55,0.0,119
8.55,0.15,213
8.55,0.3,66
8.55,0.45,10
8.55,0.6,66
8.55,0.75,87
8.55,0.9,86
8.55,1.05,77
8.55,1.2,69
8.55,1.35,64
8.55,1.5,61
8.7,-1.5,71
8.7,-1.35,70
8.7,-1.2,68
8.7,-1.05,76
8.7,-0.9,62
8.7,-0.75,64
8.7,-0.6,37
8.7,-0.45,64
8.7,-0.3,55
8.7,-0.15,37
8.7,0.0,0
8.7,0.15,8
8.7,0.3,33
8.7,0.45,53
8.7,0.6,79
8.7,0.75,78
8.7,0.9,84
8.7,1.05,64
8.7,1.2,61
8.7,1.35,61
8.7,1.5,61
8.85,-1.5,36
8.85,-1.35,28
8.85,-1.2,40
8.85,-1.05,28
8.85,-0.9,41
8.85,-0.75,31
8.85,-0.6,72
8.85,-0.45,55
8.85,-0.3,38
8.85,-0.15,93
8.85,0.0,120
8.85,0.15,63
8.85,0.3,70
8.85,0.45,76
8.85,0.6,72
8.85,0.75,75
8.85,0.9,77
8.85,1.05,78
8.85,1.2,75
8.85,1.35,77
8.85,1.5,76
9.0,-1.5,17
9.0,-1.35,16
9.0,-1.2,14
9.0,-1.05,7
9.0,-0.9,0
9.0,-0.75,1
9.0,-0.6,20
9.0,-0.45,45
9.0,-0.3,102
9.0,-0.15,105
9.0,0.0,54
9.0,0.15,130
9.0,0.3,118
9.0,0.45,91
9.0,0.6,77
9.0,0.75,71
9.0,0.9,72
9.0,1.05,74
9.0,1.2,74
9.0,1.35,75
9.0,1.5,86
9.15,-1.5,20
9.15,-1.35,16
9.15,-1.2,15
9.15,-1.05,13
9.15,-0.9,11
9.15,-0.75,8
9.15,-0.6,36
9.15,-0.45,69
9.15,-0.3,27
9.15,-0.15,73
9.15,0.0,20
9.15,0.15,23
9.15,0.3,60
9.15,0.45,48
9.15,0.6,64
9.15,0.75,69
9.15,0.9,70
9.15,1.05,86
9.15,1.2,85
9.15,1.35,87
9.15,1.5,88
9.3,-1.5,20
9.3,-1.35,20
9.3,-1.2,17
9.3,-1.05,19
9.3,-0.9,21
9.3,-0.75,34
9.3,-0.6,31
9.3,-0.45,20
9.3,-0.3,50
9.3,-0.15,53
9.3,0.0,121
9.3,0.15,63
9.3,0.3,29
9.3,0.45,29
9.3,0.6,47
9.3,0.75,66
9.3,0.9,65
9.3,1.05,67
9.3,1.2,86
9.3,1.35,81
9.3,1.5,83
9.45,-1.5,44
9.45,-1.35,33
9.45,-1.2,46
9.45,-1.05,50
9.45,-0.9,41
9.45,-0.75,31
9.45,-0.6,33
9.45,-0.45,46
9.45,-0.3,68
9.45,-0.15,55
9.45,0.0,147
9.45,0.15,78
9.45,0.3,74
9.45,0.45,60
9.45,0.6,55
9.45,0.75,63
9.45,0.9,65
9.45,1.05,66
9.45,1.2,70
9.45,1.35,71
9.45,1.5,71
9.6,-1.5,63
9.6,-1.35,63
9.6,-1.2,67
9.6,-1.05,78
9.6,-0.9,76
9.6,-0.75,68
9.6,-0.6,92
9.6,-0.45,74
9.6,-0.3,71
9.6,-0.15,53
9.6,0.0,49
9.6,0.15,35
9.6,0.3,75
9.6,0.45,78
9.6,0.6,70
9.6,0.75,68
9.6,0.9,67
9.6,1.05,66
9.6,1.2,66
9.6,1.35,66
9.6,1.5,68
9.75,-1.5,69
9.75,-1.35,69
9.75,-1.2,81
9.75,-1.05,83
9.75,-0.9,102
9.75,-0.75,118
9.75,-0.6,72
9.75,-0.45,113
9.75,-0.3,135
9.75,-0.15,66
9.75,0.0,30
9.75,0.15,27
9.75,0.3,101
9.75,0.45,120
9.75,0.6,86
9.75,0.75,75
9.75,0.9,70
9.75,1.05,68
9.75,1.2,66
9.75,1.35,68
9.75,1.5,68
9.9,-1.5,71
9.9,-1.35,70
9.9,-1.2,74
9.9,-1.05,84
9.9,-0.9,91
9.9,-0.75,90
9.9,-0.6,90
9.9,-0.45,53
9.9,-0.3,54
9.9,-0.15,71
9.9,0.0,22
9.9,0.15,44
9.9,0.3,72
9.9,0.45,103
9.9,0.6,83
9.9,0.75,73
9.9,0.9,69
9.9,1.05,67
9.9,1.2,66
9.9,1.35,66
9.9,1.5,68
10.05,-1.5,98
10.05,-1.35,98
10.05,-1.2,96
10.05,-1.05,86
10.05,-0.9,54
10.05,-0.75,37
10.05,-0.6,88
10.05,-0.45,72
10.05,-0.3,85
10.05,-0.15,95
10.05,0.0,64
10.05,0.15,51
10.05,0.3,52
10.05,0.45,60
10.05,0.6,61
10.05,0.75,78
10.05,0.9,78
10.05,1.05,89
10.05,1.2,90
10.05,1.35,90
10.05,1.5,90
10.2,-1.5,98
10.2,-1.35,98
10.2,-1.2,92
10.2,-1.05,85
10.2,-0.9,74
10.2,-0.75,69
10.2,-0.6,81
10.2,-0.45,136
10.2,-0.3,161
10.2,-0.15,55
10.2,0.0,58
10.2,0.15,63
10.2,0.3,67
10.2,0.45,58
10.2,0.6,65
10.2,0.75,72
10.2,0.9,76
10.2,1.05,78
10.2,1.2,79
10.2,1.35,90
10.2,1.5,90
10.35,-1.5,102
10.35,-1.35,107
10.35,-1.2,116
10.35,-1.05,109
10.35,-0.9,106
10.35,-0.75,110
10.35,-0.6,136
10.35,-0.45,82
10.35,-0.3,53
10.35,-0.15,49
10.35,0.0,62
10.35,0.15,94
10.35,0.3,87
10.35,0.45,2
10.35,0.6,52
10.35,0.75,75
10.35,0.9,83
10.35,1.05,88
10.35,1.2,90
10.35,1.35,95
10.35,1.5,99
10.5,-1.5,102
10.5,-1.35,112
10.5,-1.2,137
10.5,-1.05,174
10.5,-0.9,126
10.5,-0.75,78
10.5,-0.6,58
10.5,-0.45,53
10.5,-0.3,119
10.5,-0.15,35
10.5,0.0,48
10.5,0.15,130
10.5,0.3,220
10.5,0.45,64
10.5,0.6,67
10.5,0.75,79
10.5,0.9,86
10.5,1.05,107
10.5,1.2,111
10.5,1.35,114
10.5,1.5,116
10.65,-1.5,103
10.65,-1.35,114
10.65,-1.2,140
10.65,-1.05,191
10.65,-0.9,124
10.65,-0.75,77
10.65,-0.6,88
10.65,-0.45,122
10.65,-0.3,132
10.65,-0.15,145
10.65,0.0,48
10.65,0.15,36
10.65,0.3,108
10.65,0.45,86
10.65,0.6,92
10.65,0.75,94
10.65,0.9,97
10.65,1.05,99
10.65,1.2,101
10.65,1.35,115
10.65,1.5,123
10.8,-1.5,103
10.8,-1.35,108
10.8,-1.2,114
10.8,-1.05,106
10.8,-0.9,85
10.8,-0.75,124
10.8,-0.6,79
10.8,-0.45,144
10.8,-0.3,70
10.8,-0.15,110
10.8,0.0,41
10.8,0.15,50
10.8,0.3,85
10.8,0.45,112
10.8,0.6,108
10.8,0.75,106
10.8,0.9,104
10.8,1.05,106
10.8,1.2,106
10.8,1.35,105
10.8,1.5,105
10.95,-1.5,97
10.95,-1.35,97
10.95,-1.2,94
10.95,-1.05,84
10.95,-0.9,62
10.95,-0.75,14
10.95,-0.6,80
10.95,-0.45,251
10.95,-0.3,70
10.95,-0.15,76
10.95,0.0,41
10.95,0.15,56
10.95,0.3,148
10.95,0.45,156
10.95,0.6,132
10.95,0.75,122
10.95,0.9,117
10.95,1.05,113
10.95,1.2,110
10.95,1.35,109
10.95,1.5,107
11.1,-1.5,78
11.1,-1.35,86
11.1,-1.2,86
11.1,-1.05,79
11.1,-0.9,65
11.1,-0.75,66
11.1,-0.6,105
11.1,-0.45,99
11.1,-0.3,90
11.1,-0.15,70
11.1,0.0,44
11.1,0.15,56
11.1,0.3,149
11.1,0.45,160
11.1,0.6,143
11.1,0.75,132
11.1,0.9,124
11.1,1.05,118
11.1,1.2,114
11.1,1.35,111
11.1,1.5,120
11.25,-1.5,68
11.25,-1.35,66
11.25,-1.2,67
11.25,-1.05,57
11.25,-0.9,61
11.25,-0.75,86
11.25,-0.6,79
11.25,-0.45,83
11.25,-0.3,108
11.25,-0.15,74
11.25,0.0,43
11.25,0.15,2
11.25,0.3,144
11.25,0.45,143
11.25,0.6,152
11.25,0.75,136
11.25,0.9,134
11.25,1.05,129
11.25,1.2,122
11.25,1.35,120
11.25,1.5,118
11.4,-1.5,62
11.4,-1.35,40
11.4,-1.2,40
11.4,-1.05,45
11.4,-0.9,52
11.4,-0.75,56
11.4,-0.6,39
11.4,-0.45,131
11.4,-0.3,94
11.4,-0.15,75
11.4,0.0,49
11.4,0.15,66
11.4,0.3,131
11.4,0.45,182
11.4,0.6,152
11.4,0.75,138
11.4,0.9,132
11.4,1.05,131
11.4,1.2,128
11.4,1.35,128
11.4,1.5,124
11.55,-1.5,34
11.55,-1.35,34
11.55,-1.2,40
11.55,-1.05,39
11.55,-0.9,37
11.55,-0.75,29
11.55,-0.6,49
11.55,-0.45,82
11.55,-0.3,1
11.55,-0.15,51
11.55,0.0,41
11.55,0.15,58
11.55,0.3,92
11.55,0.45,119
11.55,0.6,131
11.55,0.75,132
11.55,0.9,131
11.55,1.05,130
11.55,1.2,128
11.55,1.35,123
11.55,1.5,120
11.7,-1.5,35
11.7,-1.35,35
11.7,-1.2,33
11.7,-1.05,31
11.7,-0.9,24
11.7,-0.75,25
11.7,-0.6,38
11.7,-0.45,0
11.7,-0.3,70
11.7,-0.15,44
11.7,0.0,41
11.7,0.15,87
11.7,0.3,60
11.7,0.45,104
11.7,0.6,117
11.7,0.75,131
11.7,0.9,131
11.7,1.05,126
11.7,1.2,124
11.7,1.35,121
11.7,1.5,117
11.85,-1.5,35
11.85,-1.35,26
11.85,-1.2,25
11.85,-1.05,25
11.85,-0.9,17
11.85,-0.75,9
11.85,-0.6,49
11.85,-0.45,17
11.85,-0.3,129
11.85,-0.15,52
11.85,0.0,21
11.85,0.15,87
11.85,0.3,158
11.85,0.45,139
11.85,0.6,134
11.85,0.75,127
11.85,0.9,121
11.85,1.05,128
11.85,1.2,121
11.85,1.35,120
11.85,1.5,115
12.0,-1.5,43
12.0,-1.35,41
12.0,-1.2,30
12.0,-1.05,29
12.0,-0.9,20
12.0,-0.75,14
12.0,-0.6,44
12.0,-0.45,103
12.0,-0.3,64
12.0,-0.15,24
12.0,0.0,49
12.0,0.15,110
12.0,0.3,181
12.0,0.45,196
12.0,0.6,157
12.0,0.75,135
12.0,0.9,122
12.0,1.05,114
12.0,1.2,107
12.0,1.35,114
12.0,1.5,110
12.15,-1.5,45
12.15,-1.35,46
12.15,-1.2,58
12.15,-1.05,59
12.15,-0.9,55
12.15,-0.75,48
12.15,-0.6,53
12.15,-0.45,62
12.15,-0.3,27
12.15,-0.15,24
12.15,0.0,45
12.15,0.15,88
12.15,0.3,143
12.15,0.45,186
12.15,0.6,145
12.15,0.75,122
12.15,0.9,119
12.15,1.05,116
12.15,1.2,110
12.15,1.35,105
12.15,1.5,101
12.3,-1.5,60
12.3,-1.35,63
12.3,-1.2,68
12.3,-1.05,69
12.3,-0.9,70
12.3,-0.75,67
12.3,-0.6,39
12.3,-0.45,77
12.3,-0.3,29
12.3,-0.15,48
12.3,0.0,56
12.3,0.15,81
12.3,0.3,117
12.3,0.45,131
12.3,0.6,121
12.3,0.75,102
12.3,0.9,91
12.3,1.05,84
12.3,1.2,92
12.3,1.35,93
12.3,1.5,89
12.45,-1.5,54
12.45,-1.35,59
12.45,-1.2,65
12.45,-1.05,76
12.45,-0.9,79
12.45,-0.75,71
12.45,-0.6,200
12.45,-0.45,60
12.45,-0.3,75
12.45,-0.15,100
12.45,0.0,70
12.45,0.15,79
12.45,0.3,83
12.45,0.45,96
12.45,0.6,89
12.45,0.75,75
12.45,0.9,72
12.45,1.05,78
12.45,1.2,68
12.45,1.35,76
12.45,1.5,72
12.6,-1.5,45
12.6,-1.35,53
12.6,-1.2,65
12.6,-1.05,70
12.6,-0.9,77
12.6,-0.75,87
12.6,-0.6,94
12.6,-0.45,55
12.6,-0.3,93
12.6,-0.15,136
12.6,0.0,85
12.6,0.15,64
12.6,0.3,71
12.6,0.45,86
12.6,0.6,56
12.6,0.75,27
12.6,0.9,46
12.6,1.05,61
12.6,1.2,62
12.6,1.35,56
12.6,1.5,49
12.75,-1.5,27
12.75,-1.35,38
12.75,-1.2,52
12.75,-1.05,60
12.75,-0.9,58
12.75,-0.75,52
12.75,-0.6,48
12.75,-0.45,51
12.75,-0.3,64
12.75,-0.15,87
12.75,0.0,89
12.75,0.15,92
12.75,0.3,55
12.75,0.45,101
12.75,0.6,42
12.75,0.75,3
12.75,0.9,35
12.75,1.05,53
12.75,1.2,50
12.75,1.35,36
12.75,1.5,26
12.9,-1.5,4
12.9,-1.35,17
12.9,-1.2,37
12.9,-1.05,46
12.9,-0.9,41
12.9,-0.75,29
12.9,-0.6,0
12.9,-0.45,6
12.9,-0.3,61
12.9,-0.15,74
12.9,0.0,89
12.9,0.15,118
12.9,0.3,184
12.9,0.45,125
12.9,0.6,75
12.9,0.75,45
12.9,0.9,50
12.9,1.05,53
12.9,1.2,43
12.9,1.35,17
12.9,1.5,4
13.05,-1.5,0
13.05,-1.35,12
13.05,-1.2,31
13.05,-1.05,38
13.05,-0.9,36
13.05,-0.75,31
13.05,-0.6,22
13.05,-0.45,29
13.05,-0.3,84
13.05,-0.15,73
13.05,0.0,84
13.05,0.15,104
13.05,0.3,120
13.05,0.45,112
13.05,0.6,85
13.05,0.75,72
13.05,0.9,64
13.05,1.05,56
13.05,1.2,38
13.05,1.35,12
13.05,1.5,0
