-3.0,-1.5,0
-3.0,-1.35,2
-3.0,-1.2,27
-3.0,-1.05,54
-3.0,-0.9,72
-3.0,-0.75,79
-3.0,-0.6,76
-3.0,-0.45,65
-3.0,-0.3,45
-3.0,-0.15,21
-3.0,0.0,0
-3.0,0.15,4
-3.0,0.3,25
-3.0,0.45,45
-3.0,0.6,56
-3.0,0.75,59
-3.0,0.9,53
-3.0,1.05,36
-3.0,1.2,12
-3.0,1.35,0
-3.0,1.5,0
-2.85,-1.5,2
-2.85,-1.35,13
-2.85,-1.2,39
-2.85,-1.05,65
-2.85,-0.9,81
-2.85,-0.75,88
-2.85,-0.6,84
-2.85,-0.45,72
-2.85,-0.3,52
-2.85,-0.15,25
-2.85,0.0,0
-2.85,0.15,6
-2.85,0.3,32
-2.85,0.45,50
-2.85,0.6,60
-2.85,0.75,63
-2.85,0.9,58
-2.85,1.05,34
-2.85,1.2,18
-2.85,1.35,3
-2.85,1.5,0
-2.7,-1.5,31
-2.7,-1.35,41
-2.7,-1.2,62
-2.7,-1.05,83
-2.7,-0.9,96
-2.7,-0.75,100
-2.7,-0.6,96
-2.7,-0.45,84
-2.7,-0.3,67
-2.7,-0.15,49
-2.7,0.0,40
-2.7,0.15,43
-2.7,0.3,50
-2.7,0.45,60
-2.7,0.6,67
-2.7,0.75,70
-2.7,0.9,55
-2.7,1.05,43
-2.7,1.2,30
-2.7,1.35,18
-2.7,1.5,14
-2.55,-1.5,65
-2.55,-1.35,75
-2.55,-1.2,90
-2.55,-1.05,104
-2.55,-0.9,114
-2.55,-0.75,116
-2.55,-0.6,111
-2.55,-0.45,100
-2.55,-0.3,84
-2.55,-0.15,68
-2.55,0.0,59
-2.55,0.15,58
-2.55,0.3,63
-2.55,0.45,70
-2.55,0.6,76
-2.55,0.75,66
-2.55,0.9,60
-2.55,1.05,53
-2.55,1.2,48
-2.55,1.35,38
-2.55,1.5,33
-2.4,-1.5,96
-2.4,-1.35,104
-2.4,-1.2,116
-2.4,-1.05,127
-2.4,-0.9,133
-2.4,-0.75,135
-2.4,-0.6,130
-2.4,-0.45,119
-2.4,-0.3,116
-2.4,-0.15,87
-2.4,0.0,69
-2.4,0.15,68
-2.4,0.3,73
-2.4,0.45,82
-2.4,0.6,74
-2.4,0.75,74
-2.4,0.9,69
-2.4,1.05,69
-2.4,1.2,62
-2.4,1.35,55
-2.4,1.5,50
-2.25,-1.5,119
-2.25,-1.35,128
-2.25,-1.2,138
-2.25,-1.05,147
-2.25,-0.9,154
-2.25,-0.75,156
-2.25,-0.6,152
-2.25,-0.45,158
-2.25,-0.3,141
-2.25,-0.15,112
-2.25,0.0,106
-2.25,0.15,99
-2.25,0.3,93
-2.25,0.45,96
-2.25,0.6,83
-2.25,0.75,82
-2.25,0.9,83
-2.25,1.05,79
-2.25,1.2,73
-2.25,1.35,68
-2.25,1.5,64
-2.1,-1.5,155
-2.1,-1.35,164
-2.1,-1.2,175
-2.1,-1.05,169
-2.1,-0.9,193
-2.1,-0.75,196
-2.1,-0.6,191
-2.1,-0.45,180
-2.1,-0.3,164
-2.1,-0.15,135
-2.1,0.0,136
-2.1,0.15,114
-2.1,0.3,111
-2.1,0.45,111
-2.1,0.6,99
-2.1,0.75,94
-2.1,0.9,91
-2.1,1.05,87
-2.1,1.2,82
-2.1,1.35,64
-2.1,1.5,64
-1.95,-1.5,175
-1.95,-1.35,174
-1.95,-1.2,185
-1.95,-1.05,198
-1.95,-0.9,211
-1.95,-0.75,216
-1.95,-0.6,214
-1.95,-0.45,201
-1.95,-0.3,182
-1.95,-0.15,167
-1.95,0.0,154
-1.95,0.15,145
-1.95,0.3,121
-1.95,0.45,120
-1.95,0.6,120
-1.95,0.75,102
-1.95,0.9,98
-1.95,1.05,93
-1.95,1.2,74
-1.95,1.35,69
-1.95,1.5,66
-1.8,-1.5,180
-1.8,-1.35,189
-1.8,-1.2,190
-1.8,-1.05,206
-1.8,-0.9,221
-1.8,-0.75,236
-1.8,-0.6,239
-1.8,-0.45,220
-1.8,-0.3,190
-1.8,-0.15,167
-1.8,0.0,149
-1.8,0.15,142
-1.8,0.3,141
-1.8,0.45,124
-1.8,0.6,111
-1.8,0.75,108
-1.8,0.9,101
-1.8,1.05,96
-1.8,1.2,76
-1.8,1.35,72
-1.8,1.5,68
-1.65,-1.5,158
-1.65,-1.35,187
-1.65,-1.2,199
-1.65,-1.05,205
-1.65,-0.9,227
-1.65,-0.75,255
-1.65,-0.6,255
-1.65,-0.45,238
-1.65,-0.3,192
-1.65,-0.15,156
-1.65,0.0,127
-1.65,0.15,129
-1.65,0.3,114
-1.65,0.45,115
-1.65,0.6,111
-1.65,0.75,108
-1.65,0.9,104
-1.65,1.05,95
-1.65,1.2,79
-1.65,1.35,74
-1.65,1.5,71
-1.5,-1.5,173
-1.5,-1.35,178
-1.5,-1.2,186
-1.5,-1.05,202
-1.5,-0.9,218
-1.5,-0.75,255
-1.5,-0.6,255
-1.5,-0.45,243
-1.5,-0.3,187
-1.5,-0.15,172
-1.5,0.0,66
-1.5,0.15,110
-1.5,0.3,121
-1.5,0.45,113
-1.5,0.6,110
-1.5,0.75,106
-1.5,0.9,100
-1.5,1.05,94
-1.5,1.2,74
-1.5,1.35,70
-1.5,1.5,69
-1.35,-1.5,163
-1.35,-1.35,165
-1.35,-1.2,170
-1.35,-1.05,178
-1.35,-0.9,190
-1.35,-0.75,189
-1.35,-0.6,184
-1.35,-0.45,184
-1.35,-0.3,180
-1.35,-0.15,211
-1.35,0.0,92
-1.35,0.15,111
-1.35,0.3,117
-1.35,0.45,121
-1.35,0.6,109
-1.35,0.75,103
-1.35,0.9,94
-1.35,1.05,100
-1.35,1.2,88
-1.35,1.35,76
-1.35,1.5,69
-1.2,-1.5,144
-1.2,-1.35,142
-1.2,-1.2,142
-1.2,-1.05,144
-1.2,-0.9,146
-1.2,-0.75,132
-1.2,-0.6,71
-1.2,-0.45,151
-1.2,-0.3,138
-1.2,-0.15,98
-1.2,0.0,94
-1.2,0.15,114
-1.2,0.3,121
-1.2,0.45,121
-1.2,0.6,121
-1.2,0.75,111
-1.2,0.9,98
-1.2,1.05,81
-1.2,1.2,71
-1.2,1.35,56
-1.2,1.5,74
-1.05,-1.5,131
-1.05,-1.35,128
-1.05,-1.2,121
-1.05,-1.05,114
-1.05,-0.9,117
-1.05,-0.75,121
-1.05,-0.6,118
-1.05,-0.45,148
-1.05,-0.3,198
-1.05,-0.15,191
-1.05,0.0,89
-1.05,0.15,112
-1.05,0.3,120
-1.05,0.45,121
-1.05,0.6,118
-1.05,0.75,106
-1.05,0.9,84
-1.05,1.05,57
-1.05,1.2,32
-1.05,1.35,33
-1.05,1.5,44
-0.9,-1.5,109
-0.9,-1.35,103
-0.9,-1.2,92
-0.9,-1.05,80
-0.9,-0.9,79
-0.9,-0.75,104
-0.9,-0.6,79
-0.9,-0.45,109
-0.9,-0.3,119
-0.9,-0.15,75
-0.9,0.0,57
-0.9,0.15,115
-0.9,0.3,132
-0.9,0.45,129
-0.9,0.6,120
-0.9,0.75,85
-0.9,0.9,58
-0.9,1.05,21
-0.9,1.2,2
-0.9,1.35,10
-0.9,1.5,28
-0.75,-1.5,103
-0.75,-1.35,97
-0.75,-1.2,88
-0.75,-1.05,73
-0.75,-0.9,76
-0.75,-0.75,117
-0.75,-0.6,93
-0.75,-0.45,143
-0.75,-0.3,172
-0.75,-0.15,165
-0.75,0.0,126
-0.75,0.15,146
-0.75,0.3,133
-0.75,0.45,131
-0.75,0.6,111
-0.75,0.75,95
-0.75,0.9,62
-0.75,1.05,16
-0.75,1.2,0
-0.75,1.35,8
-0.75,1.5,31
-0.6,-1.5,86
-0.6,-1.35,99
-0.6,-1.2,85
-0.6,-1.05,84
-0.6,-0.9,91
-0.6,-0.75,147
-0.6,-0.6,117
-0.6,-0.45,149
-0.6,-0.3,205
-0.6,-0.15,250
-0.6,0.0,242
-0.6,0.15,172
-0.6,0.3,140
-0.6,0.45,125
-0.6,0.6,115
-0.6,0.75,102
-0.6,0.9,76
-0.6,1.05,42
-0.6,1.2,25
-0.6,1.35,30
-0.6,1.5,48
-0.45,-1.5,85
-0.45,-1.35,85
-0.45,-1.2,87
-0.45,-1.05,85
-0.45,-0.9,76
-0.45,-0.75,72
-0.45,-0.6,72
-0.45,-0.45,140
-0.45,-0.3,228
-0.45,-0.15,240
-0.45,0.0,203
-0.45,0.15,142
-0.45,0.3,148
-0.45,0.45,144
-0.45,0.6,130
-0.45,0.75,123
-0.45,0.9,106
-0.45,1.05,83
-0.45,1.2,62
-0.45,1.35,60
-0.45,1.5,67
-0.3,-1.5,60
-0.3,-1.35,68
-0.3,-1.2,69
-0.3,-1.05,85
-0.3,-0.9,82
-0.3,-0.75,80
-0.3,-0.6,72
-0.3,-0.45,1
-0.3,-0.3,189
-0.3,-0.15,152
-0.3,0.0,88
-0.3,0.15,73
-0.3,0.3,122
-0.3,0.45,150
-0.3,0.6,153
-0.3,0.75,133
-0.3,0.9,118
-0.3,1.05,104
-0.3,1.2,91
-0.3,1.35,97
-0.3,1.5,83
-0.15,-1.5,57
-0.15,-1.35,57
-0.15,-1.2,58
-0.15,-1.05,57
-0.15,-0.9,64
-0.15,-0.75,75
-0.15,-0.6,67
-0.15,-0.45,67
-0.15,-0.3,70
-0.15,-0.15,91
-0.15,0.0,61
-0.15,0.15,71
-0.15,0.3,110
-0.15,0.45,141
-0.15,0.6,156
-0.15,0.75,155
-0.15,0.9,125
-0.15,1.05,111
-0.15,1.2,100
-0.15,1.35,83
-0.15,1.5,83
0.0,-1.5,75
0.0,-1.35,72
0.0,-1.2,53
0.0,-1.05,53
0.0,-0.9,51
0.0,-0.75,41
0.0,-0.6,43
0.0,-0.45,32
0.0,-0.3,74
0.0,-0.15,99
0.0,0.0,185
0.0,0.15,117
0.0,0.3,104
0.0,0.45,198
0.0,0.6,198
0.0,0.75,153
0.0,0.9,124
0.0,1.05,108
0.0,1.2,97
0.0,1.35,89
0.0,1.5,84
0.15,-1.5,79
0.15,-1.35,72
0.15,-1.2,56
0.15,-1.05,55
0.15,-0.9,46
0.15,-0.75,51
0.15,-0.6,41
0.15,-0.45,26
0.15,-0.3,49
0.15,-0.15,56
0.15,0.0,142
0.15,0.15,114
0.15,0.3,59
0.15,0.45,187
0.15,0.6,196
0.15,0.75,150
0.15,0.9,124
0.15,1.05,110
0.15,1.2,100
0.15,1.35,93
0.15,1.5,92
0.3,-1.5,66
0.3,-1.35,62
0.3,-1.2,58
0.3,-1.05,57
0.3,-0.9,61
0.3,-0.75,61
0.3,-0.6,60
0.3,-0.45,57
0.3,-0.3,46
0.3,-0.15,30
0.3,0.0,66
0.3,0.15,96
0.3,0.3,95
0.3,0.45,118
0.3,0.6,136
0.3,0.75,134
0.3,0.9,126
0.3,1.05,108
0.3,1.2,101
0.3,1.35,101
0.3,1.5,81
0.45,-1.5,69
0.45,-1.35,62
0.45,-1.2,46
0.45,-1.05,39
0.45,-0.9,64
0.45,-0.75,75
0.45,-0.6,91
0.45,-0.45,67
0.45,-0.3,57
0.45,-0.15,59
0.45,0.0,75
0.45,0.15,96
0.45,0.3,78
0.45,0.45,99
0.45,0.6,108
0.45,0.75,108
0.45,0.9,100
0.45,1.05,98
0.45,1.2,96
0.45,1.35,82
0.45,1.5,80
0.6,-1.5,76
0.6,-1.35,65
0.6,-1.2,34
0.6,-1.05,0
0.6,-0.9,73
0.6,-0.75,91
0.6,-0.6,74
0.6,-0.45,24
0.6,-0.3,55
0.6,-0.15,81
0.6,0.0,109
0.6,0.15,207
0.6,0.3,89
0.6,0.45,89
0.6,0.6,81
0.6,0.75,86
0.6,0.9,88
0.6,1.05,89
0.6,1.2,90
0.6,1.35,90
0.6,1.5,78
0.75,-1.5,83
0.75,-1.35,80
0.75,-1.2,75
0.75,-1.05,92
0.75,-0.9,198
0.75,-0.75,152
0.75,-0.6,80
0.75,-0.45,31
0.75,-0.3,73
0.75,-0.15,87
0.75,0.0,137
0.75,0.15,81
0.75,0.3,59
0.75,0.45,53
0.75,0.6,58
0.75,0.75,68
0.75,0.9,84
0.75,1.05,86
0.75,1.2,80
0.75,1.35,78
0.75,1.5,90
0.9,-1.5,95
0.9,-1.35,103
0.9,-1.2,124
0.9,-1.05,192
0.9,-0.9,255
0.9,-0.75,154
0.9,-0.6,79
0.9,-0.45,84
0.9,-0.3,79
0.9,-0.15,71
0.9,0.0,115
0.9,0.15,120
0.9,0.3,18
0.9,0.45,38
0.9,0.6,47
0.9,0.75,53
0.9,0.9,60
0.9,1.05,62
0.9,1.2,63
0.9,1.35,80
0.9,1.5,81
1.05,-1.5,100
1.05,-1.35,111
1.05,-1.2,133
1.05,-1.05,175
1.05,-0.9,204
1.05,-0.75,126
1.05,-0.6,84
1.05,-0.45,68
1.05,-0.3,71
1.05,-0.15,76
1.05,0.0,59
1.05,0.15,119
1.05,0.3,43
1.05,0.45,54
1.05,0.6,66
1.05,0.75,70
1.05,0.9,70
1.05,1.05,70
1.05,1.2,71
1.05,1.35,65
1.05,1.5,65
1.2,-1.5,102
1.2,-1.35,109
1.2,-1.2,120
1.2,-1.05,129
1.2,-0.9,126
1.2,-0.75,102
1.2,-0.6,80
1.2,-0.45,57
1.2,-0.3,68
1.2,-0.15,69
1.2,0.0,71
1.2,0.15,42
1.2,0.3,27
1.2,0.45,67
1.2,0.6,85
1.2,0.75,71
1.2,0.9,67
1.2,1.05,67
1.2,1.2,67
1.2,1.35,67
1.2,1.5,67
1.35,-1.5,90
1.35,-1.35,97
1.35,-1.2,103
1.35,-1.05,102
1.35,-0.9,96
1.35,-0.75,78
1.35,-0.6,41
1.35,-0.45,8
1.35,-0.3,67
1.35,-0.15,69
1.35,0.0,66
1.35,0.15,74
1.35,0.3,205
1.35,0.45,109
1.35,0.6,123
1.35,0.75,75
1.35,0.9,67
1.35,1.05,67
1.35,1.2,68
1.35,1.35,68
1.35,1.5,69
1.5,-1.5,97
1.5,-1.35,87
1.5,-1.2,86
1.5,-1.05,88
1.5,-0.9,77
1.5,-0.75,64
1.5,-0.6,43
1.5,-0.45,45
1.5,-0.3,111
1.5,-0.15,65
1.5,0.0,53
1.5,0.15,30
1.5,0.3,134
1.5,0.45,112
1.5,0.6,103
1.5,0.75,84
1.5,0.9,71
1.5,1.05,68
1.5,1.2,70
1.5,1.35,69
1.5,1.5,68
1.65,-1.5,94
1.65,-1.35,92
1.65,-1.2,81
1.65,-1.05,76
1.65,-0.9,66
1.65,-0.75,45
1.65,-0.6,38
1.65,-0.45,49
1.65,-0.3,65
1.65,-0.15,64
1.65,0.0,65
1.65,0.15,71
1.65,0.3,80
1.65,0.45,89
1.65,0.6,88
1.65,0.75,84
1.65,0.9,78
1.65,1.05,73
1.65,1.2,71
1.65,1.35,68
1.65,1.5,68
1.8,-1.5,103
1.8,-1.35,102
1.8,-1.2,90
1.8,-1.05,76
1.8,-0.9,68
1.8,-0.75,52
1.8,-0.6,11
1.8,-0.45,19
1.8,-0.3,54
1.8,-0.15,61
1.8,0.0,103
1.8,0.15,69
1.8,0.3,67
1.8,0.45,78
1.8,0.6,79
1.8,0.75,82
1.8,0.9,80
1.8,1.05,79
1.8,1.2,75
1.8,1.35,70
1.8,1.5,69
1.95,-1.5,104
1.95,-1.35,90
1.95,-1.2,92
1.95,-1.05,97
1.95,-0.9,103
1.95,-0.75,59
1.95,-0.6,38
1.95,-0.45,37
1.95,-0.3,40
1.95,-0.15,42
1.95,0.0,49
1.95,0.15,54
1.95,0.3,54
1.95,0.45,63
1.95,0.6,73
1.95,0.75,75
1.95,0.9,77
1.95,1.05,77
1.95,1.2,77
1.95,1.35,77
1.95,1.5,76
2.1,-1.5,94
2.1,-1.35,104
2.1,-1.2,104
2.1,-1.05,108
2.1,-0.9,111
2.1,-0.75,66
2.1,-0.6,38
2.1,-0.45,51
2.1,-0.3,39
2.1,-0.15,19
2.1,0.0,26
2.1,0.15,46
2.1,0.3,53
2.1,0.45,56
2.1,0.6,58
2.1,0.75,72
2.1,0.9,76
2.1,1.05,78
2.1,1.2,83
2.1,1.35,83
2.1,1.5,84
2.25,-1.5,98
2.25,-1.35,100
2.25,-1.2,111
2.25,-1.05,111
2.25,-0.9,99
2.25,-0.75,50
2.25,-0.6,0
2.25,-0.45,35
2.25,-0.3,17
2.25,-0.15,36
2.25,0.0,41
2.25,0.15,47
2.25,0.3,50
2.25,0.45,57
2.25,0.6,58
2.25,0.75,58
2.25,0.9,73
2.25,1.05,75
2.25,1.2,89
2.25,1.35,90
2.25,1.5,87
2.4,-1.5,104
2.4,-1.35,108
2.4,-1.2,124
2.4,-1.05,130
2.4,-0.9,138
2.4,-0.75,109
2.4,-0.6,75
2.4,-0.45,59
2.4,-0.3,16
2.4,-0.15,28
2.4,0.0,45
2.4,0.15,56
2.4,0.3,56
2.4,0.45,58
2.4,0.6,59
2.4,0.75,63
2.4,0.9,63
2.4,1.05,64
2.4,1.2,73
2.4,1.35,73
2.4,1.5,73
2.55,-1.5,100
2.55,-1.35,105
2.55,-1.2,125
2.55,-1.05,143
2.55,-0.9,205
2.55,-0.75,186
2.55,-0.6,157
2.55,-0.45,120
2.55,-0.3,33
2.55,-0.15,34
2.55,0.0,28
2.55,0.15,52
2.55,0.3,59
2.55,0.45,61
2.55,0.6,62
2.55,0.75,62
2.55,0.9,62
2.55,1.05,62
2.55,1.2,65
2.55,1.35,75
2.55,1.5,75
2.7,-1.5,93
2.7,-1.35,97
2.7,-1.2,105
2.7,-1.05,126
2.7,-0.9,157
2.7,-0.75,129
2.7,-0.6,100
2.7,-0.45,108
2.7,-0.3,74
2.7,-0.15,28
2.7,0.0,46
2.7,0.15,59
2.7,0.3,67
2.7,0.45,65
2.7,0.6,65
2.7,0.75,67
2.7,0.9,66
2.7,1.05,83
2.7,1.2,75
2.7,1.35,75
2.7,1.5,75
2.85,-1.5,93
2.85,-1.35,94
2.85,-1.2,90
2.85,-1.05,98
2.85,-0.9,91
2.85,-0.75,72
2.85,-0.6,37
2.85,-0.45,0
2.85,-0.3,255
2.85,-0.15,113
2.85,0.0,76
2.85,0.15,92
2.85,0.3,96
2.85,0.45,74
2.85,0.6,67
2.85,0.75,68
2.85,0.9,76
2.85,1.05,76
2.85,1.2,76
2.85,1.35,65
2.85,1.5,65
3.0,-1.5,71
3.0,-1.35,71
3.0,-1.2,68
3.0,-1.05,77
3.0,-0.9,68
3.0,-0.75,57
3.0,-0.6,51
3.0,-0.45,63
3.0,-0.3,58
3.0,-0.15,143
3.0,0.0,29
3.0,0.15,55
3.0,0.3,71
3.0,0.45,67
3.0,0.6,56
3.0,0.75,72
3.0,0.9,67
3.0,1.05,66
3.0,1.2,61
3.0,1.35,60
3.0,1.5,58
3.15,-1.5,88
3.15,-1.35,87
3.15,-1.2,80
3.15,-1.05,83
3.15,-0.9,66
3.15,-0.75,59
3.15,-0.6,60
3.15,-0.45,70
3.15,-0.3,74
3.15,-0.15,61
3.15,0.0,62
3.15,0.15,56
3.15,0.3,50
3.15,0.45,56
3.15,0.6,61
3.15,0.75,58
3.15,0.9,58
3.15,1.05,58
3.15,1.2,58
3.15,1.35,58
3.15,1.5,60
3.3,-1.5,91
3.3,-1.35,91
3.3,-1.2,113
3.3,-1.05,111
3.3,-0.9,123
3.3,-0.75,108
3.3,-0.6,113
3.3,-0.45,133
3.3,-0.3,142
3.3,-0.15,149
3.3,0.0,59
3.3,0.15,26
3.3,0.3,43
3.3,0.45,53
3.3,0.6,58
3.3,0.75,60
3.3,0.9,58
3.3,1.05,58
3.3,1.2,58
3.3,1.35,59
3.3,1.5,59
3.45,-1.5,105
3.45,-1.35,105
3.45,-1.2,126
3.45,-1.05,126
3.45,-0.9,141
3.45,-0.75,141
3.45,-0.6,139
3.45,-0.45,142
3.45,-0.3,216
3.45,-0.15,70
3.45,0.0,80
3.45,0.15,15
3.45,0.3,16
3.45,0.45,93
3.45,0.6,91
3.45,0.75,77
3.45,0.9,74
3.45,1.05,58
3.45,1.2,59
3.45,1.35,58
3.45,1.5,58
3.6,-1.5,94
3.6,-1.35,99
3.6,-1.2,121
3.6,-1.05,121
3.6,-0.9,114
3.6,-0.75,57
3.6,-0.6,165
3.6,-0.45,255
3.6,-0.3,145
3.6,-0.15,113
3.6,0.0,154
3.6,0.15,143
3.6,0.3,92
3.6,0.45,224
3.6,0.6,78
3.6,0.75,63
3.6,0.9,71
3.6,1.05,75
3.6,1.2,76
3.6,1.35,76
3.6,1.5,75
3.75,-1.5,93
3.75,-1.35,90
3.75,-1.2,102
3.75,-1.05,104
3.75,-0.9,101
3.75,-0.75,144
3.75,-0.6,125
3.75,-0.45,179
3.75,-0.3,149
3.75,-0.15,103
3.75,0.0,90
3.75,0.15,133
3.75,0.3,120
3.75,0.45,98
3.75,0.6,0
3.75,0.75,44
3.75,0.9,68
3.75,1.05,76
3.75,1.2,76
3.75,1.35,58
3.75,1.5,58
3.9,-1.5,84
3.9,-1.35,79
3.9,-1.2,70
3.9,-1.05,63
3.9,-0.9,75
3.9,-0.75,81
3.9,-0.6,81
3.9,-0.45,181
3.9,-0.3,255
3.9,-0.15,55
3.9,0.0,100
3.9,0.15,113
3.9,0.3,122
3.9,0.45,116
3.9,0.6,83
3.9,0.75,76
3.9,0.9,73
3.9,1.05,74
3.9,1.2,76
3.9,1.35,76
3.9,1.5,76
4.05,-1.5,106
4.05,-1.35,98
4.05,-1.2,84
4.05,-1.05,77
4.05,-0.9,93
4.05,-0.75,149
4.05,-0.6,143
4.05,-0.45,99
4.05,-0.3,55
4.05,-0.15,121
4.05,0.0,83
4.05,0.15,239
4.05,0.3,61
4.05,0.45,82
4.05,0.6,75
4.05,0.75,74
4.05,0.9,76
4.05,1.05,76
4.05,1.2,76
4.05,1.35,76
4.05,1.5,76
4.2,-1.5,128
4.2,-1.35,121
4.2,-1.2,106
4.2,-1.05,76
4.2,-0.9,17
4.2,-0.75,188
4.2,-0.6,255
4.2,-0.45,161
4.2,-0.3,46
4.2,-0.15,140
4.2,0.0,69
4.2,0.15,91
4.2,0.3,78
4.2,0.45,60
4.2,0.6,59
4.2,0.75,58
4.2,0.9,70
4.2,1.05,72
4.2,1.2,74
4.2,1.35,75
4.2,1.5,50
4.35,-1.5,140
4.35,-1.35,140
4.35,-1.2,132
4.35,-1.05,128
4.35,-0.9,139
4.35,-0.75,255
4.35,-0.6,255
4.35,-0.45,112
4.35,-0.3,62
4.35,-0.15,27
4.35,0.0,76
4.35,0.15,41
4.35,0.3,12
4.35,0.45,47
4.35,0.6,51
4.35,0.75,53
4.35,0.9,54
4.35,1.05,55
4.35,1.2,55
4.35,1.35,47
4.35,1.5,48
4.5,-1.5,134
4.5,-1.35,151
4.5,-1.2,160
4.5,-1.05,171
4.5,-0.9,204
4.5,-0.75,255
4.5,-0.6,133
4.5,-0.45,159
4.5,-0.3,127
4.5,-0.15,54
4.5,0.0,76
4.5,0.15,1
4.5,0.3,37
4.5,0.45,22
4.5,0.6,22
4.5,0.75,30
4.5,0.9,23
4.5,1.05,22
4.5,1.2,29
4.5,1.35,29
4.5,1.5,29
4.65,-1.5,128
4.65,-1.35,130
4.65,-1.2,133
4.65,-1.05,134
4.65,-0.9,154
4.65,-0.75,223
4.65,-0.6,126
4.65,-0.45,182
4.65,-0.3,92
4.65,-0.15,51
4.65,0.0,42
4.65,0.15,24
4.65,0.3,22
4.65,0.45,14
4.65,0.6,17
4.65,0.75,17
4.65,0.9,16
4.65,1.05,16
4.65,1.2,20
4.65,1.35,19
4.65,1.5,19
4.8,-1.5,128
4.8,-1.35,128
4.8,-1.2,125
4.8,-1.05,115
4.8,-0.9,90
4.8,-0.75,76
4.8,-0.6,53
4.8,-0.45,39
4.8,-0.3,59
4.8,-0.15,92
4.8,0.0,44
4.8,0.15,7
4.8,0.3,16
4.8,0.45,11
4.8,0.6,10
4.8,0.75,10
4.8,0.9,13
4.8,1.05,13
4.8,1.2,13
4.8,1.35,14
4.8,1.5,18
4.95,-1.5,121
4.95,-1.35,124
4.95,-1.2,124
4.95,-1.05,122
4.95,-0.9,114
4.95,-0.75,108
4.95,-0.6,90
4.95,-0.45,60
4.95,-0.3,75
4.95,-0.15,56
4.95,0.0,29
4.95,0.15,24
4.95,0.3,15
4.95,0.45,12
4.95,0.6,10
4.95,0.75,10
4.95,0.9,13
4.95,1.05,18
4.95,1.2,24
4.95,1.35,21
4.95,1.5,22
5.1,-1.5,124
5.1,-1.35,117
5.1,-1.2,108
5.1,-1.05,106
5.1,-0.9,102
5.1,-0.75,93
5.1,-0.6,94
5.1,-0.45,69
5.1,-0.3,120
5.1,-0.15,15
5.1,0.0,19
5.1,0.15,20
5.1,0.3,16
5.1,0.45,21
5.1,0.6,10
5.1,0.75,25
5.1,0.9,42
5.1,1.05,40
5.1,1.2,44
5.1,1.35,45
5.1,1.5,44
5.25,-1.5,118
5.25,-1.35,118
5.25,-1.2,117
5.25,-1.05,117
5.25,-0.9,119
5.25,-0.75,47
5.25,-0.6,100
5.25,-0.45,32
5.25,-0.3,65
5.25,-0.15,9
5.25,0.0,29
5.25,0.15,85
5.25,0.3,62
5.25,0.45,36
5.25,0.6,4
5.25,0.75,28
5.25,0.9,36
5.25,1.05,42
5.25,1.2,40
5.25,1.35,43
5.25,1.5,45
5.4,-1.5,106
5.4,-1.35,118
5.4,-1.2,118
5.4,-1.05,118
5.4,-0.9,132
5.4,-0.75,166
5.4,-0.6,158
5.4,-0.45,104
5.4,-0.3,61
5.4,-0.15,15
5.4,0.0,13
5.4,0.15,249
5.4,0.3,56
5.4,0.45,54
5.4,0.6,44
5.4,0.75,35
5.4,0.9,39
5.4,1.05,42
5.4,1.2,51
5.4,1.35,53
5.4,1.5,46
5.55,-1.5,102
5.55,-1.35,99
5.55,-1.2,94
5.55,-1.05,74
5.55,-0.9,73
5.55,-0.75,214
5.55,-0.6,245
5.55,-0.45,193
5.55,-0.3,113
5.55,-0.15,97
5.55,0.0,61
5.55,0.15,82
5.55,0.3,15
5.55,0.45,46
5.55,0.6,45
5.55,0.75,44
5.55,0.9,45
5.55,1.05,45
5.55,1.2,46
5.55,1.35,50
5.55,1.5,51
5.7,-1.5,90
5.7,-1.35,89
5.7,-1.2,81
5.7,-1.05,55
5.7,-0.9,38
5.7,-0.75,125
5.7,-0.6,159
5.7,-0.45,122
5.7,-0.3,52
5.7,-0.15,19
5.7,0.0,41
5.7,0.15,8
5.7,0.3,44
5.7,0.45,42
5.7,0.6,40
5.7,0.75,42
5.7,0.9,34
5.7,1.05,31
5.7,1.2,29
5.7,1.35,28
5.7,1.5,27
5.85,-1.5,51
5.85,-1.35,43
5.85,-1.2,36
5.85,-1.05,32
5.85,-0.9,26
5.85,-0.75,26
5.85,-0.6,26
5.85,-0.45,87
5.85,-0.3,56
5.85,-0.15,70
5.85,0.0,55
5.85,0.15,38
5.85,0.3,36
5.85,0.45,38
5.85,0.6,50
5.85,0.75,53
5.85,0.9,37
5.85,1.05,34
5.85,1.2,31
5.85,1.35,25
5.85,1.5,24
6.0,-1.5,72
6.0,-1.35,71
6.0,-1.2,43
6.0,-1.05,57
6.0,-0.9,29
6.0,-0.75,33
6.0,-0.6,54
6.0,-0.45,4
6.0,-0.3,13
6.0,-0.15,58
6.0,0.0,36
6.0,0.15,36
6.0,0.3,42
6.0,0.45,61
6.0,0.6,66
6.0,0.75,64
6.0,0.9,66
6.0,1.05,55
6.0,1.2,31
6.0,1.35,50
6.0,1.5,50
6.15,-1.5,78
6.15,-1.35,78
6.15,-1.2,79
6.15,-1.05,86
6.15,-0.9,82
6.15,-0.75,81
6.15,-0.6,92
6.15,-0.45,52
6.15,-0.3,175
6.15,-0.15,85
6.15,0.0,145
6.15,0.15,203
6.15,0.3,59
6.15,0.45,63
6.15,0.6,66
6.15,0.75,66
6.15,0.9,67
6.15,1.05,67
6.15,1.2,68
6.15,1.35,64
6.15,1.5,51
6.3,-1.5,86
6.3,-1.35,86
6.3,-1.2,86
6.3,-1.05,86
6.3,-0.9,120
6.3,-0.75,231
6.3,-0.6,54
6.3,-0.45,55
6.3,-0.3,15
6.3,-0.15,65
6.3,0.0,155
6.3,0.15,87
6.3,0.3,63
6.3,0.45,91
6.3,0.6,92
6.3,0.75,94
6.3,0.9,84
6.3,1.05,85
6.3,1.2,74
6.3,1.35,74
6.3,1.5,75
6.45,-1.5,86
6.45,-1.35,86
6.45,-1.2,83
6.45,-1.05,73
6.45,-0.9,61
6.45,-0.75,118
6.45,-0.6,64
6.45,-0.45,33
6.45,-0.3,28
6.45,-0.15,144
6.45,0.0,1
6.45,0.15,108
6.45,0.3,115
6.45,0.45,108
6.45,0.6,96
6.45,0.75,90
6.45,0.9,90
6.45,1.05,89
6.45,1.2,89
6.45,1.35,90
6.45,1.5,90
6.6,-1.5,79
6.6,-1.35,80
6.6,-1.2,77
6.6,-1.05,73
6.6,-0.9,71
6.6,-0.75,53
6.6,-0.6,51
6.6,-0.45,60
6.6,-0.3,58
6.6,-0.15,61
6.6,0.0,45
6.6,0.15,237
6.6,0.3,109
6.6,0.45,89
6.6,0.6,89
6.6,0.75,104
6.6,0.9,98
6.6,1.05,97
6.6,1.2,92
6.6,1.35,92
6.6,1.5,63
6.75,-1.5,74
6.75,-1.35,71
6.75,-1.2,55
6.75,-1.05,55
6.75,-0.9,40
6.75,-0.75,41
6.75,-0.6,51
6.75,-0.45,57
6.75,-0.3,21
6.75,-0.15,21
6.75,0.0,37
6.75,0.15,74
6.75,0.3,77
6.75,0.45,98
6.75,0.6,95
6.75,0.75,93
6.75,0.9,91
6.75,1.05,90
6.75,1.2,89
6.75,1.35,88
6.75,1.5,88
6.9,-1.5,58
6.9,-1.35,62
6.9,-1.2,60
6.9,-1.05,57
6.9,-0.9,52
6.9,-0.75,15
6.9,-0.6,123
6.9,-0.45,106
6.9,-0.3,29
6.9,-0.15,46
6.9,0.0,8
6.9,0.15,54
6.9,0.3,63
6.9,0.45,66
6.9,0.6,66
6.9,0.75,83
6.9,0.9,84
6.9,1.05,89
6.9,1.2,74
6.9,1.35,88
6.9,1.5,73
7.05,-1.5,42
7.05,-1.35,42
7.05,-1.2,42
7.05,-1.05,42
7.05,-0.9,62
7.05,-0.75,64
7.05,-0.6,97
7.05,-0.45,49
7.05,-0.3,34
7.05,-0.15,52
7.05,0.0,134
7.05,0.15,187
7.05,0.3,60
7.05,0.45,61
7.05,0.6,61
7.05,0.75,61
7.05,0.9,62
7.05,1.05,62
7.05,1.2,63
7.05,1.35,63
7.05,1.5,68
7.2,-1.5,41
7.2,-1.35,46
7.2,-1.2,46
7.2,-1.05,46
7.2,-0.9,52
7.2,-0.75,60
7.2,-0.6,71
7.2,-0.45,108
7.2,-0.3,44
7.2,-0.15,59
7.2,0.0,107
7.2,0.15,51
7.2,0.3,59
7.2,0.45,59
7.2,0.6,59
7.2,0.75,60
7.2,0.9,69
7.2,1.05,71
7.2,1.2,101
7.2,1.35,102
7.2,1.5,103
7.35,-1.5,41
7.35,-1.35,41
7.35,-1.2,58
7.35,-1.05,46
7.35,-0.9,52
7.35,-0.75,41
7.35,-0.6,54
7.35,-0.45,42
7.35,-0.3,53
7.35,-0.15,39
7.35,0.0,11
7.35,0.15,50
7.35,0.3,64
7.35,0.45,77
7.35,0.6,106
7.35,0.75,112
7.35,0.9,116
7.35,1.05,118
7.35,1.2,120
7.35,1.35,116
7.35,1.5,116
7.5,-1.5,71
7.5,-1.35,70
7.5,-1.2,74
7.5,-1.05,72
7.5,-0.9,66
7.5,-0.75,48
7.5,-0.6,41
7.5,-0.45,41
7.5,-0.3,95
7.5,-0.15,101
7.5,0.0,93
7.5,0.15,139
7.5,0.3,126
7.5,0.45,120
7.5,0.6,117
7.5,0.75,116
7.5,0.9,120
7.5,1.05,120
7.5,1.2,120
7.5,1.35,119
7.5,1.5,119
7.65,-1.5,83
7.65,-1.35,88
7.65,-1.2,100
7.65,-1.05,99
7.65,-0.9,96
7.65,-0.75,83
7.65,-0.6,118
7.65,-0.45,66
7.65,-0.3,41
7.65,-0.15,17
7.65,0.0,55
7.65,0.15,255
7.65,0.3,165
7.65,0.45,131
7.65,0.6,131
7.65,0.75,131
7.65,0.9,131
7.65,1.05,129
7.65,1.2,128
7.65,1.35,127
7.65,1.5,126
7.8,-1.5,129
7.8,-1.35,127
7.8,-1.2,124
7.8,-1.05,113
7.8,-0.9,113
7.8,-0.75,117
7.8,-0.6,124
7.8,-0.45,108
7.8,-0.3,176
7.8,-0.15,81
7.8,0.0,34
7.8,0.15,163
7.8,0.3,255
7.8,0.45,83
7.8,0.6,125
7.8,0.75,131
7.8,0.9,131
7.8,1.05,130
7.8,1.2,129
7.8,1.35,128
7.8,1.5,127
7.95,-1.5,153
7.95,-1.35,153
7.95,-1.2,153
7.95,-1.05,150
7.95,-0.9,141
7.95,-0.75,119
7.95,-0.6,133
7.95,-0.45,52
7.95,-0.3,25
7.95,-0.15,43
7.95,0.0,36
7.95,0.15,90
7.95,0.3,161
7.95,0.45,124
7.95,0.6,117
7.95,0.75,115
7.95,0.9,113
7.95,1.05,112
7.95,1.2,115
7.95,1.35,114
7.95,1.5,113
8.1,-1.5,153
8.1,-1.35,144
8.1,-1.2,147
8.1,-1.05,153
8.1,-0.9,138
8.1,-0.75,117
8.1,-0.6,65
8.1,-0.45,43
8.1,-0.3,35
8.1,-0.15,23
8.1,0.0,6
8.1,0.15,30
8.1,0.3,82
8.1,0.45,104
8.1,0.6,106
8.1,0.75,104
8.1,0.9,104
8.1,1.05,103
8.1,1.2,103
8.1,1.35,102
8.1,1.5,102
8.25,-1.5,130
8.25,-1.35,147
8.25,-1.2,155
8.25,-1.05,169
8.25,-0.9,208
8.25,-0.75,188
8.25,-0.6,57
8.25,-0.45,57
8.25,-0.3,41
8.25,-0.15,56
8.25,0.0,32
8.25,0.15,46
8.25,0.3,67
8.25,0.45,103
8.25,0.6,86
8.25,0.75,81
8.25,0.9,79
8.25,1.05,78
8.25,1.2,81
8.25,1.35,81
8.25,1.5,80
8.4,-1.5,145
8.4,-1.35,152
8.4,-1.2,164
8.4,-1.05,181
8.4,-0.9,216
8.4,-0.75,210
8.4,-0.6,15
8.4,-0.45,112
8.4,-0.3,0
8.4,-0.15,22
8.4,0.0,67
8.4,0.15,45
8.4,0.3,54
8.4,0.45,62
8.4,0.6,54
8.4,0.75,72
8.4,0.9,77
8.4,1.05,77
8.4,1.2,77
8.4,1.35,77
8.4,1.5,92
8.55,-1.5,146
8.55,-1.35,147
8.55,-1.2,164
8.55,-1.05,204
8.55,-0.9,191
8.55,-0.75,39
8.55,-0.6,55
8.55,-0.45,45
8.55,-0.3,50
8.55,-0.15,75
8.55,0.0,44
8.55,0.15,44
8.55,0.3,44
8.55,0.45,44
8.55,0.6,47
8.55,0.75,48
8.55,0.9,48
8.55,1.05,70
8.55,1.2,71
8.55,1.35,72
8.55,1.5,96
8.7,-1.5,140
8.7,-1.35,154
8.7,-1.2,168
8.7,-1.05,198
8.7,-0.9,163
8.7,-0.75,76
8.7,-0.6,75
8.7,-0.45,46
8.7,-0.3,0
8.7,-0.15,98
8.7,0.0,44
8.7,0.15,44
8.7,0.3,44
8.7,0.45,44
8.7,0.6,44
8.7,0.75,63
8.7,0.9,66
8.7,1.05,86
8.7,1.2,88
8.7,1.35,94
8.7,1.5,94
8.85,-1.5,138
8.85,-1.35,146
8.85,-1.2,138
8.85,-1.05,119
8.85,-0.9,125
8.85,-0.75,110
8.85,-0.6,120
8.85,-0.45,62
8.85,-0.3,55
8.85,-0.15,104
8.85,0.0,48
8.85,0.15,47
8.85,0.3,48
8.85,0.45,60
8.85,0.6,69
8.85,0.75,83
8.85,0.9,87
8.85,1.05,88
8.85,1.2,88
8.85,1.35,88
8.85,1.5,88
9.0,-1.5,129
9.0,-1.35,106
9.0,-1.2,102
9.0,-1.05,119
9.0,-0.9,102
9.0,-0.75,105
9.0,-0.6,78
9.0,-0.45,68
9.0,-0.3,79
9.0,-0.15,73
9.0,0.0,47
9.0,0.15,57
9.0,0.3,59
9.0,0.45,75
9.0,0.6,87
9.0,0.75,89
9.0,0.9,92
9.0,1.05,90
9.0,1.2,90
9.0,1.35,90
9.0,1.5,90
9.15,-1.5,107
9.15,-1.35,124
9.15,-1.2,123
9.15,-1.05,79
9.15,-0.9,66
9.15,-0.75,63
9.15,-0.6,158
9.15,-0.45,96
9.15,-0.3,93
9.15,-0.15,55
9.15,0.0,48
9.15,0.15,61
9.15,0.3,88
9.15,0.45,118
9.15,0.6,120
9.15,0.75,111
9.15,0.9,99
9.15,1.05,90
9.15,1.2,90
9.15,1.35,90
9.15,1.5,90
9.3,-1.5,110
9.3,-1.35,104
9.3,-1.2,104
9.3,-1.05,112
9.3,-0.9,113
9.3,-0.75,55
9.3,-0.6,25
9.3,-0.45,60
9.3,-0.3,200
9.3,-0.15,38
9.3,0.0,33
9.3,0.15,43
9.3,0.3,191
9.3,0.45,227
9.3,0.6,157
9.3,0.75,124
9.3,0.9,109
9.3,1.05,101
9.3,1.2,95
9.3,1.35,92
9.3,1.5,90
9.45,-1.5,115
9.45,-1.35,108
9.45,-1.2,120
9.45,-1.05,157
9.45,-0.9,234
9.45,-0.75,101
9.45,-0.6,84
9.45,-0.45,84
9.45,-0.3,171
9.45,-0.15,43
9.45,0.0,31
9.45,0.15,77
9.45,0.3,168
9.45,0.45,193
9.45,0.6,159
9.45,0.75,134
9.45,0.9,122
9.45,1.05,126
9.45,1.2,123
9.45,1.35,120
9.45,1.5,106
9.6,-1.5,113
9.6,-1.35,115
9.6,-1.2,134
9.6,-1.05,132
9.6,-0.9,176
9.6,-0.75,101
9.6,-0.6,60
9.6,-0.45,51
9.6,-0.3,51
9.6,-0.15,82
9.6,0.0,82
9.6,0.15,50
9.6,0.3,87
9.6,0.45,128
9.6,0.6,135
9.6,0.75,131
9.6,0.9,127
9.6,1.05,124
9.6,1.2,122
9.6,1.35,121
9.6,1.5,120
9.75,-1.5,114
9.75,-1.35,112
9.75,-1.2,118
9.75,-1.05,85
9.75,-0.9,18
9.75,-0.75,193
9.75,-0.6,233
9.75,-0.45,139
9.75,-0.3,107
9.75,-0.15,230
9.75,0.0,245
9.75,0.15,73
9.75,0.3,91
9.75,0.45,113
9.75,0.6,126
9.75,0.75,132
9.75,0.9,132
9.75,1.05,132
9.75,1.2,132
9.75,1.35,132
9.75,1.5,132
9.9,-1.5,127
9.9,-1.35,122
9.9,-1.2,103
9.9,-1.05,89
9.9,-0.9,82
9.9,-0.75,78
9.9,-0.6,79
9.9,-0.45,111
9.9,-0.3,104
9.9,-0.15,99
9.9,0.0,99
9.9,0.15,94
9.9,0.3,104
9.9,0.45,116
9.9,0.6,125
9.9,0.75,128
9.9,0.9,131
9.9,1.05,132
9.9,1.2,132
9.9,1.35,132
9.9,1.5,114
10.05,-1.5,129
10.05,-1.35,126
10.05,-1.2,121
10.05,-1.05,108
10.05,-0.9,115
10.05,-0.75,120
10.05,-0.6,68
10.05,-0.45,94
10.05,-0.3,76
10.05,-0.15,28
10.05,0.0,96
10.05,0.15,94
10.05,0.3,100
10.05,0.45,110
10.05,0.6,115
10.05,0.75,126
10.05,0.9,127
10.05,1.05,128
10.05,1.2,129
10.05,1.35,129
10.05,1.5,116
10.2,-1.5,144
10.2,-1.35,145
10.2,-1.2,148
10.2,-1.05,145
10.2,-0.9,137
10.2,-0.75,132
10.2,-0.6,95
10.2,-0.45,61
10.2,-0.3,121
10.2,-0.15,133
10.2,0.0,147
10.2,0.15,181
10.2,0.3,107
10.2,0.45,124
10.2,0.6,120
10.2,0.75,116
10.2,0.9,116
10.2,1.05,116
10.2,1.2,116
10.2,1.35,132
10.2,1.5,133
10.35,-1.5,144
10.35,-1.35,149
10.35,-1.2,168
10.35,-1.05,189
10.35,-0.9,221
10.35,-0.75,200
10.35,-0.6,123
10.35,-0.45,115
10.35,-0.3,200
10.35,-0.15,248
10.35,0.0,177
10.35,0.15,164
10.35,0.3,227
10.35,0.45,154
10.35,0.6,131
10.35,0.75,118
10.35,0.9,116
10.35,1.05,133
10.35,1.2,134
10.35,1.35,135
10.35,1.5,150
10.5,-1.5,155
10.5,-1.35,161
10.5,-1.2,174
10.5,-1.05,187
10.5,-0.9,221
10.5,-0.75,245
10.5,-0.6,49
10.5,-0.45,62
10.5,-0.3,124
10.5,-0.15,206
10.5,0.0,161
10.5,0.15,79
10.5,0.3,131
10.5,0.45,129
10.5,0.6,128
10.5,0.75,132
10.5,0.9,135
10.5,1.05,138
10.5,1.2,139
10.5,1.35,140
10.5,1.5,141
10.65,-1.5,140
10.65,-1.35,144
10.65,-1.2,150
10.65,-1.05,157
10.65,-0.9,164
10.65,-0.75,182
10.65,-0.6,152
10.65,-0.45,90
10.65,-0.3,111
10.65,-0.15,144
10.65,0.0,143
10.65,0.15,125
10.65,0.3,79
10.65,0.45,77
10.65,0.6,114
10.65,0.75,129
10.65,0.9,135
10.65,1.05,139
10.65,1.2,140
10.65,1.35,142
10.65,1.5,142
10.8,-1.5,124
10.8,-1.35,125
10.8,-1.2,125
10.8,-1.05,123
10.8,-0.9,117
10.8,-0.75,102
10.8,-0.6,84
10.8,-0.45,47
10.8,-0.3,28
10.8,-0.15,33
10.8,0.0,98
10.8,0.15,144
10.8,0.3,98
10.8,0.45,76
10.8,0.6,122
10.8,0.75,135
10.8,0.9,138
10.8,1.05,141
10.8,1.2,142
10.8,1.35,143
10.8,1.5,143
10.95,-1.5,117
10.95,-1.35,116
10.95,-1.2,112
10.95,-1.05,103
10.95,-0.9,69
10.95,-0.75,27
10.95,-0.6,44
10.95,-0.45,10
10.95,-0.3,28
10.95,-0.15,32
10.95,0.0,102
10.95,0.15,164
10.95,0.3,139
10.95,0.45,143
10.95,0.6,141
10.95,0.75,144
10.95,0.9,143
10.95,1.05,143
10.95,1.2,143
10.95,1.35,143
10.95,1.5,143
11.1,-1.5,80
11.1,-1.35,77
11.1,-1.2,57
11.1,-1.05,42
11.1,-0.9,36
11.1,-0.75,21
11.1,-0.6,45
11.1,-0.45,56
11.1,-0.3,11
11.1,-0.15,79
11.1,0.0,101
11.1,0.15,142
11.1,0.3,81
11.1,0.45,147
11.1,0.6,148
11.1,0.75,147
11.1,0.9,144
11.1,1.05,143
11.1,1.2,142
11.1,1.35,142
11.1,1.5,142
11.25,-1.5,66
11.25,-1.35,63
11.25,-1.2,61
11.25,-1.05,47
11.25,-0.9,44
11.25,-0.75,22
11.25,-0.6,56
11.25,-0.45,58
11.25,-0.3,104
11.25,-0.15,31
11.25,0.0,83
11.25,0.15,183
11.25,0.3,245
11.25,0.45,168
11.25,0.6,154
11.25,0.75,147
11.25,0.9,143
11.25,1.05,141
11.25,1.2,129
11.25,1.35,142
11.25,1.5,153
11.4,-1.5,51
11.4,-1.35,51
11.4,-1.2,50
11.4,-1.05,48
11.4,-0.9,48
11.4,-0.75,64
11.4,-0.6,91
11.4,-0.45,104
11.4,-0.3,32
11.4,-0.15,71
11.4,0.0,112
11.4,0.15,150
11.4,0.3,167
11.4,0.45,159
11.4,0.6,150
11.4,0.75,145
11.4,0.9,142
11.4,1.05,140
11.4,1.2,139
11.4,1.35,138
11.4,1.5,138
11.55,-1.5,61
11.55,-1.35,59
11.55,-1.2,57
11.55,-1.05,54
11.55,-0.9,48
11.55,-0.75,48
11.55,-0.6,118
11.55,-0.45,134
11.55,-0.3,138
11.55,-0.15,158
11.55,0.0,187
11.55,0.15,192
11.55,0.3,134
11.55,0.45,142
11.55,0.6,148
11.55,0.75,150
11.55,0.9,150
11.55,1.05,139
11.55,1.2,138
11.55,1.35,138
11.55,1.5,137
11.7,-1.5,64
11.7,-1.35,63
11.7,-1.2,61
11.7,-1.05,57
11.7,-0.9,51
11.7,-0.75,59
11.7,-0.6,104
11.7,-0.45,120
11.7,-0.3,244
11.7,-0.15,162
11.7,0.0,44
11.7,0.15,103
11.7,0.3,79
11.7,0.45,117
11.7,0.6,136
11.7,0.75,147
11.7,0.9,150
11.7,1.05,150
11.7,1.2,150
11.7,1.35,128
11.7,1.5,126
11.85,-1.5,34
11.85,-1.35,51
11.85,-1.2,51
11.85,-1.05,51
11.85,-0.9,56
11.85,-0.75,65
11.85,-0.6,116
11.85,-0.45,74
11.85,-0.3,196
11.85,-0.15,169
11.85,0.0,97
11.85,0.15,55
11.85,0.3,85
11.85,0.45,118
11.85,0.6,121
11.85,0.75,129
11.85,0.9,142
11.85,1.05,132
11.85,1.2,113
11.85,1.35,111
11.85,1.5,108
12.0,-1.5,33
12.0,-1.35,46
12.0,-1.2,45
12.0,-1.05,45
12.0,-0.9,49
12.0,-0.75,48
12.0,-0.6,70
12.0,-0.45,117
12.0,-0.3,97
12.0,-0.15,94
12.0,0.0,105
12.0,0.15,105
12.0,0.3,130
12.0,0.45,134
12.0,0.6,127
12.0,0.75,122
12.0,0.9,129
12.0,1.05,95
12.0,1.2,104
12.0,1.35,105
12.0,1.5,101
12.15,-1.5,27
12.15,-1.35,27
12.15,-1.2,27
12.15,-1.05,42
12.15,-0.9,28
12.15,-0.75,23
12.15,-0.6,51
12.15,-0.45,5
12.15,-0.3,38
12.15,-0.15,158
12.15,0.0,67
12.15,0.15,118
12.15,0.3,238
12.15,0.45,163
12.15,0.6,125
12.15,0.75,126
12.15,0.9,107
12.15,1.05,101
12.15,1.2,95
12.15,1.35,94
12.15,1.5,89
12.3,-1.5,27
12.3,-1.35,27
12.3,-1.2,28
12.3,-1.05,19
12.3,-0.9,19
12.3,-0.75,0
12.3,-0.6,40
12.3,-0.45,51
12.3,-0.3,32
12.3,-0.15,60
12.3,0.0,54
12.3,0.15,74
12.3,0.3,166
12.3,0.45,145
12.3,0.6,122
12.3,0.75,112
12.3,0.9,91
12.3,1.05,83
12.3,1.2,76
12.3,1.35,69
12.3,1.5,63
12.45,-1.5,34
12.45,-1.35,50
12.45,-1.2,34
12.45,-1.05,62
12.45,-0.9,58
12.45,-0.75,37
12.45,-0.6,69
12.45,-0.45,68
12.45,-0.3,38
12.45,-0.15,0
12.45,0.0,28
12.45,0.15,31
12.45,0.3,79
12.45,0.45,98
12.45,0.6,111
12.45,0.75,96
12.45,0.9,88
12.45,1.05,91
12.45,1.2,69
12.45,1.35,59
12.45,1.5,52
12.6,-1.5,47
12.6,-1.35,59
12.6,-1.2,68
12.6,-1.05,91
12.6,-0.9,97
12.6,-0.75,120
12.6,-0.6,168
12.6,-0.45,157
12.6,-0.3,0
12.6,-0.15,59
12.6,0.0,69
12.6,0.15,72
12.6,0.3,82
12.6,0.45,94
12.6,0.6,96
12.6,0.75,93
12.6,0.9,84
12.6,1.05,73
12.6,1.2,67
12.6,1.35,51
12.6,1.5,33
12.75,-1.5,39
12.75,-1.35,57
12.75,-1.2,81
12.75,-1.05,98
12.75,-0.9,125
12.75,-0.75,137
12.75,-0.6,142
12.75,-0.45,245
12.75,-0.3,131
12.75,-0.15,117
12.75,0.0,144
12.75,0.15,206
12.75,0.3,136
12.75,0.45,115
12.75,0.6,109
12.75,0.75,94
12.75,0.9,84
12.75,1.05,62
12.75,1.2,45
12.75,1.35,24
12.75,1.5,17
12.9,-1.5,2
12.9,-1.35,25
12.9,-1.2,64
12.9,-1.05,89
12.9,-0.9,129
12.9,-0.75,132
12.9,-0.6,129
12.9,-0.45,88
12.9,-0.3,103
12.9,-0.15,123
12.9,0.0,158
12.9,0.15,216
12.9,0.3,160
12.9,0.45,126
12.9,0.6,100
12.9,0.75,89
12.9,0.9,77
12.9,1.05,60
12.9,1.2,33
12.9,1.35,6
12.9,1.5,0
13.05,-1.5,0
13.05,-1.35,17
13.05,-1.2,64
13.05,-1.05,109
13.05,-0.9,123
13.05,-0.75,123
13.05,-0.6,106
13.05,-0.45,48
13.05,-0.3,73
13.05,-0.15,114
13.05,0.0,124
13.05,0.15,144
13.05,0.3,141
13.05,0.45,127
13.05,0.6,112
13.05,0.75,100
13.05,0.9,73
13.05,1.05,54
13.05,1.2,28
13.05,1.35,3
13.05,1.5,0
