-3.0,-1.5,0
-3.0,-1.35,3
-3.0,-1.2,17
-3.0,-1.05,36
-3.0,-0.9,57
-3.0,-0.75,74
-3.0,-0.6,88
-3.0,-0.45,98
-3.0,-0.3,104
-3.0,-0.15,108
-3.0,0.0,108
-3.0,0.15,105
-3.0,0.3,98
-3.0,0.45,89
-3.0,0.6,78
-3.0,0.75,64
-3.0,0.9,49
-3.0,1.05,33
-3.0,1.2,16
-3.0,1.35,3
-3.0,1.5,0
-2.85,-1.5,3
-2.85,-1.35,8
-2.85,-1.2,23
-2.85,-1.05,43
-2.85,-0.9,65
-2.85,-0.75,83
-2.85,-0.6,97
-2.85,-0.45,108
-2.85,-0.3,115
-2.85,-0.15,119
-2.85,0.0,121
-2.85,0.15,118
-2.85,0.3,110
-2.85,0.45,99
-2.85,0.6,84
-2.85,0.75,69
-2.85,0.9,54
-2.85,1.05,37
-2.85,1.2,21
-2.85,1.35,8
-2.85,1.5,3
-2.7,-1.5,15
-2.7,-1.35,22
-2.7,-1.2,36
-2.7,-1.05,56
-2.7,-0.9,77
-2.7,-0.75,95
-2.7,-0.6,109
-2.7,-0.45,120
-2.7,-0.3,127
-2.7,-0.15,133
-2.7,0.0,137
-2.7,0.15,136
-2.7,0.3,126
-2.7,0.45,109
-2.7,0.6,90
-2.7,0.75,74
-2.7,0.9,58
-2.7,1.05,42
-2.7,1.2,28
-2.7,1.35,17
-2.7,1.5,12
-2.55,-1.5,32
-2.55,-1.35,40
-2.55,-1.2,54
-2.55,-1.05,72
-2.55,-0.9,91
-2.55,-0.75,109
-2.55,-0.6,123
-2.55,-0.45,133
-2.55,-0.3,140
-2.55,-0.15,147
-2.55,0.0,156
-2.55,0.15,161
-2.55,0.3,149
-2.55,0.45,118
-2.55,0.6,91
-2.55,0.75,75
-2.55,0.9,61
-2.55,1.05,45
-2.55,1.2,31
-2.55,1.35,20
-2.55,1.5,15
-2.4,-1.5,49
-2.4,-1.35,58
-2.4,-1.2,71
-2.4,-1.05,88
-2.4,-0.9,106
-2.4,-0.75,123
-2.4,-0.6,139
-2.4,-0.45,149
-2.4,-0.3,155
-2.4,-0.15,160
-2.4,0.0,174
-2.4,0.15,194
-2.4,0.3,182
-2.4,0.45,116
-2.4,0.6,78
-2.4,0.75,71
-2.4,0.9,60
-2.4,1.05,45
-2.4,1.2,28
-2.4,1.35,14
-2.4,1.5,8
-2.25,-1.5,64
-2.25,-1.35,72
-2.25,-1.2,85
-2.25,-1.05,101
-2.25,-0.9,119
-2.25,-0.75,138
-2.25,-0.6,156
-2.25,-0.45,170
-2.25,-0.3,173
-2.25,-0.15,170
-2.25,0.0,179
-2.25,0.15,207
-2.25,0.3,196
-2.25,0.45,90
-2.25,0.6,55
-2.25,0.75,64
-2.25,0.9,59
-2.25,1.05,43
-2.25,1.2,23
-2.25,1.35,6
-2.25,1.5,0
-2.1,-1.5,75
-2.1,-1.35,84
-2.1,-1.2,97
-2.1,-1.05,109
-2.1,-0.9,130
-2.1,-0.75,149
-2.1,-0.6,172
-2.1,-0.45,193
-2.1,-0.3,199
-2.1,-0.15,182
-2.1,0.0,170
-2.1,0.15,173
-2.1,0.3,151
-2.1,0.45,88
-2.1,0.6,62
-2.1,0.75,64
-2.1,0.9,56
-2.1,1.05,41
-2.1,1.2,22
-2.1,1.35,6
-2.1,1.5,0
-1.95,-1.5,81
-1.95,-1.35,89
-1.95,-1.2,102
-1.95,-1.05,116
-1.95,-0.9,133
-1.95,-0.75,154
-1.95,-0.6,180
-1.95,-0.45,206
-1.95,-0.3,215
-1.95,-0.15,191
-1.95,0.0,160
-1.95,0.15,143
-1.95,0.3,122
-1.95,0.45,93
-1.95,0.6,74
-1.95,0.75,64
-1.95,0.9,52
-1.95,1.05,40
-1.95,1.2,26
-1.95,1.35,15
-1.95,1.5,9
-1.8,-1.5,84
-1.8,-1.35,92
-1.8,-1.2,101
-1.8,-1.05,115
-1.8,-0.9,130
-1.8,-0.75,149
-1.8,-0.6,171
-1.8,-0.45,192
-1.8,-0.3,198
-1.8,-0.15,176
-1.8,0.0,147
-1.8,0.15,123
-1.8,0.3,104
-1.8,0.45,86
-1.8,0.6,70
-1.8,0.75,57
-1.8,0.9,45
-1.8,1.05,35
-1.8,1.2,26
-1.8,1.35,20
-1.8,1.5,17
-1.65,-1.5,89
-1.65,-1.35,96
-1.65,-1.2,99
-1.65,-1.05,108
-1.65,-0.9,122
-1.65,-0.75,136
-1.65,-0.6,151
-1.65,-0.45,163
-1.65,-0.3,162
-1.65,-0.15,147
-1.65,0.0,125
-1.65,0.15,105
-1.65,0.3,89
-1.65,0.45,73
-1.65,0.6,59
-1.65,0.75,46
-1.65,0.9,34
-1.65,1.05,26
-1.65,1.2,21
-1.65,1.35,20
-1.65,1.5,14
-1.5,-1.5,91
-1.5,-1.35,96
-1.5,-1.2,99
-1.5,-1.05,106
-1.5,-0.9,111
-1.5,-0.75,120
-1.5,-0.6,127
-1.5,-0.45,132
-1.5,-0.3,129
-1.5,-0.15,117
-1.5,0.0,101
-1.5,0.15,87
-1.5,0.3,74
-1.5,0.45,62
-1.5,0.6,46
-1.5,0.75,33
-1.5,0.9,21
-1.5,1.05,14
-1.5,1.2,13
-1.5,1.35,11
-1.5,1.5,13
-1.35,-1.5,91
-1.35,-1.35,92
-1.35,-1.2,96
-1.35,-1.05,98
-1.35,-0.9,103
-1.35,-0.75,107
-1.35,-0.6,109
-1.35,-0.45,109
-1.35,-0.3,104
-1.35,-0.15,93
-1.35,0.0,82
-1.35,0.15,77
-1.35,0.3,63
-1.35,0.45,53
-1.35,0.6,38
-1.35,0.75,22
-1.35,0.9,9
-1.35,1.05,3
-1.35,1.2,5
-1.35,1.35,11
-1.35,1.5,13
-1.2,-1.5,95
-1.2,-1.35,96
-1.2,-1.2,92
-1.2,-1.05,93
-1.2,-0.9,98
-1.2,-0.75,96
-1.2,-0.6,95
-1.2,-0.45,92
-1.2,-0.3,86
-1.2,-0.15,79
-1.2,0.0,69
-1.2,0.15,65
-1.2,0.3,60
-1.2,0.45,54
-1.2,0.6,40
-1.2,0.75,18
-1.2,0.9,3
-1.2,1.05,0
-1.2,1.2,1
-1.2,1.35,7
-1.2,1.5,12
-1.05,-1.5,91
-1.05,-1.35,93
-1.05,-1.2,94
-1.05,-1.05,97
-1.05,-0.9,97
-1.05,-0.75,96
-1.05,-0.6,83
-1.05,-0.45,80
-1.05,-0.3,75
-1.05,-0.15,69
-1.05,0.0,61
-1.05,0.15,56
-1.05,0.3,53
-1.05,0.45,50
-1.05,0.6,37
-1.05,0.75,22
-1.05,0.9,6
-1.05,1.05,2
-1.05,1.2,5
-1.05,1.35,10
-1.05,1.5,13
-0.9,-1.5,78
-0.9,-1.35,79
-0.9,-1.2,79
-0.9,-1.05,78
-0.9,-0.9,78
-0.9,-0.75,77
-0.9,-0.6,75
-0.9,-0.45,73
-0.9,-0.3,69
-0.9,-0.15,59
-0.9,0.0,59
-0.9,0.15,55
-0.9,0.3,53
-0.9,0.45,52
-0.9,0.6,47
-0.9,0.75,30
-0.9,0.9,20
-0.9,1.05,15
-0.9,1.2,15
-0.9,1.35,14
-0.9,1.5,16
-0.75,-1.5,79
-0.75,-1.35,78
-0.75,-1.2,75
-0.75,-1.05,74
-0.75,-0.9,73
-0.75,-0.75,72
-0.75,-0.6,71
-0.75,-0.45,69
-0.75,-0.3,69
-0.75,-0.15,59
-0.75,0.0,60
-0.75,0.15,55
-0.75,0.3,53
-0.75,0.45,55
-0.75,0.6,52
-0.75,0.75,45
-0.75,0.9,29
-0.75,1.05,23
-0.75,1.2,20
-0.75,1.35,20
-0.75,1.5,20
-0.6,-1.5,76
-0.6,-1.35,75
-0.6,-1.2,75
-0.6,-1.05,70
-0.6,-0.9,69
-0.6,-0.75,69
-0.6,-0.6,59
-0.6,-0.45,59
-0.6,-0.3,59
-0.6,-0.15,59
-0.6,0.0,64
-0.6,0.15,60
-0.6,0.3,58
-0.6,0.45,60
-0.6,0.6,58
-0.6,0.75,53
-0.6,0.9,33
-0.6,1.05,23
-0.6,1.2,20
-0.6,1.35,20
-0.6,1.5,20
-0.45,-1.5,74
-0.45,-1.35,73
-0.45,-1.2,58
-0.45,-1.05,58
-0.45,-0.9,58
-0.45,-0.75,58
-0.45,-0.6,59
-0.45,-0.45,59
-0.45,-0.3,60
-0.45,-0.15,59
-0.45,0.0,65
-0.45,0.15,61
-0.45,0.3,63
-0.45,0.45,67
-0.45,0.6,71
-0.45,0.75,64
-0.45,0.9,43
-0.45,1.05,14
-0.45,1.2,10
-0.45,1.35,17
-0.45,1.5,20
-0.3,-1.5,58
-0.3,-1.35,57
-0.3,-1.2,57
-0.3,-1.05,57
-0.3,-0.9,57
-0.3,-0.75,57
-0.3,-0.6,58
-0.3,-0.45,59
-0.3,-0.3,60
-0.3,-0.15,61
-0.3,0.0,66
-0.3,0.15,55
-0.3,0.3,58
-0.3,0.45,69
-0.3,0.6,78
-0.3,0.75,78
-0.3,0.9,54
-0.3,1.05,12
-0.3,1.2,7
-0.3,1.35,11
-0.3,1.5,17
-0.15,-1.5,55
-0.15,-1.35,55
-0.15,-1.2,56
-0.15,-1.05,55
-0.15,-0.9,55
-0.15,-0.75,55
-0.15,-0.6,56
-0.15,-0.45,58
-0.15,-0.3,61
-0.15,-0.15,62
-0.15,0.0,67
-0.15,0.15,61
-0.15,0.3,53
-0.15,0.45,74
-0.15,0.6,94
-0.15,0.75,113
-0.15,0.9,84
-0.15,1.05,36
-0.15,1.2,7
-0.15,1.35,7
-0.15,1.5,8
0.0,-1.5,56
0.0,-1.35,56
0.0,-1.2,55
0.0,-1.05,53
0.0,-0.9,52
0.0,-0.75,51
0.0,-0.6,51
0.0,-0.45,54
0.0,-0.3,60
0.0,-0.15,64
0.0,0.0,72
0.0,0.15,70
0.0,0.3,81
0.0,0.45,95
0.0,0.6,105
0.0,0.75,184
0.0,0.9,121
0.0,1.05,29
0.0,1.2,25
0.0,1.35,13
0.0,1.5,1
0.15,-1.5,49
0.15,-1.35,48
0.15,-1.2,53
0.15,-1.05,51
0.15,-0.9,48
0.15,-0.75,44
0.15,-0.6,41
0.15,-0.45,43
0.15,-0.3,56
0.15,-0.15,67
0.15,0.0,70
0.15,0.15,74
0.15,0.3,62
0.15,0.45,84
0.15,0.6,129
0.15,0.75,116
0.15,0.9,83
0.15,1.05,25
0.15,1.2,40
0.15,1.35,31
0.15,1.5,24
0.3,-1.5,49
0.3,-1.35,48
0.3,-1.2,46
0.3,-1.05,45
0.3,-0.9,45
0.3,-0.75,37
0.3,-0.6,23
0.3,-0.45,16
0.3,-0.3,47
0.3,-0.15,69
0.3,0.0,57
0.3,0.15,90
0.3,0.3,21
0.3,0.45,62
0.3,0.6,62
0.3,0.75,79
0.3,0.9,75
0.3,1.05,65
0.3,1.2,58
0.3,1.35,55
0.3,1.5,49
0.45,-1.5,48
0.45,-1.35,49
0.45,-1.2,49
0.45,-1.05,49
0.45,-0.9,49
0.45,-0.75,36
0.45,-0.6,19
0.45,-0.45,2
0.45,-0.3,44
0.45,-0.15,75
0.45,0.0,100
0.45,0.15,110
0.45,0.3,67
0.45,0.45,82
0.45,0.6,83
0.45,0.75,73
0.45,0.9,55
0.45,1.05,88
0.45,1.2,85
0.45,1.35,77
0.45,1.5,55
0.6,-1.5,48
0.6,-1.35,47
0.6,-1.2,46
0.6,-1.05,45
0.6,-0.9,49
0.6,-0.75,43
0.6,-0.6,36
0.6,-0.45,36
0.6,-0.3,56
0.6,-0.15,72
0.6,0.0,71
0.6,0.15,60
0.6,0.3,95
0.6,0.45,142
0.6,0.6,107
0.6,0.75,109
0.6,0.9,162
0.6,1.05,130
0.6,1.2,99
0.6,1.35,77
0.6,1.5,69
0.75,-1.5,43
0.75,-1.35,43
0.75,-1.2,46
0.75,-1.05,45
0.75,-0.9,44
0.75,-0.75,43
0.75,-0.6,43
0.75,-0.45,56
0.75,-0.3,67
0.75,-0.15,68
0.75,0.0,66
0.75,0.15,64
0.75,0.3,60
0.75,0.45,92
0.75,0.6,110
0.75,0.75,138
0.75,0.9,180
0.75,1.05,121
0.75,1.2,92
0.75,1.35,75
0.75,1.5,69
0.9,-1.5,42
0.9,-1.35,42
0.9,-1.2,41
0.9,-1.05,41
0.9,-0.9,41
0.9,-0.75,45
0.9,-0.6,50
0.9,-0.45,53
0.9,-0.3,57
0.9,-0.15,68
0.9,0.0,68
0.9,0.15,63
0.9,0.3,45
0.9,0.45,62
0.9,0.6,112
0.9,0.75,202
0.9,0.9,133
0.9,1.05,40
0.9,1.2,55
0.9,1.35,56
0.9,1.5,56
1.05,-1.5,27
1.05,-1.35,26
1.05,-1.2,26
1.05,-1.05,26
1.05,-0.9,26
1.05,-0.75,27
1.05,-0.6,32
1.05,-0.45,38
1.05,-0.3,39
1.05,-0.15,46
1.05,0.0,65
1.05,0.15,55
1.05,0.3,53
1.05,0.45,62
1.05,0.6,93
1.05,0.75,125
1.05,0.9,72
1.05,1.05,11
1.05,1.2,33
1.05,1.35,45
1.05,1.5,48
1.2,-1.5,27
1.2,-1.35,26
1.2,-1.2,26
1.2,-1.05,26
1.2,-0.9,26
1.2,-0.75,26
1.2,-0.6,28
1.2,-0.45,34
1.2,-0.3,42
1.2,-0.15,50
1.2,0.0,53
1.2,0.15,51
1.2,0.3,54
1.2,0.45,58
1.2,0.6,52
1.2,0.75,59
1.2,0.9,25
1.2,1.05,8
1.2,1.2,24
1.2,1.35,31
1.2,1.5,38
1.35,-1.5,27
1.35,-1.35,27
1.35,-1.2,26
1.35,-1.05,26
1.35,-0.9,23
1.35,-0.75,22
1.35,-0.6,23
1.35,-0.45,27
1.35,-0.3,36
1.35,-0.15,58
1.35,0.0,79
1.35,0.15,52
1.35,0.3,47
1.35,0.45,36
1.35,0.6,30
1.35,0.75,31
1.35,0.9,15
1.35,1.05,8
1.35,1.2,17
1.35,1.35,25
1.35,1.5,30
1.5,-1.5,27
1.5,-1.35,27
1.5,-1.2,26
1.5,-1.05,28
1.5,-0.9,27
1.5,-0.75,22
1.5,-0.6,17
1.5,-0.45,9
1.5,-0.3,24
1.5,-0.15,42
1.5,0.0,6
1.5,0.15,46
1.5,0.3,50
1.5,0.45,19
1.5,0.6,19
1.5,0.75,19
1.5,0.9,11
1.5,1.05,6
1.5,1.2,9
1.5,1.35,14
1.5,1.5,16
1.65,-1.5,31
1.65,-1.35,30
1.65,-1.2,29
1.65,-1.05,28
1.65,-0.9,26
1.65,-0.75,23
1.65,-0.6,16
1.65,-0.45,6
1.65,-0.3,26
1.65,-0.15,39
1.65,0.0,28
1.65,0.15,47
1.65,0.3,74
1.65,0.45,75
1.65,0.6,28
1.65,0.75,22
1.65,0.9,12
1.65,1.05,6
1.65,1.2,6
1.65,1.35,6
1.65,1.5,6
1.8,-1.5,31
1.8,-1.35,31
1.8,-1.2,30
1.8,-1.05,29
1.8,-0.9,27
1.8,-0.75,25
1.8,-0.6,22
1.8,-0.45,15
1.8,-0.3,12
1.8,-0.15,44
1.8,0.0,51
1.8,0.15,45
1.8,0.3,57
1.8,0.45,48
1.8,0.6,29
1.8,0.75,26
1.8,0.9,6
1.8,1.05,6
1.8,1.2,6
1.8,1.35,6
1.8,1.5,6
1.95,-1.5,39
1.95,-1.35,38
1.95,-1.2,37
1.95,-1.05,27
1.95,-0.9,26
1.95,-0.75,25
1.95,-0.6,23
1.95,-0.45,19
1.95,-0.3,12
1.95,-0.15,12
1.95,0.0,52
1.95,0.15,50
1.95,0.3,56
1.95,0.45,43
1.95,0.6,22
1.95,0.75,4
1.95,0.9,8
1.95,1.05,6
1.95,1.2,8
1.95,1.35,9
1.95,1.5,9
2.1,-1.5,52
2.1,-1.35,51
2.1,-1.2,50
2.1,-1.05,50
2.1,-0.9,39
2.1,-0.75,38
2.1,-0.6,49
2.1,-0.45,48
2.1,-0.3,51
2.1,-0.15,54
2.1,0.0,60
2.1,0.15,54
2.1,0.3,56
2.1,0.45,34
2.1,0.6,4
2.1,0.75,1
2.1,0.9,7
2.1,1.05,10
2.1,1.2,8
2.1,1.35,9
2.1,1.5,9
2.25,-1.5,69
2.25,-1.35,69
2.25,-1.2,57
2.25,-1.05,57
2.25,-0.9,58
2.25,-0.75,58
2.25,-0.6,69
2.25,-0.45,69
2.25,-0.3,69
2.25,-0.15,73
2.25,0.0,72
2.25,0.15,5
2.25,0.3,48
2.25,0.45,38
2.25,0.6,23
2.25,0.75,5
2.25,0.9,8
2.25,1.05,9
2.25,1.2,15
2.25,1.35,15
2.25,1.5,16
2.4,-1.5,69
2.4,-1.35,69
2.4,-1.2,69
2.4,-1.05,69
2.4,-0.9,73
2.4,-0.75,60
2.4,-0.6,65
2.4,-0.45,68
2.4,-0.3,68
2.4,-0.15,135
2.4,0.0,159
2.4,0.15,56
2.4,0.3,50
2.4,0.45,48
2.4,0.6,47
2.4,0.75,13
2.4,0.9,27
2.4,1.05,10
2.4,1.2,11
2.4,1.35,16
2.4,1.5,29
2.55,-1.5,64
2.55,-1.35,75
2.55,-1.2,75
2.55,-1.05,75
2.55,-0.9,75
2.55,-0.75,75
2.55,-0.6,77
2.55,-0.45,68
2.55,-0.3,73
2.55,-0.15,84
2.55,0.0,67
2.55,0.15,23
2.55,0.3,43
2.55,0.45,101
2.55,0.6,43
2.55,0.75,49
2.55,0.9,47
2.55,1.05,19
2.55,1.2,21
2.55,1.35,31
2.55,1.5,36
2.7,-1.5,64
2.7,-1.35,64
2.7,-1.2,64
2.7,-1.05,64
2.7,-0.9,64
2.7,-0.75,64
2.7,-0.6,72
2.7,-0.45,57
2.7,-0.3,44
2.7,-0.15,40
2.7,0.0,30
2.7,0.15,35
2.7,0.3,25
2.7,0.45,42
2.7,0.6,58
2.7,0.75,64
2.7,0.9,19
2.7,1.05,33
2.7,1.2,46
2.7,1.35,51
2.7,1.5,66
2.85,-1.5,64
2.85,-1.35,64
2.85,-1.2,64
2.85,-1.05,64
2.85,-0.9,67
2.85,-0.75,59
2.85,-0.6,59
2.85,-0.45,53
2.85,-0.3,45
2.85,-0.15,41
2.85,0.0,47
2.85,0.15,25
2.85,0.3,46
2.85,0.45,59
2.85,0.6,75
2.85,0.75,120
2.85,0.9,142
2.85,1.05,49
2.85,1.2,71
2.85,1.35,83
2.85,1.5,89
3.0,-1.5,64
3.0,-1.35,64
3.0,-1.2,64
3.0,-1.05,65
3.0,-0.9,67
3.0,-0.75,69
3.0,-0.6,76
3.0,-0.45,83
3.0,-0.3,53
3.0,-0.15,22
3.0,0.0,49
3.0,0.15,46
3.0,0.3,42
3.0,0.45,149
3.0,0.6,184
3.0,0.75,199
3.0,0.9,172
3.0,1.05,56
3.0,1.2,90
3.0,1.35,98
3.0,1.5,100
3.15,-1.5,70
3.15,-1.35,72
3.15,-1.2,77
3.15,-1.05,79
3.15,-0.9,81
3.15,-0.75,83
3.15,-0.6,91
3.15,-0.45,127
3.15,-0.3,144
3.15,-0.15,42
3.15,0.0,52
3.15,0.15,42
3.15,0.3,42
3.15,0.45,172
3.15,0.6,241
3.15,0.75,255
3.15,0.9,212
3.15,1.05,160
3.15,1.2,129
3.15,1.35,122
3.15,1.5,120
3.3,-1.5,70
3.3,-1.35,70
3.3,-1.2,77
3.3,-1.05,73
3.3,-0.9,79
3.3,-0.75,84
3.3,-0.6,81
3.3,-0.45,59
3.3,-0.3,54
3.3,-0.15,94
3.3,0.0,69
3.3,0.15,147
3.3,0.3,49
3.3,0.45,130
3.3,0.6,255
3.3,0.75,255
3.3,0.9,223
3.3,1.05,170
3.3,1.2,129
3.3,1.35,111
3.3,1.5,115
3.45,-1.5,89
3.45,-1.35,85
3.45,-1.2,85
3.45,-1.05,85
3.45,-0.9,62
3.45,-0.75,77
3.45,-0.6,93
3.45,-0.45,102
3.45,-0.3,169
3.45,-0.15,121
3.45,0.0,123
3.45,0.15,49
3.45,0.3,49
3.45,0.45,114
3.45,0.6,162
3.45,0.75,65
3.45,0.9,160
3.45,1.05,123
3.45,1.2,38
3.45,1.35,74
3.45,1.5,100
3.6,-1.5,126
3.6,-1.35,105
3.6,-1.2,83
3.6,-1.05,83
3.6,-0.9,84
3.6,-0.75,86
3.6,-0.6,100
3.6,-0.45,107
3.6,-0.3,136
3.6,-0.15,70
3.6,0.0,155
3.6,0.15,75
3.6,0.3,68
3.6,0.45,110
3.6,0.6,143
3.6,0.75,169
3.6,0.9,232
3.6,1.05,131
3.6,1.2,27
3.6,1.35,65
3.6,1.5,92
3.75,-1.5,115
3.75,-1.35,110
3.75,-1.2,104
3.75,-1.05,82
3.75,-0.9,84
3.75,-0.75,91
3.75,-0.6,106
3.75,-0.45,50
3.75,-0.3,86
3.75,-0.15,255
3.75,0.0,197
3.75,0.15,115
3.75,0.3,152
3.75,0.45,160
3.75,0.6,219
3.75,0.75,119
3.75,0.9,225
3.75,1.05,119
3.75,1.2,73
3.75,1.35,71
3.75,1.5,89
3.9,-1.5,128
3.9,-1.35,126
3.9,-1.2,121
3.9,-1.05,91
3.9,-0.9,82
3.9,-0.75,109
3.9,-0.6,130
3.9,-0.45,108
3.9,-0.3,142
3.9,-0.15,109
3.9,0.0,30
3.9,0.15,19
3.9,0.3,97
3.9,0.45,92
3.9,0.6,128
3.9,0.75,79
3.9,0.9,63
3.9,1.05,21
3.9,1.2,30
3.9,1.35,63
3.9,1.5,78
4.05,-1.5,152
4.05,-1.35,140
4.05,-1.2,119
4.05,-1.05,74
4.05,-0.9,6
4.05,-0.75,104
4.05,-0.6,170
4.05,-0.45,160
4.05,-0.3,177
4.05,-0.15,111
4.05,0.0,75
4.05,0.15,96
4.05,0.3,67
4.05,0.45,100
4.05,0.6,121
4.05,0.75,100
4.05,0.9,58
4.05,1.05,25
4.05,1.2,29
4.05,1.35,52
4.05,1.5,66
4.2,-1.5,140
4.2,-1.35,132
4.2,-1.2,118
4.2,-1.05,90
4.2,-0.9,64
4.2,-0.75,142
4.2,-0.6,204
4.2,-0.45,255
4.2,-0.3,223
4.2,-0.15,156
4.2,0.0,75
4.2,0.15,255
4.2,0.3,67
4.2,0.45,113
4.2,0.6,134
4.2,0.75,84
4.2,0.9,76
4.2,1.05,55
4.2,1.2,53
4.2,1.35,60
4.2,1.5,66
4.35,-1.5,132
4.35,-1.35,132
4.35,-1.2,128
4.35,-1.05,133
4.35,-0.9,132
4.35,-0.75,185
4.35,-0.6,238
4.35,-0.45,214
4.35,-0.3,152
4.35,-0.15,87
4.35,0.0,123
4.35,0.15,121
4.35,0.3,111
4.35,0.45,166
4.35,0.6,147
4.35,0.75,77
4.35,0.9,61
4.35,1.05,46
4.35,1.2,59
4.35,1.35,52
4.35,1.5,55
4.5,-1.5,133
4.5,-1.35,133
4.5,-1.2,133
4.5,-1.05,127
4.5,-0.9,142
4.5,-0.75,179
4.5,-0.6,255
4.5,-0.45,170
4.5,-0.3,25
4.5,-0.15,41
4.5,0.0,39
4.5,0.15,14
4.5,0.3,79
4.5,0.45,180
4.5,0.6,68
4.5,0.75,67
4.5,0.9,56
4.5,1.05,35
4.5,1.2,35
4.5,1.35,34
4.5,1.5,35
4.65,-1.5,111
4.65,-1.35,112
4.65,-1.2,115
4.65,-1.05,119
4.65,-0.9,113
4.65,-0.75,135
4.65,-0.6,120
4.65,-0.45,78
4.65,-0.3,59
4.65,-0.15,38
4.65,0.0,41
4.65,0.15,59
4.65,0.3,95
4.65,0.45,9
4.65,0.6,49
4.65,0.75,49
4.65,0.9,33
4.65,1.05,35
4.65,1.2,27
4.65,1.35,29
4.65,1.5,29
4.8,-1.5,112
4.8,-1.35,100
4.8,-1.2,101
4.8,-1.05,83
4.8,-0.9,84
4.8,-0.75,79
4.8,-0.6,72
4.8,-0.45,53
4.8,-0.3,46
4.8,-0.15,46
4.8,0.0,4
4.8,0.15,61
4.8,0.3,121
4.8,0.45,100
4.8,0.6,73
4.8,0.75,45
4.8,0.9,0
4.8,1.05,16
4.8,1.2,26
4.8,1.35,29
4.8,1.5,30
4.95,-1.5,77
4.95,-1.35,77
4.95,-1.2,78
4.95,-1.05,78
4.95,-0.9,79
4.95,-0.75,74
4.95,-0.6,62
4.95,-0.45,60
4.95,-0.3,14
4.95,-0.15,118
4.95,0.0,52
4.95,0.15,47
4.95,0.3,102
4.95,0.45,211
4.95,0.6,62
4.95,0.75,48
4.95,0.9,44
4.95,1.05,30
4.95,1.2,30
4.95,1.35,32
4.95,1.5,33
5.1,-1.5,75
5.1,-1.35,76
5.1,-1.2,75
5.1,-1.05,74
5.1,-0.9,62
5.1,-0.75,62
5.1,-0.6,72
5.1,-0.45,117
5.1,-0.3,65
5.1,-0.15,38
5.1,0.0,48
5.1,0.15,23
5.1,0.3,12
5.1,0.45,81
5.1,0.6,44
5.1,0.75,39
5.1,0.9,40
5.1,1.05,43
5.1,1.2,40
5.1,1.35,40
5.1,1.5,40
5.25,-1.5,89
5.25,-1.35,73
5.25,-1.2,72
5.25,-1.05,62
5.25,-0.9,62
5.25,-0.75,83
5.25,-0.6,87
5.25,-0.45,92
5.25,-0.3,85
5.25,-0.15,242
5.25,0.0,30
5.25,0.15,21
5.25,0.3,25
5.25,0.45,34
5.25,0.6,50
5.25,0.75,41
5.25,0.9,38
5.25,1.05,35
5.25,1.2,35
5.25,1.35,33
5.25,1.5,33
5.4,-1.5,113
5.4,-1.35,113
5.4,-1.2,113
5.4,-1.05,113
5.4,-0.9,106
5.4,-0.75,131
5.4,-0.6,134
5.4,-0.45,118
5.4,-0.3,48
5.4,-0.15,80
5.4,0.0,45
5.4,0.15,20
5.4,0.3,28
5.4,0.45,110
5.4,0.6,126
5.4,0.75,63
5.4,0.9,31
5.4,1.05,22
5.4,1.2,27
5.4,1.35,30
5.4,1.5,34
5.55,-1.5,113
5.55,-1.35,136
5.55,-1.2,137
5.55,-1.05,154
5.55,-0.9,153
5.55,-0.75,173
5.55,-0.6,151
5.55,-0.45,141
5.55,-0.3,136
5.55,-0.15,101
5.55,0.0,2
5.55,0.15,53
5.55,0.3,57
5.55,0.45,189
5.55,0.6,91
5.55,0.75,13
5.55,0.9,6
5.55,1.05,24
5.55,1.2,37
5.55,1.35,54
5.55,1.5,58
5.7,-1.5,153
5.7,-1.35,154
5.7,-1.2,154
5.7,-1.05,146
5.7,-0.9,149
5.7,-0.75,137
5.7,-0.6,148
5.7,-0.45,162
5.7,-0.3,255
5.7,-0.15,77
5.7,0.0,23
5.7,0.15,38
5.7,0.3,40
5.7,0.45,51
5.7,0.6,50
5.7,0.75,47
5.7,0.9,40
5.7,1.05,51
5.7,1.2,60
5.7,1.35,58
5.7,1.5,62
5.85,-1.5,158
5.85,-1.35,135
5.85,-1.2,147
5.85,-1.05,148
5.85,-0.9,137
5.85,-0.75,157
5.85,-0.6,157
5.85,-0.45,167
5.85,-0.3,170
5.85,-0.15,60
5.85,0.0,46
5.85,0.15,30
5.85,0.3,128
5.85,0.45,28
5.85,0.6,50
5.85,0.75,54
5.85,0.9,54
5.85,1.05,54
5.85,1.2,62
5.85,1.35,73
5.85,1.5,85
6.0,-1.5,162
6.0,-1.35,181
6.0,-1.2,160
6.0,-1.05,156
6.0,-0.9,157
6.0,-0.75,154
6.0,-0.6,149
6.0,-0.45,197
6.0,-0.3,141
6.0,-0.15,71
6.0,0.0,15
6.0,0.15,43
6.0,0.3,4
6.0,0.45,51
6.0,0.6,89
6.0,0.75,67
6.0,0.9,83
6.0,1.05,79
6.0,1.2,83
6.0,1.35,85
6.0,1.5,84
6.15,-1.5,152
6.15,-1.35,151
6.15,-1.2,150
6.15,-1.05,147
6.15,-0.9,131
6.15,-0.75,125
6.15,-0.6,130
6.15,-0.45,107
6.15,-0.3,71
6.15,-0.15,85
6.15,0.0,30
6.15,0.15,77
6.15,0.3,129
6.15,0.45,59
6.15,0.6,10
6.15,0.75,125
6.15,0.9,80
6.15,1.05,95
6.15,1.2,94
6.15,1.35,91
6.15,1.5,89
6.3,-1.5,140
6.3,-1.35,140
6.3,-1.2,139
6.3,-1.05,142
6.3,-0.9,138
6.3,-0.75,126
6.3,-0.6,121
6.3,-0.45,100
6.3,-0.3,92
6.3,-0.15,94
6.3,0.0,31
6.3,0.15,50
6.3,0.3,31
6.3,0.45,92
6.3,0.6,106
6.3,0.75,153
6.3,0.9,109
6.3,1.05,106
6.3,1.2,98
6.3,1.35,97
6.3,1.5,96
6.45,-1.5,150
6.45,-1.35,150
6.45,-1.2,150
6.45,-1.05,135
6.45,-0.9,135
6.45,-0.75,119
6.45,-0.6,113
6.45,-0.45,108
6.45,-0.3,124
6.45,-0.15,73
6.45,0.0,37
6.45,0.15,31
6.45,0.3,68
6.45,0.45,133
6.45,0.6,142
6.45,0.75,151
6.45,0.9,101
6.45,1.05,102
6.45,1.2,100
6.45,1.35,102
6.45,1.5,102
6.6,-1.5,150
6.6,-1.35,142
6.6,-1.2,145
6.6,-1.05,150
6.6,-0.9,155
6.6,-0.75,156
6.6,-0.6,140
6.6,-0.45,158
6.6,-0.3,34
6.6,-0.15,68
6.6,0.0,91
6.6,0.15,46
6.6,0.3,45
6.6,0.45,52
6.6,0.6,38
6.6,0.75,43
6.6,0.9,81
6.6,1.05,102
6.6,1.2,102
6.6,1.35,102
6.6,1.5,102
6.75,-1.5,139
6.75,-1.35,142
6.75,-1.2,148
6.75,-1.05,157
6.75,-0.9,173
6.75,-0.75,204
6.75,-0.6,207
6.75,-0.45,146
6.75,-0.3,12
6.75,-0.15,4
6.75,0.0,34
6.75,0.15,25
6.75,0.3,31
6.75,0.45,38
6.75,0.6,177
6.75,0.75,100
6.75,0.9,89
6.75,1.05,90
6.75,1.2,102
6.75,1.35,102
6.75,1.5,102
6.9,-1.5,139
6.9,-1.35,144
6.9,-1.2,141
6.9,-1.05,152
6.9,-0.9,174
6.9,-0.75,230
6.9,-0.6,255
6.9,-0.45,126
6.9,-0.3,40
6.9,-0.15,15
6.9,0.0,22
6.9,0.15,36
6.9,0.3,48
6.9,0.45,63
6.9,0.6,171
6.9,0.75,89
6.9,0.9,69
6.9,1.05,80
6.9,1.2,85
6.9,1.35,86
6.9,1.5,90
7.05,-1.5,138
7.05,-1.35,141
7.05,-1.2,147
7.05,-1.05,155
7.05,-0.9,167
7.05,-0.75,182
7.05,-0.6,181
7.05,-0.45,255
7.05,-0.3,5
7.05,-0.15,54
7.05,0.0,27
7.05,0.15,15
7.05,0.3,40
7.05,0.45,35
7.05,0.6,80
7.05,0.75,8
7.05,0.9,49
7.05,1.05,63
7.05,1.2,67
7.05,1.35,71
7.05,1.5,72
7.2,-1.5,137
7.2,-1.35,140
7.2,-1.2,142
7.2,-1.05,145
7.2,-0.9,147
7.2,-0.75,129
7.2,-0.6,125
7.2,-0.45,93
7.2,-0.3,74
7.2,-0.15,46
7.2,0.0,67
7.2,0.15,154
7.2,0.3,8
7.2,0.45,44
7.2,0.6,70
7.2,0.75,51
7.2,0.9,46
7.2,1.05,48
7.2,1.2,51
7.2,1.35,52
7.2,1.5,49
7.35,-1.5,115
7.35,-1.35,117
7.35,-1.2,114
7.35,-1.05,111
7.35,-0.9,109
7.35,-0.75,104
7.35,-0.6,79
7.35,-0.45,66
7.35,-0.3,43
7.35,-0.15,11
7.35,0.0,19
7.35,0.15,0
7.35,0.3,7
7.35,0.45,34
7.35,0.6,41
7.35,0.75,11
7.35,0.9,35
7.35,1.05,35
7.35,1.2,33
7.35,1.35,42
7.35,1.5,43
7.5,-1.5,111
7.5,-1.35,111
7.5,-1.2,109
7.5,-1.05,103
7.5,-0.9,97
7.5,-0.75,53
7.5,-0.6,53
7.5,-0.45,54
7.5,-0.3,20
7.5,-0.15,5
7.5,0.0,125
7.5,0.15,37
7.5,0.3,6
7.5,0.45,18
7.5,0.6,37
7.5,0.75,35
7.5,0.9,34
7.5,1.05,29
7.5,1.2,28
7.5,1.35,28
7.5,1.5,39
7.65,-1.5,87
7.65,-1.35,85
7.65,-1.2,60
7.65,-1.05,41
7.65,-0.9,41
7.65,-0.75,42
7.65,-0.6,46
7.65,-0.45,50
7.65,-0.3,49
7.65,-0.15,19
7.65,0.0,38
7.65,0.15,51
7.65,0.3,41
7.65,0.45,6
7.65,0.6,49
7.65,0.75,16
7.65,0.9,27
7.65,1.05,28
7.65,1.2,29
7.65,1.35,29
7.65,1.5,29
7.8,-1.5,41
7.8,-1.35,41
7.8,-1.2,41
7.8,-1.05,41
7.8,-0.9,44
7.8,-0.75,45
7.8,-0.6,42
7.8,-0.45,45
7.8,-0.3,31
7.8,-0.15,34
7.8,0.0,23
7.8,0.15,80
7.8,0.3,64
7.8,0.45,248
7.8,0.6,59
7.8,0.75,43
7.8,0.9,28
7.8,1.05,30
7.8,1.2,29
7.8,1.35,29
7.8,1.5,29
7.95,-1.5,41
7.95,-1.35,41
7.95,-1.2,41
7.95,-1.05,40
7.95,-0.9,40
7.95,-0.75,41
7.95,-0.6,41
7.95,-0.45,38
7.95,-0.3,44
7.95,-0.15,45
7.95,0.0,125
7.95,0.15,8
7.95,0.3,0
7.95,0.45,105
7.95,0.6,41
7.95,0.75,80
7.95,0.9,29
7.95,1.05,29
7.95,1.2,30
7.95,1.35,29
7.95,1.5,29
8.1,-1.5,32
8.1,-1.35,40
8.1,-1.2,40
8.1,-1.05,40
8.1,-0.9,37
8.1,-0.75,49
8.1,-0.6,52
8.1,-0.45,54
8.1,-0.3,53
8.1,-0.15,108
8.1,0.0,54
8.1,0.15,50
8.1,0.3,23
8.1,0.45,41
8.1,0.6,41
8.1,0.75,50
8.1,0.9,39
8.1,1.05,33
8.1,1.2,26
8.1,1.35,24
8.1,1.5,24
8.25,-1.5,32
8.25,-1.35,32
8.25,-1.2,32
8.25,-1.05,33
8.25,-0.9,43
8.25,-0.75,43
8.25,-0.6,45
8.25,-0.45,45
8.25,-0.3,66
8.25,-0.15,79
8.25,0.0,20
8.25,0.15,29
8.25,0.3,43
8.25,0.45,32
8.25,0.6,34
8.25,0.75,34
8.25,0.9,26
8.25,1.05,27
8.25,1.2,23
8.25,1.35,23
8.25,1.5,23
8.4,-1.5,29
8.4,-1.35,29
8.4,-1.2,29
8.4,-1.05,29
8.4,-0.9,29
8.4,-0.75,38
8.4,-0.6,37
8.4,-0.45,40
8.4,-0.3,47
8.4,-0.15,10
8.4,0.0,10
8.4,0.15,10
8.4,0.3,26
8.4,0.45,23
8.4,0.6,28
8.4,0.75,12
8.4,0.9,17
8.4,1.05,28
8.4,1.2,25
8.4,1.35,25
8.4,1.5,21
8.55,-1.5,29
8.55,-1.35,29
8.55,-1.2,29
8.55,-1.05,29
8.55,-0.9,29
8.55,-0.75,29
8.55,-0.6,28
8.55,-0.45,27
8.55,-0.3,7
8.55,-0.15,33
8.55,0.0,17
8.55,0.15,19
8.55,0.3,23
8.55,0.45,49
8.55,0.6,27
8.55,0.75,29
8.55,0.9,29
8.55,1.05,20
8.55,1.2,15
8.55,1.35,21
8.55,1.5,22
8.7,-1.5,29
8.7,-1.35,29
8.7,-1.2,29
8.7,-1.05,31
8.7,-0.9,29
8.7,-0.75,38
8.7,-0.6,41
8.7,-0.45,43
8.7,-0.3,1
8.7,-0.15,40
8.7,0.0,48
8.7,0.15,17
8.7,0.3,41
8.7,0.45,25
8.7,0.6,40
8.7,0.75,55
8.7,0.9,35
8.7,1.05,8
8.7,1.2,3
8.7,1.35,14
8.7,1.5,19
8.85,-1.5,31
8.85,-1.35,43
8.85,-1.2,43
8.85,-1.05,43
8.85,-0.9,43
8.85,-0.75,44
8.85,-0.6,44
8.85,-0.45,54
8.85,-0.3,76
8.85,-0.15,218
8.85,0.0,182
8.85,0.15,54
8.85,0.3,40
8.85,0.45,80
8.85,0.6,31
8.85,0.75,59
8.85,0.9,42
8.85,1.05,26
8.85,1.2,19
8.85,1.35,24
8.85,1.5,20
9.0,-1.5,44
9.0,-1.35,44
9.0,-1.2,44
9.0,-1.05,44
9.0,-0.9,48
9.0,-0.75,49
9.0,-0.6,49
9.0,-0.45,47
9.0,-0.3,53
9.0,-0.15,18
9.0,0.0,163
9.0,0.15,69
9.0,0.3,40
9.0,0.45,39
9.0,0.6,31
9.0,0.75,40
9.0,0.9,25
9.0,1.05,29
9.0,1.2,32
9.0,1.35,30
9.0,1.5,31
9.15,-1.5,48
9.15,-1.35,62
9.15,-1.2,62
9.15,-1.05,62
9.15,-0.9,62
9.15,-0.75,60
9.15,-0.6,55
9.15,-0.45,56
9.15,-0.3,50
9.15,-0.15,50
9.15,0.0,72
9.15,0.15,69
9.15,0.3,51
9.15,0.45,65
9.15,0.6,166
9.15,0.75,43
9.15,0.9,6
9.15,1.05,27
9.15,1.2,32
9.15,1.35,34
9.15,1.5,34
9.3,-1.5,61
9.3,-1.35,61
9.3,-1.2,62
9.3,-1.05,62
9.3,-0.9,62
9.3,-0.75,79
9.3,-0.6,80
9.3,-0.45,86
9.3,-0.3,125
9.3,-0.15,255
9.3,0.0,119
9.3,0.15,123
9.3,0.3,61
9.3,0.45,45
9.3,0.6,15
9.3,0.75,45
9.3,0.9,37
9.3,1.05,34
9.3,1.2,36
9.3,1.35,54
9.3,1.5,56
9.45,-1.5,78
9.45,-1.35,78
9.45,-1.2,74
9.45,-1.05,74
9.45,-0.9,68
9.45,-0.75,87
9.45,-0.6,92
9.45,-0.45,135
9.45,-0.3,158
9.45,-0.15,136
9.45,0.0,171
9.45,0.15,171
9.45,0.3,95
9.45,0.45,51
9.45,0.6,33
9.45,0.75,50
9.45,0.9,72
9.45,1.05,81
9.45,1.2,74
9.45,1.35,74
9.45,1.5,72
9.6,-1.5,99
9.6,-1.35,74
9.6,-1.2,74
9.6,-1.05,74
9.6,-0.9,74
9.6,-0.75,94
9.6,-0.6,99
9.6,-0.45,93
9.6,-0.3,84
9.6,-0.15,75
9.6,0.0,49
9.6,0.15,161
9.6,0.3,62
9.6,0.45,73
9.6,0.6,46
9.6,0.75,86
9.6,0.9,54
9.6,1.05,78
9.6,1.2,100
9.6,1.35,86
9.6,1.5,86
9.75,-1.5,105
9.75,-1.35,88
9.75,-1.2,87
9.75,-1.05,86
9.75,-0.9,92
9.75,-0.75,90
9.75,-0.6,87
9.75,-0.45,69
9.75,-0.3,66
9.75,-0.15,20
9.75,0.0,54
9.75,0.15,128
9.75,0.3,90
9.75,0.45,99
9.75,0.6,120
9.75,0.75,122
9.75,0.9,99
9.75,1.05,101
9.75,1.2,102
9.75,1.35,86
9.75,1.5,86
9.9,-1.5,121
9.9,-1.35,140
9.9,-1.2,139
9.9,-1.05,136
9.9,-0.9,118
9.9,-0.75,122
9.9,-0.6,111
9.9,-0.45,83
9.9,-0.3,162
9.9,-0.15,183
9.9,0.0,54
9.9,0.15,39
9.9,0.3,59
9.9,0.45,53
9.9,0.6,192
9.9,0.75,182
9.9,0.9,154
9.9,1.05,118
9.9,1.2,93
9.9,1.35,88
9.9,1.5,97
10.05,-1.5,140
10.05,-1.35,140
10.05,-1.2,143
10.05,-1.05,143
10.05,-0.9,141
10.05,-0.75,139
10.05,-0.6,124
10.05,-0.45,108
10.05,-0.3,118
10.05,-0.15,154
10.05,0.0,60
10.05,0.15,37
10.05,0.3,55
10.05,0.45,50
10.05,0.6,112
10.05,0.75,194
10.05,0.9,114
10.05,1.05,96
10.05,1.2,97
10.05,1.35,97
10.05,1.5,97
10.2,-1.5,134
10.2,-1.35,134
10.2,-1.2,136
10.2,-1.05,145
10.2,-0.9,148
10.2,-0.75,153
10.2,-0.6,164
10.2,-0.45,166
10.2,-0.3,202
10.2,-0.15,54
10.2,0.0,53
10.2,0.15,47
10.2,0.3,37
10.2,0.45,48
10.2,0.6,34
10.2,0.75,43
10.2,0.9,23
10.2,1.05,73
10.2,1.2,89
10.2,1.35,94
10.2,1.5,107
10.35,-1.5,123
10.35,-1.35,121
10.35,-1.2,124
10.35,-1.05,138
10.35,-0.9,146
10.35,-0.75,148
10.35,-0.6,184
10.35,-0.45,255
10.35,-0.3,136
10.35,-0.15,84
10.35,0.0,11
10.35,0.15,55
10.35,0.3,52
10.35,0.45,0
10.35,0.6,52
10.35,0.75,60
10.35,0.9,64
10.35,1.05,86
10.35,1.2,97
10.35,1.35,104
10.35,1.5,107
10.5,-1.5,113
10.5,-1.35,115
10.5,-1.2,136
10.5,-1.05,138
10.5,-0.9,142
10.5,-0.75,149
10.5,-0.6,162
10.5,-0.45,207
10.5,-0.3,92
10.5,-0.15,62
10.5,0.0,63
10.5,0.15,106
10.5,0.3,106
10.5,0.45,68
10.5,0.6,73
10.5,0.75,101
10.5,0.9,119
10.5,1.05,103
10.5,1.2,95
10.5,1.35,103
10.5,1.5,105
10.65,-1.5,110
10.65,-1.35,111
10.65,-1.2,113
10.65,-1.05,116
10.65,-0.9,128
10.65,-0.75,130
10.65,-0.6,135
10.65,-0.45,125
10.65,-0.3,113
10.65,-0.15,81
10.65,0.0,100
10.65,0.15,134
10.65,0.3,195
10.65,0.45,104
10.65,0.6,106
10.65,0.75,167
10.65,0.9,191
10.65,1.05,107
10.65,1.2,91
10.65,1.35,95
10.65,1.5,96
10.8,-1.5,101
10.8,-1.35,102
10.8,-1.2,103
10.8,-1.05,108
10.8,-0.9,108
10.8,-0.75,118
10.8,-0.6,107
10.8,-0.45,111
10.8,-0.3,88
10.8,-0.15,108
10.8,0.0,169
10.8,0.15,113
10.8,0.3,73
10.8,0.45,93
10.8,0.6,104
10.8,0.75,163
10.8,0.9,143
10.8,1.05,54
10.8,1.2,72
10.8,1.35,89
10.8,1.5,91
10.95,-1.5,110
10.95,-1.35,88
10.95,-1.2,88
10.95,-1.05,88
10.95,-0.9,101
10.95,-0.75,92
10.95,-0.6,90
10.95,-0.45,122
10.95,-0.3,120
10.95,-0.15,169
10.95,0.0,172
10.95,0.15,55
10.95,0.3,32
10.95,0.45,36
10.95,0.6,96
10.95,0.75,196
10.95,0.9,153
10.95,1.05,85
10.95,1.2,78
10.95,1.35,77
10.95,1.5,97
11.1,-1.5,84
11.1,-1.35,83
11.1,-1.2,81
11.1,-1.05,80
11.1,-0.9,80
11.1,-0.75,80
11.1,-0.6,72
11.1,-0.45,82
11.1,-0.3,122
11.1,-0.15,255
11.1,0.0,177
11.1,0.15,51
11.1,0.3,9
11.1,0.45,26
11.1,0.6,71
11.1,0.75,120
11.1,0.9,124
11.1,1.05,114
11.1,1.2,106
11.1,1.35,106
11.1,1.5,107
11.25,-1.5,76
11.25,-1.35,74
11.25,-1.2,72
11.25,-1.05,65
11.25,-0.9,63
11.25,-0.75,64
11.25,-0.6,63
11.25,-0.45,75
11.25,-0.3,118
11.25,-0.15,168
11.25,0.0,153
11.25,0.15,78
11.25,0.3,43
11.25,0.45,46
11.25,0.6,76
11.25,0.75,93
11.25,0.9,105
11.25,1.05,105
11.25,1.2,107
11.25,1.35,107
11.25,1.5,107
11.4,-1.5,59
11.4,-1.35,58
11.4,-1.2,67
11.4,-1.05,55
11.4,-0.9,53
11.4,-0.75,52
11.4,-0.6,46
11.4,-0.45,55
11.4,-0.3,99
11.4,-0.15,181
11.4,0.0,167
11.4,0.15,117
11.4,0.3,97
11.4,0.45,101
11.4,0.6,108
11.4,0.75,75
11.4,0.9,62
11.4,1.05,85
11.4,1.2,98
11.4,1.35,104
11.4,1.5,107
11.55,-1.5,48
11.55,-1.35,48
11.55,-1.2,49
11.55,-1.05,54
11.55,-0.9,52
11.55,-0.75,47
11.55,-0.6,14
11.55,-0.45,37
11.55,-0.3,24
11.55,-0.15,105
11.55,0.0,215
11.55,0.15,142
11.55,0.3,106
11.55,0.45,169
11.55,0.6,172
11.55,0.75,55
11.55,0.9,22
11.55,1.05,80
11.55,1.2,100
11.55,1.35,106
11.55,1.5,107
11.7,-1.5,48
11.7,-1.35,45
11.7,-1.2,45
11.7,-1.05,45
11.7,-0.9,44
11.7,-0.75,41
11.7,-0.6,34
11.7,-0.45,45
11.7,-0.3,0
11.7,-0.15,47
11.7,0.0,66
11.7,0.15,98
11.7,0.3,4
11.7,0.45,213
11.7,0.6,238
11.7,0.75,158
11.7,0.9,102
11.7,1.05,101
11.7,1.2,106
11.7,1.35,107
11.7,1.5,107
11.85,-1.5,47
11.85,-1.35,34
11.85,-1.2,41
11.85,-1.05,42
11.85,-0.9,42
11.85,-0.75,44
11.85,-0.6,53
11.85,-0.45,93
11.85,-0.3,46
11.85,-0.15,51
11.85,0.0,48
11.85,0.15,115
11.85,0.3,88
11.85,0.45,110
11.85,0.6,177
11.85,0.75,182
11.85,0.9,138
11.85,1.05,122
11.85,1.2,113
11.85,1.35,113
11.85,1.5,106
12.0,-1.5,33
12.0,-1.35,41
12.0,-1.2,42
12.0,-1.05,41
12.0,-0.9,44
12.0,-0.75,46
12.0,-0.6,48
12.0,-0.45,53
12.0,-0.3,56
12.0,-0.15,94
12.0,0.0,125
12.0,0.15,192
12.0,0.3,72
12.0,0.45,2
12.0,0.6,92
12.0,0.75,132
12.0,0.9,129
12.0,1.05,119
12.0,1.2,113
12.0,1.35,109
12.0,1.5,105
12.15,-1.5,33
12.15,-1.35,35
12.15,-1.2,44
12.15,-1.05,45
12.15,-0.9,51
12.15,-0.75,51
12.15,-0.6,53
12.15,-0.45,51
12.15,-0.3,24
12.15,-0.15,35
12.15,0.0,73
12.15,0.15,62
12.15,0.3,12
12.15,0.45,98
12.15,0.6,108
12.15,0.75,110
12.15,0.9,113
12.15,1.05,112
12.15,1.2,106
12.15,1.35,102
12.15,1.5,99
12.3,-1.5,23
12.3,-1.35,24
12.3,-1.2,33
12.3,-1.05,34
12.3,-0.9,38
12.3,-0.75,39
12.3,-0.6,41
12.3,-0.45,45
12.3,-0.3,69
12.3,-0.15,59
12.3,0.0,54
12.3,0.15,94
12.3,0.3,191
12.3,0.45,207
12.3,0.6,77
12.3,0.75,79
12.3,0.9,86
12.3,1.05,84
12.3,1.2,82
12.3,1.35,91
12.3,1.5,89
12.45,-1.5,22
12.45,-1.35,23
12.45,-1.2,28
12.45,-1.05,25
12.45,-0.9,26
12.45,-0.75,26
12.45,-0.6,26
12.45,-0.45,38
12.45,-0.3,48
12.45,-0.15,71
12.45,0.0,146
12.45,0.15,51
12.45,0.3,129
12.45,0.45,156
12.45,0.6,31
12.45,0.75,56
12.45,0.9,56
12.45,1.05,67
12.45,1.2,67
12.45,1.35,67
12.45,1.5,65
12.6,-1.5,18
12.6,-1.35,21
12.6,-1.2,25
12.6,-1.05,29
12.6,-0.9,29
12.6,-0.75,27
12.6,-0.6,15
12.6,-0.45,43
12.6,-0.3,24
12.6,-0.15,95
12.6,0.0,82
12.6,0.15,79
12.6,0.3,6
12.6,0.45,64
12.6,0.6,68
12.6,0.75,45
12.6,0.9,21
12.6,1.05,32
12.6,1.2,42
12.6,1.35,40
12.6,1.5,37
12.75,-1.5,10
12.75,-1.35,17
12.75,-1.2,24
12.75,-1.05,29
12.75,-0.9,27
12.75,-0.75,26
12.75,-0.6,15
12.75,-0.45,13
12.75,-0.3,9
12.75,-0.15,22
12.75,0.0,47
12.75,0.15,52
12.75,0.3,40
12.75,0.45,50
12.75,0.6,56
12.75,0.75,27
12.75,0.9,0
12.75,1.05,23
12.75,1.2,31
12.75,1.35,27
12.75,1.5,21
12.9,-1.5,1
12.9,-1.35,7
12.9,-1.2,19
12.9,-1.05,26
12.9,-0.9,29
12.9,-0.75,30
12.9,-0.6,34
12.9,-0.45,43
12.9,-0.3,90
12.9,-0.15,12
12.9,0.0,29
12.9,0.15,17
12.9,0.3,13
12.9,0.45,47
12.9,0.6,49
12.9,0.75,37
12.9,0.9,23
12.9,1.05,27
12.9,1.2,30
12.9,1.35,13
12.9,1.5,3
13.05,-1.5,0
13.05,-1.35,5
13.05,-1.2,18
13.05,-1.05,27
13.05,-0.9,32
13.05,-0.75,36
13.05,-0.6,45
13.05,-0.45,62
13.05,-0.3,103
13.05,-0.15,61
13.05,0.0,39
13.05,0.15,23
13.05,0.3,15
13.05,0.45,45
13.05,0.6,49
13.05,0.75,44
13.05,0.9,39
13.05,1.05,32
13.05,1.2,24
13.05,1.35,10
13.05,1.5,0
