-3.0,-1.5,0
-3.0,-1.35,0
-3.0,-1.2,0
-3.0,-1.05,0
-3.0,-0.9,0
-3.0,-0.75,0
-3.0,-0.6,0
-3.0,-0.45,0
-3.0,-0.3,0
-3.0,-0.15,0
-3.0,0.0,0
-3.0,0.15,0
-3.0,0.3,0
-3.0,0.45,0
-3.0,0.6,0
-3.0,0.75,0
-3.0,0.9,0
-3.0,1.05,0
-3.0,1.2,0
-3.0,1.35,0
-3.0,1.5,0
-2.85,-1.5,0
-2.85,-1.35,20
-2.85,-1.2,11
-2.85,-1.05,10
-2.85,-0.9,10
-2.85,-0.75,10
-2.85,-0.6,12
-2.85,-0.45,13
-2.85,-0.3,14
-2.85,-0.15,14
-2.85,0.0,15
-2.85,0.15,15
-2.85,0.3,15
-2.85,0.45,15
-2.85,0.6,14
-2.85,0.75,14
-2.85,0.9,12
-2.85,1.05,11
-2.85,1.2,7
-2.85,1.35,1
-2.85,1.5,0
-2.7,-1.5,0
-2.7,-1.35,48
-2.7,-1.2,47
-2.7,-1.05,21
-2.7,-0.9,15
-2.7,-0.75,18
-2.7,-0.6,25
-2.7,-0.45,29
-2.7,-0.3,31
-2.7,-0.15,31
-2.7,0.0,32
-2.7,0.15,33
-2.7,0.3,32
-2.7,0.45,29
-2.7,0.6,26
-2.7,0.75,22
-2.7,0.9,17
-2.7,1.05,10
-2.7,1.2,3
-2.7,1.35,8
-2.7,1.5,0
-2.55,-1.5,0
-2.55,-1.35,63
-2.55,-1.2,85
-2.55,-1.05,76
-2.55,-0.9,41
-2.55,-0.75,7
-2.55,-0.6,40
-2.55,-0.45,55
-2.55,-0.3,54
-2.55,-0.15,51
-2.55,0.0,53
-2.55,0.15,47
-2.55,0.3,40
-2.55,0.45,33
-2.55,0.6,26
-2.55,0.75,20
-2.55,0.9,13
-2.55,1.05,6
-2.55,1.2,6
-2.55,1.35,20
-2.55,1.5,0
-2.4,-1.5,0
-2.4,-1.35,76
-2.4,-1.2,99
-2.4,-1.05,101
-2.4,-0.9,77
-2.4,-0.75,61
-2.4,-0.6,239
-2.4,-0.45,216
-2.4,-0.3,143
-2.4,-0.15,60
-2.4,0.0,51
-2.4,0.15,44
-2.4,0.3,37
-2.4,0.45,30
-2.4,0.6,23
-2.4,0.75,16
-2.4,0.9,9
-2.4,1.05,6
-2.4,1.2,16
-2.4,1.35,24
-2.4,1.5,0
-2.25,-1.5,0
-2.25,-1.35,89
-2.25,-1.2,102
-2.25,-1.05,96
-2.25,-0.9,81
-2.25,-0.75,67
-2.25,-0.6,71
-2.25,-0.45,128
-2.25,-0.3,113
-2.25,-0.15,68
-2.25,0.0,52
-2.25,0.15,42
-2.25,0.3,33
-2.25,0.45,26
-2.25,0.6,19
-2.25,0.75,11
-2.25,0.9,6
-2.25,1.05,12
-2.25,1.2,28
-2.25,1.35,24
-2.25,1.5,0
-2.1,-1.5,0
-2.1,-1.35,102
-2.1,-1.2,102
-2.1,-1.05,92
-2.1,-0.9,80
-2.1,-0.75,69
-2.1,-0.6,63
-2.1,-0.45,96
-2.1,-0.3,99
-2.1,-0.15,68
-2.1,0.0,51
-2.1,0.15,40
-2.1,0.3,30
-2.1,0.45,22
-2.1,0.6,15
-2.1,0.75,7
-2.1,0.9,7
-2.1,1.05,22
-2.1,1.2,41
-2.1,1.35,24
-2.1,1.5,0
-1.95,-1.5,0
-1.95,-1.35,109
-1.95,-1.2,101
-1.95,-1.05,91
-1.95,-0.9,80
-1.95,-0.75,69
-1.95,-0.6,57
-1.95,-0.45,96
-1.95,-0.3,85
-1.95,-0.15,63
-1.95,0.0,50
-1.95,0.15,38
-1.95,0.3,28
-1.95,0.45,19
-1.95,0.6,11
-1.95,0.75,7
-1.95,0.9,15
-1.95,1.05,33
-1.95,1.2,49
-1.95,1.35,23
-1.95,1.5,0
-1.8,-1.5,0
-1.8,-1.35,122
-1.8,-1.2,104
-1.8,-1.05,94
-1.8,-0.9,82
-1.8,-0.75,69
-1.8,-0.6,57
-1.8,-0.45,59
-1.8,-0.3,57
-1.8,-0.15,53
-1.8,0.0,49
-1.8,0.15,37
-1.8,0.3,25
-1.8,0.45,15
-1.8,0.6,7
-1.8,0.75,7
-1.8,0.9,24
-1.8,1.05,46
-1.8,1.2,52
-1.8,1.35,22
-1.8,1.5,0
-1.65,-1.5,0
-1.65,-1.35,130
-1.65,-1.2,115
-1.65,-1.05,98
-1.65,-0.9,86
-1.65,-0.75,71
-1.65,-0.6,54
-1.65,-0.45,22
-1.65,-0.3,19
-1.65,-0.15,35
-1.65,0.0,53
-1.65,0.15,38
-1.65,0.3,25
-1.65,0.45,12
-1.65,0.6,7
-1.65,0.75,14
-1.65,0.9,35
-1.65,1.05,60
-1.65,1.2,54
-1.65,1.35,20
-1.65,1.5,0
-1.5,-1.5,0
-1.5,-1.35,117
-1.5,-1.2,130
-1.5,-1.05,107
-1.5,-0.9,92
-1.5,-0.75,76
-1.5,-0.6,58
-1.5,-0.45,134
-1.5,-0.3,27
-1.5,-0.15,25
-1.5,0.0,51
-1.5,0.15,42
-1.5,0.3,33
-1.5,0.45,19
-1.5,0.6,7
-1.5,0.75,24
-1.5,0.9,49
-1.5,1.05,73
-1.5,1.2,55
-1.5,1.35,19
-1.5,1.5,0
-1.35,-1.5,0
-1.35,-1.35,96
-1.35,-1.2,147
-1.35,-1.05,118
-1.35,-0.9,97
-1.35,-0.75,82
-1.35,-0.6,124
-1.35,-0.45,157
-1.35,-0.3,82
-1.35,-0.15,52
-1.35,0.0,50
-1.35,0.15,69
-1.35,0.3,61
-1.35,0.45,26
-1.35,0.6,17
-1.35,0.75,38
-1.35,0.9,63
-1.35,1.05,81
-1.35,1.2,55
-1.35,1.35,17
-1.35,1.5,0
-1.2,-1.5,0
-1.2,-1.35,79
-1.2,-1.2,166
-1.2,-1.05,134
-1.2,-0.9,106
-1.2,-0.75,72
-1.2,-0.6,103
-1.2,-0.45,105
-1.2,-0.3,94
-1.2,-0.15,89
-1.2,0.0,97
-1.2,0.15,126
-1.2,0.3,61
-1.2,0.45,28
-1.2,0.6,30
-1.2,0.75,52
-1.2,0.9,78
-1.2,1.05,86
-1.2,1.2,55
-1.2,1.35,15
-1.2,1.5,0
-1.05,-1.5,0
-1.05,-1.35,64
-1.05,-1.2,185
-1.05,-1.05,160
-1.05,-0.9,145
-1.05,-0.75,115
-1.05,-0.6,65
-1.05,-0.45,78
-1.05,-0.3,103
-1.05,-0.15,128
-1.05,0.0,159
-1.05,0.15,156
-1.05,0.3,54
-1.05,0.45,30
-1.05,0.6,42
-1.05,0.75,66
-1.05,0.9,93
-1.05,1.05,90
-1.05,1.2,55
-1.05,1.35,14
-1.05,1.5,0
-0.9,-1.5,0
-0.9,-1.35,52
-0.9,-1.2,205
-0.9,-1.05,193
-0.9,-0.9,188
-0.9,-0.75,170
-0.9,-0.6,104
-0.9,-0.45,78
-0.9,-0.3,116
-0.9,-0.15,159
-0.9,0.0,191
-0.9,0.15,60
-0.9,0.3,43
-0.9,0.45,33
-0.9,0.6,54
-0.9,0.75,80
-0.9,0.9,108
-0.9,1.05,92
-0.9,1.2,54
-0.9,1.35,13
-0.9,1.5,0
-0.75,-1.5,0
-0.75,-1.35,44
-0.75,-1.2,218
-0.75,-1.05,196
-0.75,-0.9,182
-0.75,-0.75,208
-0.75,-0.6,202
-0.75,-0.45,170
-0.75,-0.3,156
-0.75,-0.15,129
-0.75,0.0,95
-0.75,0.15,53
-0.75,0.3,40
-0.75,0.45,37
-0.75,0.6,65
-0.75,0.75,94
-0.75,0.9,119
-0.75,1.05,93
-0.75,1.2,53
-0.75,1.35,12
-0.75,1.5,0
-0.6,-1.5,0
-0.6,-1.35,37
-0.6,-1.2,166
-0.6,-1.05,174
-0.6,-0.9,91
-0.6,-0.75,149
-0.6,-0.6,255
-0.6,-0.45,255
-0.6,-0.3,255
-0.6,-0.15,168
-0.6,0.0,85
-0.6,0.15,44
-0.6,0.3,39
-0.6,0.45,43
-0.6,0.6,76
-0.6,0.75,108
-0.6,0.9,127
-0.6,1.05,94
-0.6,1.2,51
-0.6,1.35,11
-0.6,1.5,0
-0.45,-1.5,0
-0.45,-1.35,33
-0.45,-1.2,132
-0.45,-1.05,211
-0.45,-0.9,71
-0.45,-0.75,130
-0.45,-0.6,180
-0.45,-0.45,184
-0.45,-0.3,200
-0.45,-0.15,162
-0.45,0.0,82
-0.45,0.15,31
-0.45,0.3,37
-0.45,0.45,46
-0.45,0.6,87
-0.45,0.75,122
-0.45,0.9,133
-0.45,1.05,94
-0.45,1.2,49
-0.45,1.35,10
-0.45,1.5,0
-0.3,-1.5,0
-0.3,-1.35,29
-0.3,-1.2,105
-0.3,-1.05,159
-0.3,-0.9,163
-0.3,-0.75,158
-0.3,-0.6,156
-0.3,-0.45,136
-0.3,-0.3,93
-0.3,-0.15,154
-0.3,0.0,84
-0.3,0.15,10
-0.3,0.3,33
-0.3,0.45,47
-0.3,0.6,98
-0.3,0.75,137
-0.3,0.9,137
-0.3,1.05,94
-0.3,1.2,47
-0.3,1.35,10
-0.3,1.5,0
-0.15,-1.5,0
-0.15,-1.35,26
-0.15,-1.2,91
-0.15,-1.05,100
-0.15,-0.9,199
-0.15,-0.75,179
-0.15,-0.6,131
-0.15,-0.45,102
-0.15,-0.3,77
-0.15,-0.15,151
-0.15,0.0,255
-0.15,0.15,14
-0.15,0.3,27
-0.15,0.45,45
-0.15,0.6,108
-0.15,0.75,153
-0.15,0.9,140
-0.15,1.05,92
-0.15,1.2,45
-0.15,1.35,9
-0.15,1.5,0
0.0,-1.5,0
0.0,-1.35,23
0.0,-1.2,84
0.0,-1.05,60
0.0,-0.9,128
0.0,-0.75,142
0.0,-0.6,83
0.0,-0.45,64
0.0,-0.3,74
0.0,-0.15,127
0.0,0.0,100
0.0,0.15,40
0.0,0.3,36
0.0,0.45,47
0.0,0.6,116
0.0,0.75,169
0.0,0.9,141
0.0,1.05,90
0.0,1.2,42
0.0,1.35,9
0.0,1.5,0
0.15,-1.5,0
0.15,-1.35,21
0.15,-1.2,78
0.15,-1.05,92
0.15,-0.9,126
0.15,-0.75,107
0.15,-0.6,41
0.15,-0.45,49
0.15,-0.3,94
0.15,-0.15,207
0.15,0.0,99
0.15,0.15,60
0.15,0.3,62
0.15,0.45,66
0.15,0.6,123
0.15,0.75,185
0.15,0.9,140
0.15,1.05,87
0.15,1.2,40
0.15,1.35,8
0.15,1.5,0
0.3,-1.5,0
0.3,-1.35,19
0.3,-1.2,73
0.3,-1.05,140
0.3,-0.9,168
0.3,-0.75,183
0.3,-0.6,61
0.3,-0.45,98
0.3,-0.3,151
0.3,-0.15,180
0.3,0.0,92
0.3,0.15,72
0.3,0.3,82
0.3,0.45,98
0.3,0.6,138
0.3,0.75,196
0.3,0.9,137
0.3,1.05,84
0.3,1.2,37
0.3,1.35,8
0.3,1.5,0
0.45,-1.5,0
0.45,-1.35,18
0.45,-1.2,68
0.45,-1.05,156
0.45,-0.9,196
0.45,-0.75,51
0.45,-0.6,43
0.45,-0.45,103
0.45,-0.3,121
0.45,-0.15,45
0.45,0.0,52
0.45,0.15,76
0.45,0.3,97
0.45,0.45,122
0.45,0.6,170
0.45,0.75,199
0.45,0.9,134
0.45,1.05,81
0.45,1.2,35
0.45,1.35,7
0.45,1.5,0
0.6,-1.5,0
0.6,-1.35,16
0.6,-1.2,63
0.6,-1.05,124
0.6,-0.9,130
0.6,-0.75,40
0.6,-0.6,16
0.6,-0.45,98
0.6,-0.3,64
0.6,-0.15,90
0.6,0.0,51
0.6,0.15,82
0.6,0.3,70
0.6,0.45,52
0.6,0.6,163
0.6,0.75,193
0.6,0.9,130
0.6,1.05,78
0.6,1.2,32
0.6,1.35,7
0.6,1.5,0
0.75,-1.5,0
0.75,-1.35,15
0.75,-1.2,58
0.75,-1.05,91
0.75,-0.9,73
0.75,-0.75,10
0.75,-0.6,88
0.75,-0.45,197
0.75,-0.3,61
0.75,-0.15,95
0.75,0.0,175
0.75,0.15,109
0.75,0.3,72
0.75,0.45,100
0.75,0.6,158
0.75,0.75,180
0.75,0.9,125
0.75,1.05,75
0.75,1.2,30
0.75,1.35,6
0.75,1.5,0
0.9,-1.5,0
0.9,-1.35,14
0.9,-1.2,53
0.9,-1.05,67
0.9,-0.9,31
0.9,-0.75,4
0.9,-0.6,106
0.9,-0.45,76
0.9,-0.3,70
0.9,-0.15,61
0.9,0.0,60
0.9,0.15,44
0.9,0.3,60
0.9,0.45,97
0.9,0.6,145
0.9,0.75,167
0.9,0.9,119
0.9,1.05,72
0.9,1.2,27
0.9,1.35,6
0.9,1.5,0
1.05,-1.5,0
1.05,-1.35,13
1.05,-1.2,49
1.05,-1.05,50
1.05,-0.9,19
1.05,-0.75,4
1.05,-0.6,33
1.05,-0.45,56
1.05,-0.3,57
1.05,-0.15,96
1.05,0.0,95
1.05,0.15,31
1.05,0.3,61
1.05,0.45,69
1.05,0.6,132
1.05,0.75,155
1.05,0.9,112
1.05,1.05,68
1.05,1.2,25
1.05,1.35,6
1.05,1.5,0
1.2,-1.5,0
1.2,-1.35,12
1.2,-1.2,44
1.2,-1.05,36
1.2,-0.9,6
1.2,-0.75,4
1.2,-0.6,9
1.2,-0.45,47
1.2,-0.3,54
1.2,-0.15,45
1.2,0.0,45
1.2,0.15,76
1.2,0.3,54
1.2,0.45,64
1.2,0.6,119
1.2,0.75,144
1.2,0.9,105
1.2,1.05,64
1.2,1.2,22
1.2,1.35,5
1.2,1.5,0
1.35,-1.5,0
1.35,-1.35,11
1.35,-1.2,39
1.35,-1.05,24
1.35,-0.9,4
1.35,-0.75,4
1.35,-0.6,46
1.35,-0.45,86
1.35,-0.3,141
1.35,-0.15,132
1.35,0.0,234
1.35,0.15,72
1.35,0.3,38
1.35,0.45,55
1.35,0.6,106
1.35,0.75,133
1.35,0.9,99
1.35,1.05,60
1.35,1.2,20
1.35,1.35,5
1.35,1.5,0
1.5,-1.5,0
1.5,-1.35,10
1.5,-1.2,35
1.5,-1.05,13
1.5,-0.9,4
1.5,-0.75,14
1.5,-0.6,51
1.5,-0.45,49
1.5,-0.3,103
1.5,-0.15,96
1.5,0.0,145
1.5,0.15,62
1.5,0.3,25
1.5,0.45,44
1.5,0.6,93
1.5,0.75,123
1.5,0.9,93
1.5,1.05,56
1.5,1.2,18
1.5,1.35,5
1.5,1.5,0
1.65,-1.5,0
1.65,-1.35,9
1.65,-1.2,31
1.65,-1.05,4
1.65,-0.9,14
1.65,-0.75,44
1.65,-0.6,25
1.65,-0.45,26
1.65,-0.3,83
1.65,-0.15,73
1.65,0.0,47
1.65,0.15,45
1.65,0.3,14
1.65,0.45,31
1.65,0.6,79
1.65,0.75,114
1.65,0.9,87
1.65,1.05,52
1.65,1.2,16
1.65,1.35,4
1.65,1.5,0
1.8,-1.5,0
1.8,-1.35,8
1.8,-1.2,27
1.8,-1.05,4
1.8,-0.9,4
1.8,-0.75,8
1.8,-0.6,21
1.8,-0.45,21
1.8,-0.3,2
1.8,-0.15,54
1.8,0.0,104
1.8,0.15,48
1.8,0.3,14
1.8,0.45,20
1.8,0.6,66
1.8,0.75,104
1.8,0.9,82
1.8,1.05,49
1.8,1.2,14
1.8,1.35,4
1.8,1.5,0
1.95,-1.5,0
1.95,-1.35,8
1.95,-1.2,23
1.95,-1.05,4
1.95,-0.9,4
1.95,-0.75,4
1.95,-0.6,52
1.95,-0.45,63
1.95,-0.3,96
1.95,-0.15,37
1.95,0.0,20
1.95,0.15,47
1.95,0.3,37
1.95,0.45,9
1.95,0.6,53
1.95,0.75,95
1.95,0.9,77
1.95,1.05,45
1.95,1.2,13
1.95,1.35,3
1.95,1.5,0
2.1,-1.5,0
2.1,-1.35,7
2.1,-1.2,20
2.1,-1.05,4
2.1,-0.9,4
2.1,-0.75,4
2.1,-0.6,22
2.1,-0.45,88
2.1,-0.3,75
2.1,-0.15,39
2.1,0.0,7
2.1,0.15,47
2.1,0.3,25
2.1,0.45,2
2.1,0.6,41
2.1,0.75,87
2.1,0.9,72
2.1,1.05,42
2.1,1.2,11
2.1,1.35,3
2.1,1.5,0
2.25,-1.5,0
2.25,-1.35,6
2.25,-1.2,17
2.25,-1.05,4
2.25,-0.9,4
2.25,-0.75,7
2.25,-0.6,75
2.25,-0.45,64
2.25,-0.3,56
2.25,-0.15,49
2.25,0.0,10
2.25,0.15,7
2.25,0.3,0
2.25,0.45,0
2.25,0.6,29
2.25,0.75,79
2.25,0.9,68
2.25,1.05,40
2.25,1.2,10
2.25,1.35,3
2.25,1.5,0
2.4,-1.5,0
2.4,-1.35,6
2.4,-1.2,14
2.4,-1.05,4
2.4,-0.9,4
2.4,-0.75,31
2.4,-0.6,34
2.4,-0.45,75
2.4,-0.3,54
2.4,-0.15,31
2.4,0.0,87
2.4,0.15,48
2.4,0.3,0
2.4,0.45,10
2.4,0.6,22
2.4,0.75,71
2.4,0.9,63
2.4,1.05,37
2.4,1.2,9
2.4,1.35,3
2.4,1.5,0
2.55,-1.5,0
2.55,-1.35,5
2.55,-1.2,12
2.55,-1.05,4
2.55,-0.9,9
2.55,-0.75,22
2.55,-0.6,16
2.55,-0.45,75
2.55,-0.3,71
2.55,-0.15,55
2.55,0.0,115
2.55,0.15,36
2.55,0.3,0
2.55,0.45,47
2.55,0.6,17
2.55,0.75,63
2.55,0.9,59
2.55,1.05,34
2.55,1.2,8
2.55,1.35,2
2.55,1.5,0
2.7,-1.5,0
2.7,-1.35,5
2.7,-1.2,10
2.7,-1.05,4
2.7,-0.9,4
2.7,-0.75,12
2.7,-0.6,63
2.7,-0.45,71
2.7,-0.3,106
2.7,-0.15,90
2.7,0.0,83
2.7,0.15,24
2.7,0.3,16
2.7,0.45,76
2.7,0.6,17
2.7,0.75,54
2.7,0.9,55
2.7,1.05,32
2.7,1.2,7
2.7,1.35,2
2.7,1.5,0
2.85,-1.5,0
2.85,-1.35,5
2.85,-1.2,9
2.85,-1.05,4
2.85,-0.9,4
2.85,-0.75,60
2.85,-0.6,82
2.85,-0.45,63
2.85,-0.3,37
2.85,-0.15,37
2.85,0.0,24
2.85,0.15,92
2.85,0.3,107
2.85,0.45,112
2.85,0.6,17
2.85,0.75,45
2.85,0.9,51
2.85,1.05,29
2.85,1.2,6
2.85,1.35,2
2.85,1.5,0
3.0,-1.5,0
3.0,-1.35,4
3.0,-1.2,7
3.0,-1.05,4
3.0,-0.9,4
3.0,-0.75,53
3.0,-0.6,11
3.0,-0.45,51
3.0,-0.3,62
3.0,-0.15,44
3.0,0.0,50
3.0,0.15,93
3.0,0.3,191
3.0,0.45,153
3.0,0.6,24
3.0,0.75,36
3.0,0.9,47
3.0,1.05,27
3.0,1.2,5
3.0,1.35,1
3.0,1.5,0
3.15,-1.5,0
3.15,-1.35,4
3.15,-1.2,6
3.15,-1.05,4
3.15,-0.9,48
3.15,-0.75,79
3.15,-0.6,47
3.15,-0.45,140
3.15,-0.3,109
3.15,-0.15,15
3.15,0.0,12
3.15,0.15,126
3.15,0.3,139
3.15,0.45,149
3.15,0.6,34
3.15,0.75,27
3.15,0.9,43
3.15,1.05,25
3.15,1.2,5
3.15,1.35,1
3.15,1.5,0
3.3,-1.5,0
3.3,-1.35,3
3.3,-1.2,5
3.3,-1.05,4
3.3,-0.9,56
3.3,-0.75,60
3.3,-0.6,47
3.3,-0.45,192
3.3,-0.3,156
3.3,-0.15,53
3.3,0.0,51
3.3,0.15,12
3.3,0.3,31
3.3,0.45,81
3.3,0.6,44
3.3,0.75,18
3.3,0.9,39
3.3,1.05,22
3.3,1.2,4
3.3,1.35,1
3.3,1.5,0
3.45,-1.5,0
3.45,-1.35,3
3.45,-1.2,4
3.45,-1.05,3
3.45,-0.9,1
3.45,-0.75,86
3.45,-0.6,80
3.45,-0.45,64
3.45,-0.3,46
3.45,-0.15,84
3.45,0.0,113
3.45,0.15,3
3.45,0.3,133
3.45,0.45,63
3.45,0.6,45
3.45,0.75,12
3.45,0.9,34
3.45,1.05,20
3.45,1.2,3
3.45,1.35,1
3.45,1.5,0
3.6,-1.5,0
3.6,-1.35,3
3.6,-1.2,3
3.6,-1.05,1
3.6,-0.9,1
3.6,-0.75,111
3.6,-0.6,33
3.6,-0.45,2
3.6,-0.3,170
3.6,-0.15,64
3.6,0.0,112
3.6,0.15,49
3.6,0.3,203
3.6,0.45,109
3.6,0.6,60
3.6,0.75,11
3.6,0.9,29
3.6,1.05,18
3.6,1.2,3
3.6,1.35,0
3.6,1.5,0
3.75,-1.5,0
3.75,-1.35,3
3.75,-1.2,2
3.75,-1.05,1
3.75,-0.9,4
3.75,-0.75,3
3.75,-0.6,180
3.75,-0.45,54
3.75,-0.3,80
3.75,-0.15,103
3.75,0.0,40
3.75,0.15,47
3.75,0.3,36
3.75,0.45,82
3.75,0.6,120
3.75,0.75,25
3.75,0.9,22
3.75,1.05,16
3.75,1.2,2
3.75,1.35,0
3.75,1.5,0
3.9,-1.5,0
3.9,-1.35,2
3.9,-1.2,1
3.9,-1.05,5
3.9,-0.9,46
3.9,-0.75,29
3.9,-0.6,130
3.9,-0.45,59
3.9,-0.3,201
3.9,-0.15,40
3.9,0.0,61
3.9,0.15,19
3.9,0.3,44
3.9,0.45,138
3.9,0.6,136
3.9,0.75,83
3.9,0.9,16
3.9,1.05,14
3.9,1.2,1
3.9,1.35,0
3.9,1.5,0
4.05,-1.5,0
4.05,-1.35,2
4.05,-1.2,1
4.05,-1.05,66
4.05,-0.9,154
4.05,-0.75,67
4.05,-0.6,65
4.05,-0.45,113
4.05,-0.3,50
4.05,-0.15,187
4.05,0.0,49
4.05,0.15,55
4.05,0.3,92
4.05,0.45,193
4.05,0.6,150
4.05,0.75,103
4.05,0.9,14
4.05,1.05,13
4.05,1.2,1
4.05,1.35,0
4.05,1.5,0
4.2,-1.5,0
4.2,-1.35,2
4.2,-1.2,0
4.2,-1.05,8
4.2,-0.9,42
4.2,-0.75,12
4.2,-0.6,28
4.2,-0.45,81
4.2,-0.3,159
4.2,-0.15,123
4.2,0.0,56
4.2,0.15,104
4.2,0.3,157
4.2,0.45,196
4.2,0.6,153
4.2,0.75,105
4.2,0.9,28
4.2,1.05,11
4.2,1.2,0
4.2,1.35,0
4.2,1.5,0
4.35,-1.5,0
4.35,-1.35,1
4.35,-1.2,0
4.35,-1.05,0
4.35,-0.9,0
4.35,-0.75,5
4.35,-0.6,84
4.35,-0.45,217
4.35,-0.3,236
4.35,-0.15,18
4.35,0.0,194
4.35,0.15,31
4.35,0.3,175
4.35,0.45,173
4.35,0.6,142
4.35,0.75,101
4.35,0.9,57
4.35,1.05,9
4.35,1.2,0
4.35,1.35,0
4.35,1.5,0
4.5,-1.5,0
4.5,-1.35,1
4.5,-1.2,0
4.5,-1.05,0
4.5,-0.9,1
4.5,-0.75,18
4.5,-0.6,44
4.5,-0.45,48
4.5,-0.3,130
4.5,-0.15,3
4.5,0.0,192
4.5,0.15,104
4.5,0.3,191
4.5,0.45,156
4.5,0.6,125
4.5,0.75,90
4.5,0.9,54
4.5,1.05,4
4.5,1.2,0
4.5,1.35,0
4.5,1.5,0
4.65,-1.5,0
4.65,-1.35,1
4.65,-1.2,0
4.65,-1.05,0
4.65,-0.9,18
4.65,-0.75,60
4.65,-0.6,212
4.65,-0.45,103
4.65,-0.3,52
4.65,-0.15,67
4.65,0.0,177
4.65,0.15,102
4.65,0.3,159
4.65,0.45,131
4.65,0.6,98
4.65,0.75,68
4.65,0.9,39
4.65,1.05,11
4.65,1.2,0
4.65,1.35,0
4.65,1.5,0
4.8,-1.5,0
4.8,-1.35,1
4.8,-1.2,0
4.8,-1.05,0
4.8,-0.9,3
4.8,-0.75,178
4.8,-0.6,194
4.8,-0.45,36
4.8,-0.3,41
4.8,-0.15,102
4.8,0.0,240
4.8,0.15,21
4.8,0.3,142
4.8,0.45,112
4.8,0.6,67
4.8,0.75,43
4.8,0.9,25
4.8,1.05,10
4.8,1.2,0
4.8,1.35,0
4.8,1.5,0
4.95,-1.5,0
4.95,-1.35,0
4.95,-1.2,0
4.95,-1.05,0
4.95,-0.9,10
4.95,-0.75,255
4.95,-0.6,242
4.95,-0.45,103
4.95,-0.3,72
4.95,-0.15,67
4.95,0.0,14
4.95,0.15,50
4.95,0.3,229
4.95,0.45,144
4.95,0.6,49
4.95,0.75,42
4.95,0.9,32
4.95,1.05,11
4.95,1.2,0
4.95,1.35,0
4.95,1.5,0
5.1,-1.5,0
5.1,-1.35,0
5.1,-1.2,0
5.1,-1.05,0
5.1,-0.9,9
5.1,-0.75,99
5.1,-0.6,81
5.1,-0.45,134
5.1,-0.3,46
5.1,-0.15,40
5.1,0.0,52
5.1,0.15,11
5.1,0.3,82
5.1,0.45,54
5.1,0.6,52
5.1,0.75,51
5.1,0.9,38
5.1,1.05,12
5.1,1.2,0
5.1,1.35,0
5.1,1.5,0
5.25,-1.5,0
5.25,-1.35,0
5.25,-1.2,0
5.25,-1.05,0
5.25,-0.9,3
5.25,-0.75,12
5.25,-0.6,53
5.25,-0.45,24
5.25,-0.3,21
5.25,-0.15,0
5.25,0.0,26
5.25,0.15,0
5.25,0.3,5
5.25,0.45,42
5.25,0.6,63
5.25,0.75,59
5.25,0.9,41
5.25,1.05,14
5.25,1.2,1
5.25,1.35,0
5.25,1.5,0
5.4,-1.5,0
5.4,-1.35,0
5.4,-1.2,0
5.4,-1.05,0
5.4,-0.9,7
5.4,-0.75,35
5.4,-0.6,98
5.4,-0.45,27
5.4,-0.3,32
5.4,-0.15,39
5.4,0.0,0
5.4,0.15,31
5.4,0.3,54
5.4,0.45,62
5.4,0.6,79
5.4,0.75,66
5.4,0.9,42
5.4,1.05,15
5.4,1.2,2
5.4,1.35,0
5.4,1.5,0
5.55,-1.5,0
5.55,-1.35,0
5.55,-1.2,0
5.55,-1.05,0
5.55,-0.9,31
5.55,-0.75,98
5.55,-0.6,30
5.55,-0.45,16
5.55,-0.3,7
5.55,-0.15,85
5.55,0.0,24
5.55,0.15,3
5.55,0.3,79
5.55,0.45,88
5.55,0.6,93
5.55,0.75,73
5.55,0.9,43
5.55,1.05,17
5.55,1.2,2
5.55,1.35,0
5.55,1.5,0
5.7,-1.5,0
5.7,-1.35,0
5.7,-1.2,0
5.7,-1.05,0
5.7,-0.9,23
5.7,-0.75,42
5.7,-0.6,37
5.7,-0.45,17
5.7,-0.3,52
5.7,-0.15,141
5.7,0.0,47
5.7,0.15,14
5.7,0.3,56
5.7,0.45,92
5.7,0.6,100
5.7,0.75,75
5.7,0.9,44
5.7,1.05,18
5.7,1.2,3
5.7,1.35,1
5.7,1.5,0
5.85,-1.5,0
5.85,-1.35,0
5.85,-1.2,0
5.85,-1.05,0
5.85,-0.9,58
5.85,-0.75,12
5.85,-0.6,67
5.85,-0.45,17
5.85,-0.3,47
5.85,-0.15,20
5.85,0.0,255
5.85,0.15,28
5.85,0.3,62
5.85,0.45,91
5.85,0.6,102
5.85,0.75,75
5.85,0.9,46
5.85,1.05,20
5.85,1.2,3
5.85,1.35,1
5.85,1.5,0
6.0,-1.5,0
6.0,-1.35,0
6.0,-1.2,0
6.0,-1.05,0
6.0,-0.9,58
6.0,-0.75,58
6.0,-0.6,201
6.0,-0.45,174
6.0,-0.3,17
6.0,-0.15,54
6.0,0.0,45
6.0,0.15,70
6.0,0.3,68
6.0,0.45,90
6.0,0.6,105
6.0,0.75,74
6.0,0.9,47
6.0,1.05,21
6.0,1.2,4
6.0,1.35,1
6.0,1.5,0
6.15,-1.5,0
6.15,-1.35,0
6.15,-1.2,0
6.15,-1.05,0
6.15,-0.9,25
6.15,-0.75,53
6.15,-0.6,170
6.15,-0.45,105
6.15,-0.3,72
6.15,-0.15,38
6.15,0.0,125
6.15,0.15,40
6.15,0.3,76
6.15,0.45,96
6.15,0.6,110
6.15,0.75,73
6.15,0.9,49
6.15,1.05,23
6.15,1.2,5
6.15,1.35,1
6.15,1.5,0
6.3,-1.5,0
6.3,-1.35,0
6.3,-1.2,0
6.3,-1.05,0
6.3,-0.9,26
6.3,-0.75,98
6.3,-0.6,207
6.3,-0.45,37
6.3,-0.3,53
6.3,-0.15,79
6.3,0.0,1
6.3,0.15,29
6.3,0.3,93
6.3,0.45,100
6.3,0.6,105
6.3,0.75,73
6.3,0.9,50
6.3,1.05,24
6.3,1.2,5
6.3,1.35,2
6.3,1.5,0
6.45,-1.5,0
6.45,-1.35,0
6.45,-1.2,0
6.45,-1.05,0
6.45,-0.9,29
6.45,-0.75,140
6.45,-0.6,2
6.45,-0.45,53
6.45,-0.3,71
6.45,-0.15,251
6.45,0.0,21
6.45,0.15,47
6.45,0.3,93
6.45,0.45,86
6.45,0.6,100
6.45,0.75,74
6.45,0.9,52
6.45,1.05,26
6.45,1.2,6
6.45,1.35,2
6.45,1.5,0
6.6,-1.5,0
6.6,-1.35,0
6.6,-1.2,0
6.6,-1.05,0
6.6,-0.9,19
6.6,-0.75,49
6.6,-0.6,65
6.6,-0.45,147
6.6,-0.3,40
6.6,-0.15,3
6.6,0.0,54
6.6,0.15,55
6.6,0.3,59
6.6,0.45,80
6.6,0.6,97
6.6,0.75,76
6.6,0.9,54
6.6,1.05,28
6.6,1.2,7
6.6,1.35,2
6.6,1.5,0
6.75,-1.5,0
6.75,-1.35,0
6.75,-1.2,0
6.75,-1.05,0
6.75,-0.9,12
6.75,-0.75,13
6.75,-0.6,40
6.75,-0.45,66
6.75,-0.3,67
6.75,-0.15,66
6.75,0.0,4
6.75,0.15,13
6.75,0.3,41
6.75,0.45,77
6.75,0.6,95
6.75,0.75,78
6.75,0.9,56
6.75,1.05,29
6.75,1.2,7
6.75,1.35,2
6.75,1.5,0
6.9,-1.5,0
6.9,-1.35,0
6.9,-1.2,0
6.9,-1.05,0
6.9,-0.9,9
6.9,-0.75,41
6.9,-0.6,0
6.9,-0.45,123
6.9,-0.3,107
6.9,-0.15,49
6.9,0.0,135
6.9,0.15,85
6.9,0.3,30
6.9,0.45,75
6.9,0.6,95
6.9,0.75,80
6.9,0.9,58
6.9,1.05,31
6.9,1.2,8
6.9,1.35,2
6.9,1.5,0
7.05,-1.5,0
7.05,-1.35,0
7.05,-1.2,0
7.05,-1.05,0
7.05,-0.9,14
7.05,-0.75,41
7.05,-0.6,0
7.05,-0.45,54
7.05,-0.3,45
7.05,-0.15,17
7.05,0.0,8
7.05,0.15,49
7.05,0.3,25
7.05,0.45,75
7.05,0.6,96
7.05,0.75,83
7.05,0.9,60
7.05,1.05,32
7.05,1.2,9
7.05,1.35,3
7.05,1.5,0
7.2,-1.5,0
7.2,-1.35,0
7.2,-1.2,0
7.2,-1.05,0
7.2,-0.9,9
7.2,-0.75,71
7.2,-0.6,62
7.2,-0.45,0
7.2,-0.3,175
7.2,-0.15,53
7.2,0.0,22
7.2,0.15,18
7.2,0.3,23
7.2,0.45,74
7.2,0.6,98
7.2,0.75,86
7.2,0.9,62
7.2,1.05,34
7.2,1.2,10
7.2,1.35,3
7.2,1.5,0
7.35,-1.5,0
7.35,-1.35,0
7.35,-1.2,0
7.35,-1.05,0
7.35,-0.9,9
7.35,-0.75,52
7.35,-0.6,255
7.35,-0.45,45
7.35,-0.3,51
7.35,-0.15,25
7.35,0.0,36
7.35,0.15,24
7.35,0.3,24
7.35,0.45,74
7.35,0.6,102
7.35,0.75,88
7.35,0.9,64
7.35,1.05,36
7.35,1.2,10
7.35,1.35,3
7.35,1.5,0
7.5,-1.5,0
7.5,-1.35,0
7.5,-1.2,0
7.5,-1.05,0
7.5,-0.9,12
7.5,-0.75,30
7.5,-0.6,70
7.5,-0.45,95
7.5,-0.3,64
7.5,-0.15,63
7.5,0.0,76
7.5,0.15,69
7.5,0.3,4
7.5,0.45,73
7.5,0.6,106
7.5,0.75,91
7.5,0.9,66
7.5,1.05,38
7.5,1.2,11
7.5,1.35,3
7.5,1.5,0
7.65,-1.5,0
7.65,-1.35,0
7.65,-1.2,0
7.65,-1.05,0
7.65,-0.9,16
7.65,-0.75,95
7.65,-0.6,105
7.65,-0.45,185
7.65,-0.3,30
7.65,-0.15,77
7.65,0.0,22
7.65,0.15,103
7.65,0.3,1
7.65,0.45,64
7.65,0.6,110
7.65,0.75,94
7.65,0.9,68
7.65,1.05,39
7.65,1.2,12
7.65,1.35,4
7.65,1.5,0
7.8,-1.5,0
7.8,-1.35,0
7.8,-1.2,0
7.8,-1.05,0
7.8,-0.9,23
7.8,-0.75,76
7.8,-0.6,52
7.8,-0.45,53
7.8,-0.3,255
7.8,-0.15,56
7.8,0.0,80
7.8,0.15,22
7.8,0.3,0
7.8,0.45,64
7.8,0.6,113
7.8,0.75,96
7.8,0.9,70
7.8,1.05,41
7.8,1.2,13
7.8,1.35,4
7.8,1.5,0
7.95,-1.5,0
7.95,-1.35,0
7.95,-1.2,0
7.95,-1.05,0
7.95,-0.9,41
7.95,-0.75,106
7.95,-0.6,44
7.95,-0.45,107
7.95,-0.3,39
7.95,-0.15,2
7.95,0.0,46
7.95,0.15,14
7.95,0.3,10
7.95,0.45,81
7.95,0.6,116
7.95,0.75,99
7.95,0.9,73
7.95,1.05,43
7.95,1.2,14
7.95,1.35,4
7.95,1.5,0
8.1,-1.5,0
8.1,-1.35,0
8.1,-1.2,0
8.1,-1.05,0
8.1,-0.9,118
8.1,-0.75,116
8.1,-0.6,105
8.1,-0.45,44
8.1,-0.3,156
8.1,-0.15,28
8.1,0.0,44
8.1,0.15,22
8.1,0.3,32
8.1,0.45,85
8.1,0.6,120
8.1,0.75,102
8.1,0.9,75
8.1,1.05,45
8.1,1.2,15
8.1,1.35,4
8.1,1.5,0
8.25,-1.5,0
8.25,-1.35,0
8.25,-1.2,0
8.25,-1.05,0
8.25,-0.9,42
8.25,-0.75,73
8.25,-0.6,56
8.25,-0.45,183
8.25,-0.3,154
8.25,-0.15,63
8.25,0.0,99
8.25,0.15,79
8.25,0.3,63
8.25,0.45,87
8.25,0.6,125
8.25,0.75,105
8.25,0.9,77
8.25,1.05,47
8.25,1.2,16
8.25,1.35,5
8.25,1.5,0
8.4,-1.5,0
8.4,-1.35,0
8.4,-1.2,0
8.4,-1.05,0
8.4,-0.9,26
8.4,-0.75,37
8.4,-0.6,112
8.4,-0.45,16
8.4,-0.3,16
8.4,-0.15,32
8.4,0.0,193
8.4,0.15,91
8.4,0.3,59
8.4,0.45,88
8.4,0.6,129
8.4,0.75,108
8.4,0.9,80
8.4,1.05,49
8.4,1.2,17
8.4,1.35,5
8.4,1.5,0
8.55,-1.5,0
8.55,-1.35,0
8.55,-1.2,0
8.55,-1.05,0
8.55,-0.9,26
8.55,-0.75,44
8.55,-0.6,31
8.55,-0.45,94
8.55,-0.3,76
8.55,-0.15,55
8.55,0.0,74
8.55,0.15,54
8.55,0.3,57
8.55,0.45,90
8.55,0.6,135
8.55,0.75,112
8.55,0.9,83
8.55,1.05,51
8.55,1.2,19
8.55,1.35,5
8.55,1.5,0
8.7,-1.5,0
8.7,-1.35,0
8.7,-1.2,0
8.7,-1.05,0
8.7,-0.9,45
8.7,-0.75,135
8.7,-0.6,43
8.7,-0.45,47
8.7,-0.3,5
8.7,-0.15,56
8.7,0.0,65
8.7,0.15,132
8.7,0.3,75
8.7,0.45,95
8.7,0.6,141
8.7,0.75,116
8.7,0.9,85
8.7,1.05,53
8.7,1.2,20
8.7,1.35,5
8.7,1.5,0
8.85,-1.5,0
8.85,-1.35,0
8.85,-1.2,0
8.85,-1.05,0
8.85,-0.9,64
8.85,-0.75,115
8.85,-0.6,255
8.85,-0.45,23
8.85,-0.3,51
8.85,-0.15,21
8.85,0.0,29
8.85,0.15,104
8.85,0.3,175
8.85,0.45,101
8.85,0.6,148
8.85,0.75,121
8.85,0.9,89
8.85,1.05,56
8.85,1.2,22
8.85,1.35,6
8.85,1.5,0
9.0,-1.5,0
9.0,-1.35,0
9.0,-1.2,0
9.0,-1.05,2
9.0,-0.9,66
9.0,-0.75,143
9.0,-0.6,154
9.0,-0.45,39
9.0,-0.3,91
9.0,-0.15,49
9.0,0.0,0
9.0,0.15,55
9.0,0.3,120
9.0,0.45,107
9.0,0.6,155
9.0,0.75,126
9.0,0.9,92
9.0,1.05,58
9.0,1.2,24
9.0,1.35,6
9.0,1.5,0
9.15,-1.5,0
9.15,-1.35,0
9.15,-1.2,0
9.15,-1.05,4
9.15,-0.9,50
9.15,-0.75,23
9.15,-0.6,141
9.15,-0.45,100
9.15,-0.3,15
9.15,-0.15,79
9.15,0.0,118
9.15,0.15,18
9.15,0.3,73
9.15,0.45,118
9.15,0.6,164
9.15,0.75,131
9.15,0.9,96
9.15,1.05,61
9.15,1.2,26
9.15,1.35,6
9.15,1.5,0
9.3,-1.5,0
9.3,-1.35,0
9.3,-1.2,0
9.3,-1.05,7
9.3,-0.9,40
9.3,-0.75,87
9.3,-0.6,52
9.3,-0.45,151
9.3,-0.3,137
9.3,-0.15,134
9.3,0.0,216
9.3,0.15,53
9.3,0.3,77
9.3,0.45,115
9.3,0.6,173
9.3,0.75,137
9.3,0.9,100
9.3,1.05,63
9.3,1.2,28
9.3,1.35,7
9.3,1.5,0
9.45,-1.5,0
9.45,-1.35,0
9.45,-1.2,1
9.45,-1.05,10
9.45,-0.9,38
9.45,-0.75,24
9.45,-0.6,46
9.45,-0.45,72
9.45,-0.3,55
9.45,-0.15,0
9.45,0.0,41
9.45,0.15,163
9.45,0.3,154
9.45,0.45,154
9.45,0.6,186
9.45,0.75,144
9.45,0.9,103
9.45,1.05,65
9.45,1.2,29
9.45,1.35,7
9.45,1.5,0
9.6,-1.5,0
9.6,-1.35,0
9.6,-1.2,1
9.6,-1.05,12
9.6,-0.9,40
9.6,-0.75,24
9.6,-0.6,6
9.6,-0.45,22
9.6,-0.3,0
9.6,-0.15,170
9.6,0.0,170
9.6,0.15,233
9.6,0.3,171
9.6,0.45,176
9.6,0.6,200
9.6,0.75,151
9.6,0.9,106
9.6,1.05,67
9.6,1.2,31
9.6,1.35,7
9.6,1.5,0
9.75,-1.5,0
9.75,-1.35,0
9.75,-1.2,2
9.75,-1.05,15
9.75,-0.9,42
9.75,-0.75,50
9.75,-0.6,70
9.75,-0.45,32
9.75,-0.3,35
9.75,-0.15,166
9.75,0.0,101
9.75,0.15,58
9.75,0.3,151
9.75,0.45,183
9.75,0.6,211
9.75,0.75,156
9.75,0.9,109
9.75,1.05,70
9.75,1.2,33
9.75,1.35,8
9.75,1.5,0
9.9,-1.5,0
9.9,-1.35,0
9.9,-1.2,2
9.9,-1.05,17
9.9,-0.9,45
9.9,-0.75,52
9.9,-0.6,42
9.9,-0.45,62
9.9,-0.3,28
9.9,-0.15,63
9.9,0.0,102
9.9,0.15,140
9.9,0.3,149
9.9,0.45,195
9.9,0.6,209
9.9,0.75,160
9.9,0.9,112
9.9,1.05,71
9.9,1.2,35
9.9,1.35,8
9.9,1.5,0
10.05,-1.5,0
10.05,-1.35,0
10.05,-1.2,3
10.05,-1.05,20
10.05,-0.9,46
10.05,-0.75,44
10.05,-0.6,54
10.05,-0.45,85
10.05,-0.3,24
10.05,-0.15,62
10.05,0.0,93
10.05,0.15,160
10.05,0.3,216
10.05,0.45,187
10.05,0.6,189
10.05,0.75,164
10.05,0.9,114
10.05,1.05,73
10.05,1.2,36
10.05,1.35,8
10.05,1.5,0
10.2,-1.5,0
10.2,-1.35,0
10.2,-1.2,3
10.2,-1.05,22
10.2,-0.9,47
10.2,-0.75,36
10.2,-0.6,42
10.2,-0.45,96
10.2,-0.3,125
10.2,-0.15,37
10.2,0.0,42
10.2,0.15,65
10.2,0.3,150
10.2,0.45,147
10.2,0.6,168
10.2,0.75,166
10.2,0.9,116
10.2,1.05,75
10.2,1.2,38
10.2,1.35,9
10.2,1.5,0
10.35,-1.5,0
10.35,-1.35,0
10.35,-1.2,4
10.35,-1.05,24
10.35,-0.9,48
10.35,-0.75,25
10.35,-0.6,18
10.35,-0.45,60
10.35,-0.3,160
10.35,-0.15,44
10.35,0.0,37
10.35,0.15,28
10.35,0.3,78
10.35,0.45,120
10.35,0.6,148
10.35,0.75,164
10.35,0.9,119
10.35,1.05,77
10.35,1.2,40
10.35,1.35,9
10.35,1.5,0
10.5,-1.5,0
10.5,-1.35,0
10.5,-1.2,5
10.5,-1.05,26
10.5,-0.9,49
10.5,-0.75,32
10.5,-0.6,14
10.5,-0.45,5
10.5,-0.3,146
10.5,-0.15,37
10.5,0.0,34
10.5,0.15,17
10.5,0.3,55
10.5,0.45,98
10.5,0.6,128
10.5,0.75,157
10.5,0.9,120
10.5,1.05,79
10.5,1.2,42
10.5,1.35,10
10.5,1.5,0
10.65,-1.5,0
10.65,-1.35,0
10.65,-1.2,6
10.65,-1.05,28
10.65,-0.9,50
10.65,-0.75,51
10.65,-0.6,41
10.65,-0.45,48
10.65,-0.3,144
10.65,-0.15,49
10.65,0.0,52
10.65,0.15,46
10.65,0.3,44
10.65,0.45,78
10.65,0.6,109
10.65,0.75,141
10.65,0.9,120
10.65,1.05,81
10.65,1.2,43
10.65,1.35,10
10.65,1.5,0
10.8,-1.5,0
10.8,-1.35,0
10.8,-1.2,8
10.8,-1.05,30
10.8,-0.9,50
10.8,-0.75,54
10.8,-0.6,52
10.8,-0.45,68
10.8,-0.3,53
10.8,-0.15,53
10.8,0.0,121
10.8,0.15,98
10.8,0.3,34
10.8,0.45,58
10.8,0.6,89
10.8,0.75,121
10.8,0.9,118
10.8,1.05,82
10.8,1.2,45
10.8,1.35,11
10.8,1.5,0
10.95,-1.5,0
10.95,-1.35,0
10.95,-1.2,10
10.95,-1.05,32
10.95,-0.9,50
10.95,-0.75,54
10.95,-0.6,57
10.95,-0.45,202
10.95,-0.3,155
10.95,-0.15,166
10.95,0.0,163
10.95,0.15,67
10.95,0.3,22
10.95,0.45,39
10.95,0.6,69
10.95,0.75,101
10.95,0.9,115
10.95,1.05,83
10.95,1.2,47
10.95,1.35,12
10.95,1.5,0
11.1,-1.5,0
11.1,-1.35,1
11.1,-1.2,13
11.1,-1.05,34
11.1,-0.9,51
11.1,-0.75,53
11.1,-0.6,54
11.1,-0.45,34
11.1,-0.3,110
11.1,-0.15,148
11.1,0.0,118
11.1,0.15,49
11.1,0.3,8
11.1,0.45,21
11.1,0.6,49
11.1,0.75,82
11.1,0.9,108
11.1,1.05,83
11.1,1.2,48
11.1,1.35,13
11.1,1.5,0
11.25,-1.5,0
11.25,-1.35,1
11.25,-1.2,15
11.25,-1.05,36
11.25,-0.9,50
11.25,-0.75,39
11.25,-0.6,44
11.25,-0.45,34
11.25,-0.3,71
11.25,-0.15,118
11.25,0.0,82
11.25,0.15,50
11.25,0.3,11
11.25,0.45,4
11.25,0.6,29
11.25,0.75,62
11.25,0.9,95
11.25,1.05,82
11.25,1.2,49
11.25,1.35,14
11.25,1.5,0
11.4,-1.5,0
11.4,-1.35,2
11.4,-1.2,18
11.4,-1.05,39
11.4,-0.9,53
11.4,-0.75,23
11.4,-0.6,52
11.4,-0.45,50
11.4,-0.3,55
11.4,-0.15,75
11.4,0.0,20
11.4,0.15,32
11.4,0.3,22
11.4,0.45,16
11.4,0.6,15
11.4,0.75,46
11.4,0.9,77
11.4,1.05,80
11.4,1.2,50
11.4,1.35,16
11.4,1.5,0
11.55,-1.5,0
11.55,-1.35,2
11.55,-1.2,21
11.55,-1.05,44
11.55,-0.9,63
11.55,-0.75,6
11.55,-0.6,122
11.55,-0.45,132
11.55,-0.3,194
11.55,-0.15,176
11.55,0.0,130
11.55,0.15,101
11.55,0.3,74
11.55,0.45,40
11.55,0.6,15
11.55,0.75,35
11.55,0.9,61
11.55,1.05,77
11.55,1.2,51
11.55,1.35,17
11.55,1.5,0
11.7,-1.5,0
11.7,-1.35,3
11.7,-1.2,24
11.7,-1.05,49
11.7,-0.9,81
11.7,-0.75,72
11.7,-0.6,187
11.7,-0.45,107
11.7,-0.3,121
11.7,-0.15,201
11.7,0.0,192
11.7,0.15,150
11.7,0.3,105
11.7,0.45,64
11.7,0.6,28
11.7,0.75,28
11.7,0.9,48
11.7,1.05,71
11.7,1.2,51
11.7,1.35,19
11.7,1.5,0
11.85,-1.5,0
11.85,-1.35,4
11.85,-1.2,27
11.85,-1.05,56
11.85,-0.9,107
11.85,-0.75,150
11.85,-0.6,252
11.85,-0.45,1
11.85,-0.3,64
11.85,-0.15,202
11.85,0.0,235
11.85,0.15,180
11.85,0.3,129
11.85,0.45,86
11.85,0.6,49
11.85,0.75,28
11.85,0.9,38
11.85,1.05,57
11.85,1.2,51
11.85,1.35,20
11.85,1.5,0
12.0,-1.5,0
12.0,-1.35,5
12.0,-1.2,31
12.0,-1.05,65
12.0,-0.9,133
12.0,-0.75,183
12.0,-0.6,60
12.0,-0.45,44
12.0,-0.3,13
12.0,-0.15,208
12.0,0.0,255
12.0,0.15,202
12.0,0.3,150
12.0,0.45,107
12.0,0.6,69
12.0,0.75,34
12.0,0.9,31
12.0,1.05,44
12.0,1.2,50
12.0,1.35,22
12.0,1.5,0
12.15,-1.5,0
12.15,-1.35,8
12.15,-1.2,34
12.15,-1.05,75
12.15,-0.9,154
12.15,-0.75,108
12.15,-0.6,50
12.15,-0.45,29
12.15,-0.3,24
12.15,-0.15,184
12.15,0.0,255
12.15,0.15,217
12.15,0.3,166
12.15,0.45,125
12.15,0.6,87
12.15,0.75,52
12.15,0.9,29
12.15,1.05,33
12.15,1.2,46
12.15,1.35,23
12.15,1.5,0
12.3,-1.5,0
12.3,-1.35,11
12.3,-1.2,39
12.3,-1.05,82
12.3,-0.9,47
12.3,-0.75,154
12.3,-0.6,89
12.3,-0.45,66
12.3,-0.3,108
12.3,-0.15,119
12.3,0.0,250
12.3,0.15,221
12.3,0.3,179
12.3,0.45,141
12.3,0.6,105
12.3,0.75,71
12.3,0.9,38
12.3,1.05,26
12.3,1.2,35
12.3,1.35,24
12.3,1.5,0
12.45,-1.5,0
12.45,-1.35,14
12.45,-1.2,45
12.45,-1.05,74
12.45,-0.9,0
12.45,-0.75,132
12.45,-0.6,77
12.45,-0.45,127
12.45,-0.3,85
12.45,-0.15,77
12.45,0.0,168
12.45,0.15,223
12.45,0.3,189
12.45,0.45,154
12.45,0.6,121
12.45,0.75,88
12.45,0.9,56
12.45,1.05,27
12.45,1.2,24
12.45,1.35,24
12.45,1.5,0
12.6,-1.5,0
12.6,-1.35,17
12.6,-1.2,45
12.6,-1.05,15
12.6,-0.9,23
12.6,-0.75,57
12.6,-0.6,18
12.6,-0.45,73
12.6,-0.3,53
12.6,-0.15,51
12.6,0.0,104
12.6,0.15,207
12.6,0.3,198
12.6,0.45,167
12.6,0.6,135
12.6,0.75,105
12.6,0.9,73
12.6,1.05,42
12.6,1.2,19
12.6,1.35,21
12.6,1.5,0
12.75,-1.5,0
12.75,-1.35,20
12.75,-1.2,23
12.75,-1.05,37
12.75,-0.9,68
12.75,-0.75,103
12.75,-0.6,96
12.75,-0.45,130
12.75,-0.3,104
12.75,-0.15,44
12.75,0.0,17
12.75,0.15,76
12.75,0.3,107
12.75,0.45,103
12.75,0.6,94
12.75,0.75,84
12.75,0.9,73
12.75,1.05,56
12.75,1.2,30
12.75,1.35,11
12.75,1.5,0
12.9,-1.5,0
12.9,-1.35,12
12.9,-1.2,44
12.9,-1.05,83
12.9,-0.9,123
12.9,-0.75,162
12.9,-0.6,200
12.9,-0.45,198
12.9,-0.3,166
12.9,-0.15,146
12.9,0.0,135
12.9,0.15,124
12.9,0.3,112
12.9,0.45,100
12.9,0.6,86
12.9,0.75,71
12.9,0.9,56
12.9,1.05,42
12.9,1.2,29
12.9,1.35,15
12.9,1.5,0
