-3.0,-1.5,172
-3.0,-1.35,172
-3.0,-1.2,172
-3.0,-1.05,173
-3.0,-0.9,173
-3.0,-0.75,173
-3.0,-0.6,129
-3.0,-0.45,172
-3.0,-0.3,172
-3.0,-0.15,172
-3.0,0.0,172
-3.0,0.15,172
-3.0,0.3,172
-3.0,0.45,172
-3.0,0.6,179
-3.0,0.75,179
-3.0,0.9,179
-3.0,1.05,179
-3.0,1.2,179
-3.0,1.35,179
-3.0,1.5,179
-2.85,-1.5,158
-2.85,-1.35,172
-2.85,-1.2,173
-2.85,-1.05,173
-2.85,-0.9,173
-2.85,-0.75,173
-2.85,-0.6,173
-2.85,-0.45,173
-2.85,-0.3,173
-2.85,-0.15,173
-2.85,0.0,173
-2.85,0.15,173
-2.85,0.3,173
-2.85,0.45,173
-2.85,0.6,180
-2.85,0.75,180
-2.85,0.9,180
-2.85,1.05,180
-2.85,1.2,180
-2.85,1.35,187
-2.85,1.5,187
-2.7,-1.5,158
-2.7,-1.35,158
-2.7,-1.2,173
-2.7,-1.05,173
-2.7,-0.9,173
-2.7,-0.75,173
-2.7,-0.6,173
-2.7,-0.45,173
-2.7,-0.3,173
-2.7,-0.15,173
-2.7,0.0,173
-2.7,0.15,173
-2.7,0.3,173
-2.7,0.45,180
-2.7,0.6,180
-2.7,0.75,180
-2.7,0.9,180
-2.7,1.05,180
-2.7,1.2,187
-2.7,1.35,187
-2.7,1.5,187
-2.55,-1.5,158
-2.55,-1.35,159
-2.55,-1.2,173
-2.55,-1.05,173
-2.55,-0.9,173
-2.55,-0.75,173
-2.55,-0.6,173
-2.55,-0.45,173
-2.55,-0.3,174
-2.55,-0.15,173
-2.55,0.0,173
-2.55,0.15,173
-2.55,0.3,180
-2.55,0.45,181
-2.55,0.6,181
-2.55,0.75,181
-2.55,0.9,180
-2.55,1.05,187
-2.55,1.2,187
-2.55,1.35,187
-2.55,1.5,187
-2.4,-1.5,159
-2.4,-1.35,159
-2.4,-1.2,159
-2.4,-1.05,173
-2.4,-0.9,173
-2.4,-0.75,173
-2.4,-0.6,173
-2.4,-0.45,174
-2.4,-0.3,174
-2.4,-0.15,174
-2.4,0.0,173
-2.4,0.15,181
-2.4,0.3,181
-2.4,0.45,181
-2.4,0.6,181
-2.4,0.75,181
-2.4,0.9,188
-2.4,1.05,188
-2.4,1.2,187
-2.4,1.35,187
-2.4,1.5,187
-2.25,-1.5,159
-2.25,-1.35,159
-2.25,-1.2,159
-2.25,-1.05,173
-2.25,-0.9,173
-2.25,-0.75,174
-2.25,-0.6,174
-2.25,-0.45,174
-2.25,-0.3,174
-2.25,-0.15,182
-2.25,0.0,182
-2.25,0.15,181
-2.25,0.3,181
-2.25,0.45,181
-2.25,0.6,181
-2.25,0.75,181
-2.25,0.9,188
-2.25,1.05,188
-2.25,1.2,188
-2.25,1.35,188
-2.25,1.5,187
-2.1,-1.5,166
-2.1,-1.35,166
-2.1,-1.2,159
-2.1,-1.05,159
-2.1,-0.9,174
-2.1,-0.75,174
-2.1,-0.6,174
-2.1,-0.45,174
-2.1,-0.3,182
-2.1,-0.15,182
-2.1,0.0,182
-2.1,0.15,182
-2.1,0.3,181
-2.1,0.45,181
-2.1,0.6,181
-2.1,0.75,188
-2.1,0.9,188
-2.1,1.05,188
-2.1,1.2,188
-2.1,1.35,188
-2.1,1.5,188
-1.95,-1.5,166
-1.95,-1.35,166
-1.95,-1.2,167
-1.95,-1.05,167
-1.95,-0.9,167
-1.95,-0.75,174
-1.95,-0.6,182
-1.95,-0.45,182
-1.95,-0.3,182
-1.95,-0.15,182
-1.95,0.0,182
-1.95,0.15,182
-1.95,0.3,182
-1.95,0.45,181
-1.95,0.6,181
-1.95,0.75,188
-1.95,0.9,188
-1.95,1.05,188
-1.95,1.2,188
-1.95,1.35,188
-1.95,1.5,188
-1.8,-1.5,166
-1.8,-1.35,167
-1.8,-1.2,167
-1.8,-1.05,167
-1.8,-0.9,167
-1.8,-0.75,211
-1.8,-0.6,182
-1.8,-0.45,182
-1.8,-0.3,182
-1.8,-0.15,182
-1.8,0.0,182
-1.8,0.15,182
-1.8,0.3,182
-1.8,0.45,189
-1.8,0.6,188
-1.8,0.75,188
-1.8,0.9,188
-1.8,1.05,188
-1.8,1.2,188
-1.8,1.35,188
-1.8,1.5,188
-1.65,-1.5,167
-1.65,-1.35,167
-1.65,-1.2,167
-1.65,-1.05,167
-1.65,-0.9,211
-1.65,-0.75,211
-1.65,-0.6,211
-1.65,-0.45,211
-1.65,-0.3,182
-1.65,-0.15,182
-1.65,0.0,182
-1.65,0.15,182
-1.65,0.3,189
-1.65,0.45,189
-1.65,0.6,189
-1.65,0.75,188
-1.65,0.9,188
-1.65,1.05,188
-1.65,1.2,188
-1.65,1.35,188
-1.65,1.5,188
-1.5,-1.5,167
-1.5,-1.35,167
-1.5,-1.2,211
-1.5,-1.05,211
-1.5,-0.9,211
-1.5,-0.75,211
-1.5,-0.6,211
-1.5,-0.45,211
-1.5,-0.3,211
-1.5,-0.15,211
-1.5,0.0,182
-1.5,0.15,225
-1.5,0.3,189
-1.5,0.45,189
-1.5,0.6,232
-1.5,0.75,232
-1.5,0.9,189
-1.5,1.05,188
-1.5,1.2,188
-1.5,1.35,152
-1.5,1.5,152
-1.35,-1.5,211
-1.35,-1.35,211
-1.35,-1.2,211
-1.35,-1.05,211
-1.35,-0.9,211
-1.35,-0.75,211
-1.35,-0.6,211
-1.35,-0.45,211
-1.35,-0.3,211
-1.35,-0.15,211
-1.35,0.0,226
-1.35,0.15,233
-1.35,0.3,189
-1.35,0.45,232
-1.35,0.6,232
-1.35,0.75,232
-1.35,0.9,232
-1.35,1.05,196
-1.35,1.2,153
-1.35,1.35,152
-1.35,1.5,152
-1.2,-1.5,167
-1.2,-1.35,211
-1.2,-1.2,211
-1.2,-1.05,211
-1.2,-0.9,211
-1.2,-0.75,211
-1.2,-0.6,211
-1.2,-0.45,211
-1.2,-0.3,211
-1.2,-0.15,255
-1.2,0.0,255
-1.2,0.15,233
-1.2,0.3,233
-1.2,0.45,233
-1.2,0.6,233
-1.2,0.75,232
-1.2,0.9,196
-1.2,1.05,196
-1.2,1.2,196
-1.2,1.35,153
-1.2,1.5,152
-1.05,-1.5,167
-1.05,-1.35,167
-1.05,-1.2,167
-1.05,-1.05,211
-1.05,-0.9,211
-1.05,-0.75,211
-1.05,-0.6,211
-1.05,-0.45,211
-1.05,-0.3,255
-1.05,-0.15,255
-1.05,0.0,233
-1.05,0.15,233
-1.05,0.3,240
-1.05,0.45,240
-1.05,0.6,240
-1.05,0.75,204
-1.05,0.9,204
-1.05,1.05,204
-1.05,1.2,160
-1.05,1.35,160
-1.05,1.5,160
-0.9,-1.5,167
-0.9,-1.35,167
-0.9,-1.2,167
-0.9,-1.05,167
-0.9,-0.9,211
-0.9,-0.75,211
-0.9,-0.6,211
-0.9,-0.45,211
-0.9,-0.3,218
-0.9,-0.15,255
-0.9,0.0,255
-0.9,0.15,255
-0.9,0.3,240
-0.9,0.45,204
-0.9,0.6,204
-0.9,0.75,204
-0.9,0.9,204
-0.9,1.05,204
-0.9,1.2,204
-0.9,1.35,204
-0.9,1.5,168
-0.75,-1.5,167
-0.75,-1.35,167
-0.75,-1.2,167
-0.75,-1.05,167
-0.75,-0.9,167
-0.75,-0.75,167
-0.75,-0.6,211
-0.75,-0.45,211
-0.75,-0.3,218
-0.75,-0.15,218
-0.75,0.0,226
-0.75,0.15,204
-0.75,0.3,204
-0.75,0.45,204
-0.75,0.6,204
-0.75,0.75,204
-0.75,0.9,204
-0.75,1.05,204
-0.75,1.2,204
-0.75,1.35,168
-0.75,1.5,168
-0.6,-1.5,174
-0.6,-1.35,174
-0.6,-1.2,167
-0.6,-1.05,167
-0.6,-0.9,167
-0.6,-0.75,167
-0.6,-0.6,211
-0.6,-0.45,211
-0.6,-0.3,182
-0.6,-0.15,182
-0.6,0.0,226
-0.6,0.15,204
-0.6,0.3,204
-0.6,0.45,204
-0.6,0.6,204
-0.6,0.75,204
-0.6,0.9,204
-0.6,1.05,168
-0.6,1.2,168
-0.6,1.35,168
-0.6,1.5,168
-0.45,-1.5,138
-0.45,-1.35,174
-0.45,-1.2,174
-0.45,-1.05,175
-0.45,-0.9,175
-0.45,-0.75,182
-0.45,-0.6,146
-0.45,-0.45,146
-0.45,-0.3,146
-0.45,-0.15,197
-0.45,0.0,197
-0.45,0.15,204
-0.45,0.3,204
-0.45,0.45,211
-0.45,0.6,211
-0.45,0.75,204
-0.45,0.9,204
-0.45,1.05,175
-0.45,1.2,175
-0.45,1.35,175
-0.45,1.5,175
-0.3,-1.5,131
-0.3,-1.35,138
-0.3,-1.2,138
-0.3,-1.05,138
-0.3,-0.9,109
-0.3,-0.75,110
-0.3,-0.6,110
-0.3,-0.45,146
-0.3,-0.3,153
-0.3,-0.15,153
-0.3,0.0,160
-0.3,0.15,175
-0.3,0.3,175
-0.3,0.45,225
-0.3,0.6,226
-0.3,0.75,226
-0.3,0.9,226
-0.3,1.05,182
-0.3,1.2,168
-0.3,1.35,132
-0.3,1.5,132
-0.15,-1.5,124
-0.15,-1.35,102
-0.15,-1.2,102
-0.15,-1.05,109
-0.15,-0.9,109
-0.15,-0.75,110
-0.15,-0.6,110
-0.15,-0.45,117
-0.15,-0.3,117
-0.15,-0.15,117
-0.15,0.0,95
-0.15,0.15,102
-0.15,0.3,102
-0.15,0.45,102
-0.15,0.6,102
-0.15,0.75,146
-0.15,0.9,103
-0.15,1.05,103
-0.15,1.2,103
-0.15,1.35,117
-0.15,1.5,117
0.0,-1.5,117
0.0,-1.35,131
0.0,-1.2,131
0.0,-1.05,131
0.0,-0.9,131
0.0,-0.75,139
0.0,-0.6,117
0.0,-0.45,117
0.0,-0.3,88
0.0,-0.15,95
0.0,0.0,95
0.0,0.15,102
0.0,0.3,102
0.0,0.45,102
0.0,0.6,95
0.0,0.75,66
0.0,0.9,95
0.0,1.05,95
0.0,1.2,117
0.0,1.35,117
0.0,1.5,117
0.15,-1.5,80
0.15,-1.35,124
0.15,-1.2,139
0.15,-1.05,139
0.15,-0.9,139
0.15,-0.75,139
0.15,-0.6,139
0.15,-0.45,88
0.15,-0.3,88
0.15,-0.15,59
0.15,0.0,66
0.15,0.15,66
0.15,0.3,66
0.15,0.45,66
0.15,0.6,95
0.15,0.75,95
0.15,0.9,95
0.15,1.05,95
0.15,1.2,95
0.15,1.35,95
0.15,1.5,95
0.3,-1.5,95
0.3,-1.35,95
0.3,-1.2,95
0.3,-1.05,95
0.3,-0.9,138
0.3,-0.75,95
0.3,-0.6,73
0.3,-0.45,73
0.3,-0.3,73
0.3,-0.15,66
0.3,0.0,66
0.3,0.15,66
0.3,0.3,66
0.3,0.45,95
0.3,0.6,95
0.3,0.75,95
0.3,0.9,95
0.3,1.05,95
0.3,1.2,95
0.3,1.35,95
0.3,1.5,95
0.45,-1.5,95
0.45,-1.35,95
0.45,-1.2,95
0.45,-1.05,95
0.45,-0.9,73
0.45,-0.75,73
0.45,-0.6,73
0.45,-0.45,73
0.45,-0.3,88
0.45,-0.15,73
0.45,0.0,73
0.45,0.15,66
0.45,0.3,102
0.45,0.45,95
0.45,0.6,95
0.45,0.75,95
0.45,0.9,95
0.45,1.05,95
0.45,1.2,95
0.45,1.35,95
0.45,1.5,95
0.6,-1.5,73
0.6,-1.35,73
0.6,-1.2,80
0.6,-1.05,80
0.6,-0.9,80
0.6,-0.75,80
0.6,-0.6,80
0.6,-0.45,88
0.6,-0.3,88
0.6,-0.15,95
0.6,0.0,80
0.6,0.15,109
0.6,0.3,102
0.6,0.45,102
0.6,0.6,102
0.6,0.75,95
0.6,0.9,95
0.6,1.05,95
0.6,1.2,95
0.6,1.35,102
0.6,1.5,95
0.75,-1.5,66
0.75,-1.35,66
0.75,-1.2,66
0.75,-1.05,66
0.75,-0.9,66
0.75,-0.75,80
0.75,-0.6,80
0.75,-0.45,95
0.75,-0.3,88
0.75,-0.15,117
0.75,0.0,102
0.75,0.15,131
0.75,0.3,124
0.75,0.45,102
0.75,0.6,109
0.75,0.75,109
0.75,0.9,109
0.75,1.05,102
0.75,1.2,102
0.75,1.35,102
0.75,1.5,80
0.9,-1.5,66
0.9,-1.35,66
0.9,-1.2,66
0.9,-1.05,80
0.9,-0.9,80
0.9,-0.75,95
0.9,-0.6,95
0.9,-0.45,124
0.9,-0.3,139
0.9,-0.15,131
0.9,0.0,109
0.9,0.15,131
0.9,0.3,131
0.9,0.45,131
0.9,0.6,131
0.9,0.75,124
0.9,0.9,95
0.9,1.05,95
0.9,1.2,80
0.9,1.35,80
0.9,1.5,80
1.05,-1.5,59
1.05,-1.35,73
1.05,-1.2,73
1.05,-1.05,88
1.05,-0.9,88
1.05,-0.75,95
1.05,-0.6,117
1.05,-0.45,124
1.05,-0.3,139
1.05,-0.15,117
1.05,0.0,109
1.05,0.15,131
1.05,0.3,131
1.05,0.45,117
1.05,0.6,109
1.05,0.75,109
1.05,0.9,80
1.05,1.05,80
1.05,1.2,80
1.05,1.35,73
1.05,1.5,73
1.2,-1.5,81
1.2,-1.35,81
1.2,-1.2,66
1.2,-1.05,66
1.2,-0.9,80
1.2,-0.75,80
1.2,-0.6,102
1.2,-0.45,109
1.2,-0.3,109
1.2,-0.15,117
1.2,0.0,117
1.2,0.15,139
1.2,0.3,109
1.2,0.45,109
1.2,0.6,109
1.2,0.75,80
1.2,0.9,80
1.2,1.05,66
1.2,1.2,59
1.2,1.35,59
1.2,1.5,59
1.35,-1.5,80
1.35,-1.35,81
1.35,-1.2,81
1.35,-1.05,66
1.35,-0.9,66
1.35,-0.75,66
1.35,-0.6,66
1.35,-0.45,51
1.35,-0.3,80
1.35,-0.15,88
1.35,0.0,88
1.35,0.15,117
1.35,0.3,124
1.35,0.45,80
1.35,0.6,80
1.35,0.75,80
1.35,0.9,59
1.35,1.05,59
1.35,1.2,59
1.35,1.35,59
1.35,1.5,59
1.5,-1.5,73
1.5,-1.35,73
1.5,-1.2,73
1.5,-1.05,102
1.5,-0.9,80
1.5,-0.75,66
1.5,-0.6,66
1.5,-0.45,37
1.5,-0.3,51
1.5,-0.15,59
1.5,0.0,51
1.5,0.15,73
1.5,0.3,95
1.5,0.45,80
1.5,0.6,66
1.5,0.75,51
1.5,0.9,51
1.5,1.05,59
1.5,1.2,59
1.5,1.35,59
1.5,1.5,59
1.65,-1.5,73
1.65,-1.35,73
1.65,-1.2,51
1.65,-1.05,80
1.65,-0.9,80
1.65,-0.75,80
1.65,-0.6,59
1.65,-0.45,59
1.65,-0.3,59
1.65,-0.15,59
1.65,0.0,59
1.65,0.15,44
1.65,0.3,37
1.65,0.45,30
1.65,0.6,59
1.65,0.75,59
1.65,0.9,59
1.65,1.05,59
1.65,1.2,51
1.65,1.35,51
1.65,1.5,58
1.8,-1.5,109
1.8,-1.35,88
1.8,-1.2,88
1.8,-1.05,88
1.8,-0.9,66
1.8,-0.75,66
1.8,-0.6,66
1.8,-0.45,51
1.8,-0.3,51
1.8,-0.15,51
1.8,0.0,51
1.8,0.15,30
1.8,0.3,22
1.8,0.45,22
1.8,0.6,22
1.8,0.75,30
1.8,0.9,51
1.8,1.05,51
1.8,1.2,51
1.8,1.35,51
1.8,1.5,51
1.95,-1.5,80
1.95,-1.35,109
1.95,-1.2,109
1.95,-1.05,109
1.95,-0.9,109
1.95,-0.75,88
1.95,-0.6,95
1.95,-0.45,51
1.95,-0.3,51
1.95,-0.15,59
1.95,0.0,59
1.95,0.15,22
1.95,0.3,15
1.95,0.45,15
1.95,0.6,30
1.95,0.75,30
1.95,0.9,30
1.95,1.05,30
1.95,1.2,30
1.95,1.35,30
1.95,1.5,51
2.1,-1.5,95
2.1,-1.35,102
2.1,-1.2,102
2.1,-1.05,117
2.1,-0.9,117
2.1,-0.75,117
2.1,-0.6,124
2.1,-0.45,80
2.1,-0.3,51
2.1,-0.15,66
2.1,0.0,66
2.1,0.15,30
2.1,0.3,30
2.1,0.45,22
2.1,0.6,22
2.1,0.75,44
2.1,0.9,66
2.1,1.05,66
2.1,1.2,66
2.1,1.35,73
2.1,1.5,73
2.25,-1.5,102
2.25,-1.35,102
2.25,-1.2,102
2.25,-1.05,102
2.25,-0.9,102
2.25,-0.75,102
2.25,-0.6,131
2.25,-0.45,131
2.25,-0.3,109
2.25,-0.15,66
2.25,0.0,66
2.25,0.15,59
2.25,0.3,51
2.25,0.45,73
2.25,0.6,73
2.25,0.75,66
2.25,0.9,59
2.25,1.05,73
2.25,1.2,73
2.25,1.35,73
2.25,1.5,73
2.4,-1.5,109
2.4,-1.35,109
2.4,-1.2,109
2.4,-1.05,131
2.4,-0.9,131
2.4,-0.75,131
2.4,-0.6,124
2.4,-0.45,168
2.4,-0.3,124
2.4,-0.15,102
2.4,0.0,80
2.4,0.15,102
2.4,0.3,109
2.4,0.45,80
2.4,0.6,95
2.4,0.75,88
2.4,0.9,88
2.4,1.05,87
2.4,1.2,87
2.4,1.35,80
2.4,1.5,80
2.55,-1.5,138
2.55,-1.35,138
2.55,-1.2,138
2.55,-1.05,138
2.55,-0.9,138
2.55,-0.75,131
2.55,-0.6,131
2.55,-0.45,146
2.55,-0.3,160
2.55,-0.15,139
2.55,0.0,160
2.55,0.15,182
2.55,0.3,182
2.55,0.45,124
2.55,0.6,117
2.55,0.75,88
2.55,0.9,88
2.55,1.05,88
2.55,1.2,87
2.55,1.35,80
2.55,1.5,80
2.7,-1.5,138
2.7,-1.35,138
2.7,-1.2,138
2.7,-1.05,117
2.7,-0.9,117
2.7,-0.75,88
2.7,-0.6,117
2.7,-0.45,139
2.7,-0.3,153
2.7,-0.15,153
2.7,0.0,175
2.7,0.15,160
2.7,0.3,131
2.7,0.45,124
2.7,0.6,117
2.7,0.75,109
2.7,0.9,109
2.7,1.05,80
2.7,1.2,80
2.7,1.35,80
2.7,1.5,80
2.85,-1.5,153
2.85,-1.35,109
2.85,-1.2,109
2.85,-1.05,88
2.85,-0.9,88
2.85,-0.75,117
2.85,-0.6,88
2.85,-0.45,80
2.85,-0.3,117
2.85,-0.15,102
2.85,0.0,131
2.85,0.15,131
2.85,0.3,131
2.85,0.45,124
2.85,0.6,124
2.85,0.75,117
2.85,0.9,88
2.85,1.05,88
2.85,1.2,80
2.85,1.35,80
2.85,1.5,80
3.0,-1.5,131
3.0,-1.35,110
3.0,-1.2,88
3.0,-1.05,88
3.0,-0.9,73
3.0,-0.75,102
3.0,-0.6,88
3.0,-0.45,88
3.0,-0.3,51
3.0,-0.15,59
3.0,0.0,80
3.0,0.15,109
3.0,0.3,131
3.0,0.45,109
3.0,0.6,102
3.0,0.75,117
3.0,0.9,88
3.0,1.05,80
3.0,1.2,80
3.0,1.35,80
3.0,1.5,80
3.15,-1.5,80
3.15,-1.35,80
3.15,-1.2,80
3.15,-1.05,117
3.15,-0.9,146
3.15,-0.75,146
3.15,-0.6,109
3.15,-0.45,117
3.15,-0.3,73
3.15,-0.15,73
3.15,0.0,73
3.15,0.15,117
3.15,0.3,88
3.15,0.45,109
3.15,0.6,88
3.15,0.75,80
3.15,0.9,80
3.15,1.05,51
3.15,1.2,51
3.15,1.35,44
3.15,1.5,44
3.3,-1.5,153
3.3,-1.35,153
3.3,-1.2,153
3.3,-1.05,117
3.3,-0.9,117
3.3,-0.75,153
3.3,-0.6,168
3.3,-0.45,175
3.3,-0.3,153
3.3,-0.15,146
3.3,0.0,146
3.3,0.15,146
3.3,0.3,138
3.3,0.45,51
3.3,0.6,44
3.3,0.75,73
3.3,0.9,73
3.3,1.05,66
3.3,1.2,66
3.3,1.35,66
3.3,1.5,44
3.45,-1.5,189
3.45,-1.35,189
3.45,-1.2,160
3.45,-1.05,197
3.45,-0.9,197
3.45,-0.75,189
3.45,-0.6,218
3.45,-0.45,204
3.45,-0.3,226
3.45,-0.15,255
3.45,0.0,240
3.45,0.15,160
3.45,0.3,124
3.45,0.45,66
3.45,0.6,37
3.45,0.75,37
3.45,0.9,37
3.45,1.05,37
3.45,1.2,37
3.45,1.35,37
3.45,1.5,44
3.6,-1.5,218
3.6,-1.35,247
3.6,-1.2,218
3.6,-1.05,218
3.6,-0.9,197
3.6,-0.75,175
3.6,-0.6,175
3.6,-0.45,175
3.6,-0.3,255
3.6,-0.15,255
3.6,0.0,255
3.6,0.15,139
3.6,0.3,109
3.6,0.45,51
3.6,0.6,22
3.6,0.75,1
3.6,0.9,22
3.6,1.05,22
3.6,1.2,8
3.6,1.35,8
3.6,1.5,8
3.75,-1.5,255
3.75,-1.35,226
3.75,-1.2,226
3.75,-1.05,226
3.75,-0.9,204
3.75,-0.75,197
3.75,-0.6,175
3.75,-0.45,124
3.75,-0.3,168
3.75,-0.15,204
3.75,0.0,160
3.75,0.15,131
3.75,0.3,30
3.75,0.45,30
3.75,0.6,30
3.75,0.75,22
3.75,0.9,22
3.75,1.05,8
3.75,1.2,8
3.75,1.35,8
3.75,1.5,8
3.9,-1.5,226
3.9,-1.35,226
3.9,-1.2,226
3.9,-1.05,226
3.9,-0.9,189
3.9,-0.75,168
3.9,-0.6,160
3.9,-0.45,95
3.9,-0.3,109
3.9,-0.15,146
3.9,0.0,102
3.9,0.15,138
3.9,0.3,95
3.9,0.45,66
3.9,0.6,22
3.9,0.75,30
3.9,0.9,30
3.9,1.05,8
3.9,1.2,8
3.9,1.35,8
3.9,1.5,1
4.05,-1.5,211
4.05,-1.35,211
4.05,-1.2,211
4.05,-1.05,211
4.05,-0.9,175
4.05,-0.75,131
4.05,-0.6,131
4.05,-0.45,80
4.05,-0.3,80
4.05,-0.15,59
4.05,0.0,131
4.05,0.15,153
4.05,0.3,109
4.05,0.45,88
4.05,0.6,80
4.05,0.75,73
4.05,0.9,30
4.05,1.05,8
4.05,1.2,8
4.05,1.35,1
4.05,1.5,1
4.2,-1.5,146
4.2,-1.35,139
4.2,-1.2,139
4.2,-1.05,139
4.2,-0.9,139
4.2,-0.75,168
4.2,-0.6,168
4.2,-0.45,124
4.2,-0.3,102
4.2,-0.15,73
4.2,0.0,109
4.2,0.15,131
4.2,0.3,138
4.2,0.45,102
4.2,0.6,73
4.2,0.75,59
4.2,0.9,59
4.2,1.05,51
4.2,1.2,8
4.2,1.35,1
4.2,1.5,1
4.35,-1.5,153
4.35,-1.35,153
4.35,-1.2,146
4.35,-1.05,153
4.35,-0.9,168
4.35,-0.75,139
4.35,-0.6,131
4.35,-0.45,131
4.35,-0.3,139
4.35,-0.15,102
4.35,0.0,117
4.35,0.15,117
4.35,0.3,73
4.35,0.45,30
4.35,0.6,22
4.35,0.75,22
4.35,0.9,8
4.35,1.05,8
4.35,1.2,30
4.35,1.35,30
4.35,1.5,29
4.5,-1.5,153
4.5,-1.35,153
4.5,-1.2,153
4.5,-1.05,117
4.5,-0.9,117
4.5,-0.75,139
4.5,-0.6,109
4.5,-0.45,168
4.5,-0.3,189
4.5,-0.15,211
4.5,0.0,146
4.5,0.15,124
4.5,0.3,124
4.5,0.45,66
4.5,0.6,59
4.5,0.75,37
4.5,0.9,37
4.5,1.05,37
4.5,1.2,30
4.5,1.35,30
4.5,1.5,29
4.65,-1.5,102
4.65,-1.35,102
4.65,-1.2,88
4.65,-1.05,88
4.65,-0.9,88
4.65,-0.75,88
4.65,-0.6,95
4.65,-0.45,117
4.65,-0.3,153
4.65,-0.15,117
4.65,0.0,80
4.65,0.15,73
4.65,0.3,80
4.65,0.45,51
4.65,0.6,30
4.65,0.75,30
4.65,0.9,30
4.65,1.05,30
4.65,1.2,30
4.65,1.35,30
4.65,1.5,30
4.8,-1.5,81
4.8,-1.35,81
4.8,-1.2,81
4.8,-1.05,51
4.8,-0.9,51
4.8,-0.75,22
4.8,-0.6,73
4.8,-0.45,131
4.8,-0.3,168
4.8,-0.15,124
4.8,0.0,146
4.8,0.15,102
4.8,0.3,73
4.8,0.45,37
4.8,0.6,22
4.8,0.75,30
4.8,0.9,30
4.8,1.05,22
4.8,1.2,22
4.8,1.35,30
4.8,1.5,29
4.95,-1.5,117
4.95,-1.35,88
4.95,-1.2,66
4.95,-1.05,66
4.95,-0.9,59
4.95,-0.75,88
4.95,-0.6,88
4.95,-0.45,109
4.95,-0.3,117
4.95,-0.15,73
4.95,0.0,88
4.95,0.15,66
4.95,0.3,37
4.95,0.45,37
4.95,0.6,15
4.95,0.75,22
4.95,0.9,15
4.95,1.05,22
4.95,1.2,22
4.95,1.35,22
4.95,1.5,22
5.1,-1.5,95
5.1,-1.35,95
5.1,-1.2,95
5.1,-1.05,117
5.1,-0.9,117
5.1,-0.75,117
5.1,-0.6,117
5.1,-0.45,146
5.1,-0.3,233
5.1,-0.15,73
5.1,0.0,59
5.1,0.15,59
5.1,0.3,8
5.1,0.45,30
5.1,0.6,15
5.1,0.75,8
5.1,0.9,15
5.1,1.05,15
5.1,1.2,15
5.1,1.35,15
5.1,1.5,15
5.25,-1.5,131
5.25,-1.35,131
5.25,-1.2,102
5.25,-1.05,117
5.25,-0.9,88
5.25,-0.75,95
5.25,-0.6,124
5.25,-0.45,255
5.25,-0.3,211
5.25,-0.15,88
5.25,0.0,102
5.25,0.15,102
5.25,0.3,88
5.25,0.45,1
5.25,0.6,8
5.25,0.75,0
5.25,0.9,0
5.25,1.05,0
5.25,1.2,0
5.25,1.35,0
5.25,1.5,0
5.4,-1.5,131
5.4,-1.35,175
5.4,-1.2,175
5.4,-1.05,175
5.4,-0.9,175
5.4,-0.75,146
5.4,-0.6,168
5.4,-0.45,204
5.4,-0.3,160
5.4,-0.15,102
5.4,0.0,131
5.4,0.15,131
5.4,0.3,59
5.4,0.45,8
5.4,0.6,1
5.4,0.75,1
5.4,0.9,1
5.4,1.05,0
5.4,1.2,0
5.4,1.35,0
5.4,1.5,0
5.55,-1.5,167
5.55,-1.35,167
5.55,-1.2,167
5.55,-1.05,197
5.55,-0.9,197
5.55,-0.75,197
5.55,-0.6,233
5.55,-0.45,189
5.55,-0.3,160
5.55,-0.15,138
5.55,0.0,95
5.55,0.15,59
5.55,0.3,8
5.55,0.45,15
5.55,0.6,15
5.55,0.75,1
5.55,0.9,1
5.55,1.05,0
5.55,1.2,0
5.55,1.35,0
5.55,1.5,0
5.7,-1.5,167
5.7,-1.35,175
5.7,-1.2,175
5.7,-1.05,175
5.7,-0.9,153
5.7,-0.75,153
5.7,-0.6,189
5.7,-0.45,255
5.7,-0.3,139
5.7,-0.15,44
5.7,0.0,22
5.7,0.15,15
5.7,0.3,15
5.7,0.45,8
5.7,0.6,8
5.7,0.75,15
5.7,0.9,44
5.7,1.05,44
5.7,1.2,44
5.7,1.35,37
5.7,1.5,37
5.85,-1.5,168
5.85,-1.35,168
5.85,-1.2,168
5.85,-1.05,168
5.85,-0.9,168
5.85,-0.75,168
5.85,-0.6,139
5.85,-0.45,139
5.85,-0.3,88
5.85,-0.15,1
5.85,0.0,22
5.85,0.15,22
5.85,0.3,22
5.85,0.45,66
5.85,0.6,59
5.85,0.75,59
5.85,0.9,51
5.85,1.05,44
5.85,1.2,44
5.85,1.35,44
5.85,1.5,44
6.0,-1.5,197
6.0,-1.35,168
6.0,-1.2,131
6.0,-1.05,131
6.0,-0.9,139
6.0,-0.75,139
6.0,-0.6,124
6.0,-0.45,73
6.0,-0.3,51
6.0,-0.15,66
6.0,0.0,88
6.0,0.15,51
6.0,0.3,117
6.0,0.45,102
6.0,0.6,51
6.0,0.75,66
6.0,0.9,66
6.0,1.05,66
6.0,1.2,51
6.0,1.35,44
6.0,1.5,44
6.15,-1.5,146
6.15,-1.35,146
6.15,-1.2,146
6.15,-1.05,146
6.15,-0.9,175
6.15,-0.75,160
6.15,-0.6,182
6.15,-0.45,182
6.15,-0.3,247
6.15,-0.15,182
6.15,0.0,88
6.15,0.15,124
6.15,0.3,131
6.15,0.45,109
6.15,0.6,102
6.15,0.75,102
6.15,0.9,88
6.15,1.05,66
6.15,1.2,66
6.15,1.35,51
6.15,1.5,44
6.3,-1.5,139
6.3,-1.35,139
6.3,-1.2,139
6.3,-1.05,139
6.3,-0.9,153
6.3,-0.75,218
6.3,-0.6,211
6.3,-0.45,168
6.3,-0.3,168
6.3,-0.15,102
6.3,0.0,88
6.3,0.15,109
6.3,0.3,139
6.3,0.45,138
6.3,0.6,131
6.3,0.75,109
6.3,0.9,95
6.3,1.05,95
6.3,1.2,80
6.3,1.35,80
6.3,1.5,80
6.45,-1.5,139
6.45,-1.35,139
6.45,-1.2,160
6.45,-1.05,160
6.45,-0.9,160
6.45,-0.75,153
6.45,-0.6,153
6.45,-0.45,109
6.45,-0.3,51
6.45,-0.15,59
6.45,0.0,30
6.45,0.15,66
6.45,0.3,95
6.45,0.45,80
6.45,0.6,80
6.45,0.75,80
6.45,0.9,80
6.45,1.05,80
6.45,1.2,80
6.45,1.35,80
6.45,1.5,80
6.6,-1.5,131
6.6,-1.35,139
6.6,-1.2,139
6.6,-1.05,117
6.6,-0.9,139
6.6,-0.75,146
6.6,-0.6,146
6.6,-0.45,95
6.6,-0.3,66
6.6,-0.15,66
6.6,0.0,0
6.6,0.15,15
6.6,0.3,22
6.6,0.45,22
6.6,0.6,73
6.6,0.75,80
6.6,0.9,80
6.6,1.05,80
6.6,1.2,80
6.6,1.35,73
6.6,1.5,73
6.75,-1.5,109
6.75,-1.35,109
6.75,-1.2,138
6.75,-1.05,139
6.75,-0.9,160
6.75,-0.75,109
6.75,-0.6,88
6.75,-0.45,95
6.75,-0.3,109
6.75,-0.15,102
6.75,0.0,30
6.75,0.15,37
6.75,0.3,44
6.75,0.45,66
6.75,0.6,59
6.75,0.75,59
6.75,0.9,102
6.75,1.05,102
6.75,1.2,102
6.75,1.35,73
6.75,1.5,73
6.9,-1.5,175
6.9,-1.35,131
6.9,-1.2,131
6.9,-1.05,138
6.9,-0.9,102
6.9,-0.75,88
6.9,-0.6,66
6.9,-0.45,80
6.9,-0.3,73
6.9,-0.15,30
6.9,0.0,73
6.9,0.15,51
6.9,0.3,59
6.9,0.45,44
6.9,0.6,44
6.9,0.75,37
6.9,0.9,30
6.9,1.05,30
6.9,1.2,51
6.9,1.35,51
6.9,1.5,51
7.05,-1.5,138
7.05,-1.35,138
7.05,-1.2,138
7.05,-1.05,131
7.05,-0.9,102
7.05,-0.75,80
7.05,-0.6,66
7.05,-0.45,37
7.05,-0.3,37
7.05,-0.15,15
7.05,0.0,15
7.05,0.15,37
7.05,0.3,51
7.05,0.45,44
7.05,0.6,73
7.05,0.75,73
7.05,0.9,59
7.05,1.05,59
7.05,1.2,59
7.05,1.35,37
7.05,1.5,37
7.2,-1.5,138
7.2,-1.35,138
7.2,-1.2,138
7.2,-1.05,131
7.2,-0.9,109
7.2,-0.75,109
7.2,-0.6,117
7.2,-0.45,95
7.2,-0.3,37
7.2,-0.15,15
7.2,0.0,15
7.2,0.15,51
7.2,0.3,102
7.2,0.45,109
7.2,0.6,80
7.2,0.75,80
7.2,0.9,80
7.2,1.05,73
7.2,1.2,30
7.2,1.35,30
7.2,1.5,30
7.35,-1.5,138
7.35,-1.35,138
7.35,-1.2,131
7.35,-1.05,131
7.35,-0.9,138
7.35,-0.75,146
7.35,-0.6,153
7.35,-0.45,30
7.35,-0.3,0
7.35,-0.15,37
7.35,0.0,59
7.35,0.15,124
7.35,0.3,102
7.35,0.45,109
7.35,0.6,109
7.35,0.75,73
7.35,0.9,80
7.35,1.05,80
7.35,1.2,80
7.35,1.35,66
7.35,1.5,59
7.5,-1.5,124
7.5,-1.35,124
7.5,-1.2,124
7.5,-1.05,124
7.5,-0.9,131
7.5,-0.75,131
7.5,-0.6,124
7.5,-0.45,73
7.5,-0.3,8
7.5,-0.15,22
7.5,0.0,22
7.5,0.15,95
7.5,0.3,117
7.5,0.45,117
7.5,0.6,88
7.5,0.75,80
7.5,0.9,73
7.5,1.05,66
7.5,1.2,66
7.5,1.35,66
7.5,1.5,66
7.65,-1.5,59
7.65,-1.35,59
7.65,-1.2,73
7.65,-1.05,73
7.65,-0.9,109
7.65,-0.75,102
7.65,-0.6,80
7.65,-0.45,80
7.65,-0.3,59
7.65,-0.15,44
7.65,0.0,37
7.65,0.15,59
7.65,0.3,117
7.65,0.45,95
7.65,0.6,95
7.65,0.75,88
7.65,0.9,66
7.65,1.05,66
7.65,1.2,66
7.65,1.35,66
7.65,1.5,66
7.8,-1.5,30
7.8,-1.35,59
7.8,-1.2,51
7.8,-1.05,51
7.8,-0.9,80
7.8,-0.75,88
7.8,-0.6,66
7.8,-0.45,37
7.8,-0.3,66
7.8,-0.15,59
7.8,0.0,66
7.8,0.15,44
7.8,0.3,30
7.8,0.45,37
7.8,0.6,15
7.8,0.75,44
7.8,0.9,44
7.8,1.05,44
7.8,1.2,73
7.8,1.35,73
7.8,1.5,95
7.95,-1.5,22
7.95,-1.35,22
7.95,-1.2,51
7.95,-1.05,59
7.95,-0.9,30
7.95,-0.75,59
7.95,-0.6,66
7.95,-0.45,51
7.95,-0.3,59
7.95,-0.15,95
7.95,0.0,66
7.95,0.15,30
7.95,0.3,22
7.95,0.45,30
7.95,0.6,44
7.95,0.75,44
7.95,0.9,73
7.95,1.05,73
7.95,1.2,66
7.95,1.35,66
7.95,1.5,95
8.1,-1.5,51
8.1,-1.35,51
8.1,-1.2,51
8.1,-1.05,59
8.1,-0.9,59
8.1,-0.75,59
8.1,-0.6,30
8.1,-0.45,73
8.1,-0.3,88
8.1,-0.15,95
8.1,0.0,37
8.1,0.15,22
8.1,0.3,15
8.1,0.45,22
8.1,0.6,51
8.1,0.75,73
8.1,0.9,73
8.1,1.05,73
8.1,1.2,95
8.1,1.35,95
8.1,1.5,95
8.25,-1.5,30
8.25,-1.35,59
8.25,-1.2,59
8.25,-1.05,59
8.25,-0.9,59
8.25,-0.75,44
8.25,-0.6,51
8.25,-0.45,30
8.25,-0.3,37
8.25,-0.15,88
8.25,0.0,73
8.25,0.15,37
8.25,0.3,37
8.25,0.45,59
8.25,0.6,73
8.25,0.75,73
8.25,0.9,102
8.25,1.05,102
8.25,1.2,102
8.25,1.35,103
8.25,1.5,103
8.4,-1.5,30
8.4,-1.35,30
8.4,-1.2,37
8.4,-1.05,37
8.4,-0.9,66
8.4,-0.75,66
8.4,-0.6,95
8.4,-0.45,80
8.4,-0.3,15
8.4,-0.15,30
8.4,0.0,59
8.4,0.15,73
8.4,0.3,66
8.4,0.45,51
8.4,0.6,66
8.4,0.75,102
8.4,0.9,102
8.4,1.05,102
8.4,1.2,102
8.4,1.35,103
8.4,1.5,95
8.55,-1.5,59
8.55,-1.35,44
8.55,-1.2,66
8.55,-1.05,66
8.55,-0.9,66
8.55,-0.75,102
8.55,-0.6,117
8.55,-0.45,102
8.55,-0.3,51
8.55,-0.15,109
8.55,0.0,131
8.55,0.15,66
8.55,0.3,59
8.55,0.45,59
8.55,0.6,88
8.55,0.75,95
8.55,0.9,95
8.55,1.05,95
8.55,1.2,95
8.55,1.35,95
8.55,1.5,95
8.7,-1.5,59
8.7,-1.35,37
8.7,-1.2,66
8.7,-1.05,59
8.7,-0.9,44
8.7,-0.75,88
8.7,-0.6,88
8.7,-0.45,88
8.7,-0.3,59
8.7,-0.15,160
8.7,0.0,131
8.7,0.15,66
8.7,0.3,59
8.7,0.45,59
8.7,0.6,88
8.7,0.75,88
8.7,0.9,88
8.7,1.05,95
8.7,1.2,95
8.7,1.35,95
8.7,1.5,95
8.85,-1.5,30
8.85,-1.35,37
8.85,-1.2,37
8.85,-1.05,37
8.85,-0.9,66
8.85,-0.75,66
8.85,-0.6,109
8.85,-0.45,80
8.85,-0.3,44
8.85,-0.15,95
8.85,0.0,80
8.85,0.15,51
8.85,0.3,22
8.85,0.45,51
8.85,0.6,52
8.85,0.75,81
8.85,0.9,81
8.85,1.05,81
8.85,1.2,88
8.85,1.35,88
8.85,1.5,88
9.0,-1.5,30
9.0,-1.35,30
9.0,-1.2,37
9.0,-1.05,51
9.0,-0.9,88
9.0,-0.75,73
9.0,-0.6,95
9.0,-0.45,95
9.0,-0.3,73
9.0,-0.15,80
9.0,0.0,95
9.0,0.15,95
9.0,0.3,73
9.0,0.45,124
9.0,0.6,131
9.0,0.75,102
9.0,0.9,124
9.0,1.05,88
9.0,1.2,81
9.0,1.35,81
9.0,1.5,81
9.15,-1.5,102
9.15,-1.35,73
9.15,-1.2,102
9.15,-1.05,102
9.15,-0.9,80
9.15,-0.75,80
9.15,-0.6,73
9.15,-0.45,66
9.15,-0.3,59
9.15,-0.15,51
9.15,0.0,160
9.15,0.15,117
9.15,0.3,88
9.15,0.45,117
9.15,0.6,73
9.15,0.75,102
9.15,0.9,66
9.15,1.05,88
9.15,1.2,88
9.15,1.35,88
9.15,1.5,88
9.3,-1.5,102
9.3,-1.35,102
9.3,-1.2,102
9.3,-1.05,102
9.3,-0.9,102
9.3,-0.75,102
9.3,-0.6,124
9.3,-0.45,80
9.3,-0.3,8
9.3,-0.15,51
9.3,0.0,44
9.3,0.15,102
9.3,0.3,73
9.3,0.45,117
9.3,0.6,117
9.3,0.75,109
9.3,0.9,117
9.3,1.05,66
9.3,1.2,95
9.3,1.35,95
9.3,1.5,88
9.45,-1.5,95
9.45,-1.35,95
9.45,-1.2,95
9.45,-1.05,95
9.45,-0.9,117
9.45,-0.75,131
9.45,-0.6,131
9.45,-0.45,80
9.45,-0.3,59
9.45,-0.15,59
9.45,0.0,73
9.45,0.15,37
9.45,0.3,30
9.45,0.45,59
9.45,0.6,80
9.45,0.75,81
9.45,0.9,66
9.45,1.05,66
9.45,1.2,88
9.45,1.35,88
9.45,1.5,117
9.6,-1.5,80
9.6,-1.35,95
9.6,-1.2,95
9.6,-1.05,138
9.6,-0.9,153
9.6,-0.75,160
9.6,-0.6,124
9.6,-0.45,102
9.6,-0.3,124
9.6,-0.15,139
9.6,0.0,73
9.6,0.15,73
9.6,0.3,44
9.6,0.45,44
9.6,0.6,44
9.6,0.75,66
9.6,0.9,66
9.6,1.05,66
9.6,1.2,66
9.6,1.35,66
9.6,1.5,66
9.75,-1.5,51
9.75,-1.35,51
9.75,-1.2,124
9.75,-1.05,124
9.75,-0.9,124
9.75,-0.75,146
9.75,-0.6,138
9.75,-0.45,117
9.75,-0.3,131
9.75,-0.15,146
9.75,0.0,95
9.75,0.15,80
9.75,0.3,88
9.75,0.45,44
9.75,0.6,44
9.75,0.75,44
9.75,0.9,44
9.75,1.05,66
9.75,1.2,66
9.75,1.35,66
9.75,1.5,66
9.9,-1.5,95
9.9,-1.35,95
9.9,-1.2,124
9.9,-1.05,124
9.9,-0.9,109
9.9,-0.75,109
9.9,-0.6,109
9.9,-0.45,117
9.9,-0.3,146
9.9,-0.15,102
9.9,0.0,73
9.9,0.15,80
9.9,0.3,73
9.9,0.45,51
9.9,0.6,51
9.9,0.75,44
9.9,0.9,44
9.9,1.05,44
9.9,1.2,66
9.9,1.35,66
9.9,1.5,66
10.05,-1.5,95
10.05,-1.35,124
10.05,-1.2,109
10.05,-1.05,109
10.05,-0.9,109
10.05,-0.75,117
10.05,-0.6,131
10.05,-0.45,117
10.05,-0.3,95
10.05,-0.15,117
10.05,0.0,95
10.05,0.15,73
10.05,0.3,51
10.05,0.45,51
10.05,0.6,51
10.05,0.75,51
10.05,0.9,51
10.05,1.05,51
10.05,1.2,51
10.05,1.35,51
10.05,1.5,66
10.2,-1.5,109
10.2,-1.35,109
10.2,-1.2,109
10.2,-1.05,88
10.2,-0.9,117
10.2,-0.75,95
10.2,-0.6,73
10.2,-0.45,95
10.2,-0.3,102
10.2,-0.15,95
10.2,0.0,88
10.2,0.15,59
10.2,0.3,51
10.2,0.45,59
10.2,0.6,59
10.2,0.75,59
10.2,0.9,59
10.2,1.05,59
10.2,1.2,59
10.2,1.35,59
10.2,1.5,59
10.35,-1.5,117
10.35,-1.35,117
10.35,-1.2,117
10.35,-1.05,117
10.35,-0.9,117
10.35,-0.75,117
10.35,-0.6,88
10.35,-0.45,95
10.35,-0.3,109
10.35,-0.15,88
10.35,0.0,51
10.35,0.15,66
10.35,0.3,37
10.35,0.45,37
10.35,0.6,59
10.35,0.75,59
10.35,0.9,59
10.35,1.05,59
10.35,1.2,59
10.35,1.35,59
10.35,1.5,51
10.5,-1.5,124
10.5,-1.35,117
10.5,-1.2,117
10.5,-1.05,117
10.5,-0.9,117
10.5,-0.75,117
10.5,-0.6,117
10.5,-0.45,109
10.5,-0.3,109
10.5,-0.15,73
10.5,0.0,59
10.5,0.15,22
10.5,0.3,22
10.5,0.45,15
10.5,0.6,30
10.5,0.75,22
10.5,0.9,22
10.5,1.05,22
10.5,1.2,22
10.5,1.35,22
10.5,1.5,51
10.65,-1.5,124
10.65,-1.35,124
10.65,-1.2,124
10.65,-1.05,124
10.65,-0.9,117
10.65,-0.75,117
10.65,-0.6,117
10.65,-0.45,117
10.65,-0.3,109
10.65,-0.15,51
10.65,0.0,8
10.65,0.15,22
10.65,0.3,15
10.65,0.45,15
10.65,0.6,15
10.65,0.75,15
10.65,0.9,22
10.65,1.05,22
10.65,1.2,22
10.65,1.35,22
10.65,1.5,22
10.8,-1.5,175
10.8,-1.35,175
10.8,-1.2,160
10.8,-1.05,160
10.8,-0.9,153
10.8,-0.75,124
10.8,-0.6,131
10.8,-0.45,131
10.8,-0.3,102
10.8,-0.15,80
10.8,0.0,59
10.8,0.15,51
10.8,0.3,30
10.8,0.45,37
10.8,0.6,37
10.8,0.75,37
10.8,0.9,8
10.8,1.05,8
10.8,1.2,37
10.8,1.35,44
10.8,1.5,44
10.95,-1.5,153
10.95,-1.35,153
10.95,-1.2,175
10.95,-1.05,175
10.95,-0.9,146
10.95,-0.75,160
10.95,-0.6,168
10.95,-0.45,160
10.95,-0.3,109
10.95,-0.15,88
10.95,0.0,73
10.95,0.15,51
10.95,0.3,51
10.95,0.45,30
10.95,0.6,30
10.95,0.75,30
10.95,0.9,30
10.95,1.05,37
10.95,1.2,44
10.95,1.35,44
10.95,1.5,44
11.1,-1.5,153
11.1,-1.35,153
11.1,-1.2,153
11.1,-1.05,153
11.1,-0.9,153
11.1,-0.75,153
11.1,-0.6,124
11.1,-0.45,109
11.1,-0.3,102
11.1,-0.15,88
11.1,0.0,73
11.1,0.15,80
11.1,0.3,51
11.1,0.45,51
11.1,0.6,51
11.1,0.75,66
11.1,0.9,73
11.1,1.05,73
11.1,1.2,73
11.1,1.35,44
11.1,1.5,44
11.25,-1.5,153
11.25,-1.35,153
11.25,-1.2,153
11.25,-1.05,95
11.25,-0.9,102
11.25,-0.75,102
11.25,-0.6,124
11.25,-0.45,117
11.25,-0.3,117
11.25,-0.15,117
11.25,0.0,102
11.25,0.15,73
11.25,0.3,80
11.25,0.45,51
11.25,0.6,66
11.25,0.75,66
11.25,0.9,66
11.25,1.05,66
11.25,1.2,44
11.25,1.35,44
11.25,1.5,44
11.4,-1.5,110
11.4,-1.35,110
11.4,-1.2,110
11.4,-1.05,88
11.4,-0.9,88
11.4,-0.75,73
11.4,-0.6,80
11.4,-0.45,102
11.4,-0.3,66
11.4,-0.15,102
11.4,0.0,102
11.4,0.15,102
11.4,0.3,80
11.4,0.45,51
11.4,0.6,59
11.4,0.75,59
11.4,0.9,59
11.4,1.05,59
11.4,1.2,66
11.4,1.35,44
11.4,1.5,44
11.55,-1.5,124
11.55,-1.35,124
11.55,-1.2,124
11.55,-1.05,88
11.55,-0.9,73
11.55,-0.75,73
11.55,-0.6,66
11.55,-0.45,66
11.55,-0.3,37
11.55,-0.15,73
11.55,0.0,37
11.55,0.15,73
11.55,0.3,80
11.55,0.45,51
11.55,0.6,51
11.55,0.75,51
11.55,0.9,59
11.55,1.05,59
11.55,1.2,59
11.55,1.35,30
11.55,1.5,30
11.7,-1.5,124
11.7,-1.35,124
11.7,-1.2,124
11.7,-1.05,124
11.7,-0.9,124
11.7,-0.75,73
11.7,-0.6,59
11.7,-0.45,30
11.7,-0.3,30
11.7,-0.15,15
11.7,0.0,15
11.7,0.15,73
11.7,0.3,51
11.7,0.45,51
11.7,0.6,80
11.7,0.75,80
11.7,0.9,80
11.7,1.05,80
11.7,1.2,80
11.7,1.35,51
11.7,1.5,51
11.85,-1.5,131
11.85,-1.35,131
11.85,-1.2,124
11.85,-1.05,124
11.85,-0.9,95
11.85,-0.75,95
11.85,-0.6,66
11.85,-0.45,59
11.85,-0.3,59
11.85,-0.15,22
11.85,0.0,44
11.85,0.15,51
11.85,0.3,51
11.85,0.45,80
11.85,0.6,80
11.85,0.75,80
11.85,0.9,80
11.85,1.05,80
11.85,1.2,51
11.85,1.35,51
11.85,1.5,51
12.0,-1.5,124
12.0,-1.35,124
12.0,-1.2,124
12.0,-1.05,124
12.0,-0.9,117
12.0,-0.75,88
12.0,-0.6,80
12.0,-0.45,80
12.0,-0.3,37
12.0,-0.15,59
12.0,0.0,30
12.0,0.15,59
12.0,0.3,51
12.0,0.45,51
12.0,0.6,52
12.0,0.75,52
12.0,0.9,51
12.0,1.05,51
12.0,1.2,51
12.0,1.35,51
12.0,1.5,51
12.15,-1.5,124
12.15,-1.35,124
12.15,-1.2,117
12.15,-1.05,117
12.15,-0.9,110
12.15,-0.75,110
12.15,-0.6,110
12.15,-0.45,102
12.15,-0.3,66
12.15,-0.15,37
12.15,0.0,73
12.15,0.15,59
12.15,0.3,51
12.15,0.45,51
12.15,0.6,52
12.15,0.75,52
12.15,0.9,51
12.15,1.05,51
12.15,1.2,51
12.15,1.35,51
12.15,1.5,51
12.3,-1.5,117
12.3,-1.35,117
12.3,-1.2,117
12.3,-1.05,124
12.3,-0.9,124
12.3,-0.75,117
12.3,-0.6,110
12.3,-0.45,110
12.3,-0.3,66
12.3,-0.15,95
12.3,0.0,66
12.3,0.15,66
12.3,0.3,59
12.3,0.45,59
12.3,0.6,59
12.3,0.75,51
12.3,0.9,51
12.3,1.05,51
12.3,1.2,51
12.3,1.35,51
12.3,1.5,51
12.45,-1.5,117
12.45,-1.35,117
12.45,-1.2,117
12.45,-1.05,117
12.45,-0.9,117
12.45,-0.75,131
12.45,-0.6,131
12.45,-0.45,131
12.45,-0.3,124
12.45,-0.15,109
12.45,0.0,102
12.45,0.15,51
12.45,0.3,73
12.45,0.45,73
12.45,0.6,73
12.45,0.75,66
12.45,0.9,66
12.45,1.05,66
12.45,1.2,66
12.45,1.35,66
12.45,1.5,51
12.6,-1.5,117
12.6,-1.35,131
12.6,-1.2,131
12.6,-1.05,131
12.6,-0.9,131
12.6,-0.75,131
12.6,-0.6,131
12.6,-0.45,131
12.6,-0.3,131
12.6,-0.15,109
12.6,0.0,102
12.6,0.15,102
12.6,0.3,80
12.6,0.45,73
12.6,0.6,73
12.6,0.75,73
12.6,0.9,66
12.6,1.05,66
12.6,1.2,66
12.6,1.35,66
12.6,1.5,66
12.75,-1.5,131
12.75,-1.35,131
12.75,-1.2,131
12.75,-1.05,131
12.75,-0.9,131
12.75,-0.75,131
12.75,-0.6,131
12.75,-0.45,131
12.75,-0.3,117
12.75,-0.15,117
12.75,0.0,102
12.75,0.15,102
12.75,0.3,80
12.75,0.45,109
12.75,0.6,73
12.75,0.75,73
12.75,0.9,73
12.75,1.05,66
12.75,1.2,66
12.75,1.35,66
12.75,1.5,66
12.9,-1.5,131
12.9,-1.35,131
12.9,-1.2,131
12.9,-1.05,131
12.9,-0.9,131
12.9,-0.75,131
12.9,-0.6,102
12.9,-0.45,131
12.9,-0.3,117
12.9,-0.15,117
12.9,0.0,109
12.9,0.15,80
12.9,0.3,80
12.9,0.45,80
12.9,0.6,102
12.9,0.75,73
12.9,0.9,73
12.9,1.05,73
12.9,1.2,73
12.9,1.35,66
12.9,1.5,66
13.05,-1.5,131
13.05,-1.35,131
13.05,-1.2,131
13.05,-1.05,131
13.05,-0.9,131
13.05,-0.75,131
13.05,-0.6,131
13.05,-0.45,131
13.05,-0.3,117
13.05,-0.15,117
13.05,0.0,109
13.05,0.15,109
13.05,0.3,80
13.05,0.45,80
13.05,0.6,102
13.05,0.75,73
13.05,0.9,73
13.05,1.05,73
13.05,1.2,73
13.05,1.35,73
13.05,1.5,73
