-3.0,-1.5,125
-3.0,-1.35,115
-3.0,-1.2,116
-3.0,-1.05,117
-3.0,-0.9,118
-3.0,-0.75,120
-3.0,-0.6,133
-3.0,-0.45,134
-3.0,-0.3,135
-3.0,-0.15,136
-3.0,0.0,137
-3.0,0.15,137
-3.0,0.3,138
-3.0,0.45,139
-3.0,0.6,140
-3.0,0.75,141
-3.0,0.9,142
-3.0,1.05,143
-3.0,1.2,143
-3.0,1.35,144
-3.0,1.5,145
-2.85,-1.5,124
-2.85,-1.35,126
-2.85,-1.2,116
-2.85,-1.05,118
-2.85,-0.9,119
-2.85,-0.75,120
-2.85,-0.6,128
-2.85,-0.45,135
-2.85,-0.3,136
-2.85,-0.15,137
-2.85,0.0,138
-2.85,0.15,138
-2.85,0.3,139
-2.85,0.45,140
-2.85,0.6,141
-2.85,0.75,142
-2.85,0.9,143
-2.85,1.05,144
-2.85,1.2,144
-2.85,1.35,145
-2.85,1.5,154
-2.7,-1.5,124
-2.7,-1.35,126
-2.7,-1.2,127
-2.7,-1.05,129
-2.7,-0.9,119
-2.7,-0.75,120
-2.7,-0.6,129
-2.7,-0.45,136
-2.7,-0.3,137
-2.7,-0.15,138
-2.7,0.0,139
-2.7,0.15,139
-2.7,0.3,140
-2.7,0.45,141
-2.7,0.6,142
-2.7,0.75,143
-2.7,0.9,144
-2.7,1.05,144
-2.7,1.2,154
-2.7,1.35,154
-2.7,1.5,154
-2.55,-1.5,123
-2.55,-1.35,125
-2.55,-1.2,127
-2.55,-1.05,129
-2.55,-0.9,131
-2.55,-0.75,133
-2.55,-0.6,129
-2.55,-0.45,137
-2.55,-0.3,138
-2.55,-0.15,139
-2.55,0.0,139
-2.55,0.15,140
-2.55,0.3,141
-2.55,0.45,142
-2.55,0.6,143
-2.55,0.75,144
-2.55,0.9,154
-2.55,1.05,154
-2.55,1.2,154
-2.55,1.35,154
-2.55,1.5,154
-2.4,-1.5,123
-2.4,-1.35,125
-2.4,-1.2,127
-2.4,-1.05,128
-2.4,-0.9,130
-2.4,-0.75,132
-2.4,-0.6,134
-2.4,-0.45,131
-2.4,-0.3,139
-2.4,-0.15,140
-2.4,0.0,140
-2.4,0.15,141
-2.4,0.3,142
-2.4,0.45,143
-2.4,0.6,153
-2.4,0.75,153
-2.4,0.9,154
-2.4,1.05,154
-2.4,1.2,154
-2.4,1.35,154
-2.4,1.5,161
-2.25,-1.5,122
-2.25,-1.35,124
-2.25,-1.2,126
-2.25,-1.05,128
-2.25,-0.9,130
-2.25,-0.75,132
-2.25,-0.6,134
-2.25,-0.45,149
-2.25,-0.3,151
-2.25,-0.15,141
-2.25,0.0,141
-2.25,0.15,142
-2.25,0.3,153
-2.25,0.45,153
-2.25,0.6,153
-2.25,0.75,154
-2.25,0.9,154
-2.25,1.05,154
-2.25,1.2,154
-2.25,1.35,161
-2.25,1.5,161
-2.1,-1.5,122
-2.1,-1.35,124
-2.1,-1.2,126
-2.1,-1.05,128
-2.1,-0.9,129
-2.1,-0.75,131
-2.1,-0.6,133
-2.1,-0.45,149
-2.1,-0.3,151
-2.1,-0.15,153
-2.1,0.0,154
-2.1,0.15,153
-2.1,0.3,153
-2.1,0.45,153
-2.1,0.6,153
-2.1,0.75,154
-2.1,0.9,154
-2.1,1.05,154
-2.1,1.2,154
-2.1,1.35,161
-2.1,1.5,162
-1.95,-1.5,121
-1.95,-1.35,123
-1.95,-1.2,125
-1.95,-1.05,127
-1.95,-0.9,129
-1.95,-0.75,131
-1.95,-0.6,133
-1.95,-0.45,150
-1.95,-0.3,151
-1.95,-0.15,153
-1.95,0.0,159
-1.95,0.15,153
-1.95,0.3,153
-1.95,0.45,153
-1.95,0.6,154
-1.95,0.75,154
-1.95,0.9,154
-1.95,1.05,154
-1.95,1.2,162
-1.95,1.35,162
-1.95,1.5,162
-1.8,-1.5,121
-1.8,-1.35,123
-1.8,-1.2,125
-1.8,-1.05,127
-1.8,-0.9,129
-1.8,-0.75,130
-1.8,-0.6,132
-1.8,-0.45,154
-1.8,-0.3,155
-1.8,-0.15,156
-1.8,0.0,157
-1.8,0.15,159
-1.8,0.3,174
-1.8,0.45,154
-1.8,0.6,154
-1.8,0.75,154
-1.8,0.9,154
-1.8,1.05,162
-1.8,1.2,162
-1.8,1.35,162
-1.8,1.5,162
-1.65,-1.5,69
-1.65,-1.35,116
-1.65,-1.2,118
-1.65,-1.05,120
-1.65,-0.9,128
-1.65,-0.75,135
-1.65,-0.6,136
-1.65,-0.45,153
-1.65,-0.3,154
-1.65,-0.15,155
-1.65,0.0,156
-1.65,0.15,157
-1.65,0.3,174
-1.65,0.45,175
-1.65,0.6,176
-1.65,0.75,154
-1.65,0.9,154
-1.65,1.05,162
-1.65,1.2,162
-1.65,1.35,162
-1.65,1.5,162
-1.5,-1.5,68
-1.5,-1.35,70
-1.5,-1.2,119
-1.5,-1.05,174
-1.5,-0.9,175
-1.5,-0.75,177
-1.5,-0.6,178
-1.5,-0.45,147
-1.5,-0.3,148
-1.5,-0.15,154
-1.5,0.0,155
-1.5,0.15,172
-1.5,0.3,173
-1.5,0.45,174
-1.5,0.6,175
-1.5,0.75,176
-1.5,0.9,162
-1.5,1.05,162
-1.5,1.2,162
-1.5,1.35,162
-1.5,1.5,162
-1.35,-1.5,68
-1.35,-1.35,122
-1.35,-1.2,123
-1.35,-1.05,124
-1.35,-0.9,125
-1.35,-0.75,175
-1.35,-0.6,177
-1.35,-0.45,178
-1.35,-0.3,146
-1.35,-0.15,196
-1.35,0.0,197
-1.35,0.15,166
-1.35,0.3,167
-1.35,0.45,168
-1.35,0.6,174
-1.35,0.75,168
-1.35,0.9,212
-1.35,1.05,162
-1.35,1.2,162
-1.35,1.35,162
-1.35,1.5,162
-1.2,-1.5,79
-1.2,-1.35,80
-1.2,-1.2,81
-1.2,-1.05,124
-1.2,-0.9,125
-1.2,-0.75,134
-1.2,-0.6,143
-1.2,-0.45,144
-1.2,-0.3,144
-1.2,-0.15,196
-1.2,0.0,207
-1.2,0.15,207
-1.2,0.3,208
-1.2,0.45,209
-1.2,0.6,210
-1.2,0.75,210
-1.2,0.9,211
-1.2,1.05,212
-1.2,1.2,212
-1.2,1.35,207
-1.2,1.5,206
-1.05,-1.5,80
-1.05,-1.35,80
-1.05,-1.2,81
-1.05,-1.05,82
-1.05,-0.9,82
-1.05,-0.75,83
-1.05,-0.6,135
-1.05,-0.45,145
-1.05,-0.3,153
-1.05,-0.15,154
-1.05,0.0,205
-1.05,0.15,206
-1.05,0.3,207
-1.05,0.45,208
-1.05,0.6,208
-1.05,0.75,209
-1.05,0.9,210
-1.05,1.05,211
-1.05,1.2,211
-1.05,1.35,212
-1.05,1.5,206
-0.9,-1.5,72
-0.9,-1.35,73
-0.9,-1.2,73
-0.9,-1.05,74
-0.9,-0.9,74
-0.9,-0.75,75
-0.9,-0.6,91
-0.9,-0.45,109
-0.9,-0.3,109
-0.9,-0.15,109
-0.9,0.0,154
-0.9,0.15,155
-0.9,0.3,206
-0.9,0.45,206
-0.9,0.6,207
-0.9,0.75,208
-0.9,0.9,209
-0.9,1.05,214
-0.9,1.2,214
-0.9,1.35,214
-0.9,1.5,214
-0.75,-1.5,97
-0.75,-1.35,97
-0.75,-1.2,98
-0.75,-1.05,74
-0.75,-0.9,74
-0.75,-0.75,75
-0.75,-0.6,76
-0.75,-0.45,92
-0.75,-0.3,110
-0.75,-0.15,110
-0.75,0.0,111
-0.75,0.15,111
-0.75,0.3,111
-0.75,0.45,163
-0.75,0.6,214
-0.75,0.75,255
-0.75,0.9,214
-0.75,1.05,214
-0.75,1.2,214
-0.75,1.35,214
-0.75,1.5,214
-0.6,-1.5,137
-0.6,-1.35,138
-0.6,-1.2,98
-0.6,-1.05,99
-0.6,-0.9,100
-0.6,-0.75,100
-0.6,-0.6,76
-0.6,-0.45,76
-0.6,-0.3,110
-0.6,-0.15,111
-0.6,0.0,111
-0.6,0.15,112
-0.6,0.3,161
-0.6,0.45,161
-0.6,0.6,168
-0.6,0.75,192
-0.6,0.9,192
-0.6,1.05,214
-0.6,1.2,214
-0.6,1.35,214
-0.6,1.5,214
-0.45,-1.5,139
-0.45,-1.35,139
-0.45,-1.2,139
-0.45,-1.05,140
-0.45,-0.9,141
-0.45,-0.75,151
-0.45,-0.6,151
-0.45,-0.45,119
-0.45,-0.3,102
-0.45,-0.15,153
-0.45,0.0,111
-0.45,0.15,145
-0.45,0.3,162
-0.45,0.45,195
-0.45,0.6,194
-0.45,0.75,193
-0.45,0.9,193
-0.45,1.05,193
-0.45,1.2,193
-0.45,1.35,193
-0.45,1.5,193
-0.3,-1.5,163
-0.3,-1.35,199
-0.3,-1.2,199
-0.3,-1.05,199
-0.3,-0.9,175
-0.3,-0.75,176
-0.3,-0.6,185
-0.3,-0.45,186
-0.3,-0.3,187
-0.3,-0.15,203
-0.3,0.0,228
-0.3,0.15,229
-0.3,0.3,229
-0.3,0.45,187
-0.3,0.6,187
-0.3,0.75,195
-0.3,0.9,194
-0.3,1.05,194
-0.3,1.2,194
-0.3,1.35,194
-0.3,1.5,193
-0.15,-1.5,173
-0.15,-1.35,199
-0.15,-1.2,199
-0.15,-1.05,200
-0.15,-0.9,175
-0.15,-0.75,201
-0.15,-0.6,218
-0.15,-0.45,219
-0.15,-0.3,187
-0.15,-0.15,238
-0.15,0.0,254
-0.15,0.15,229
-0.15,0.3,229
-0.15,0.45,229
-0.15,0.6,228
-0.15,0.75,228
-0.15,0.9,235
-0.15,1.05,234
-0.15,1.2,234
-0.15,1.35,234
-0.15,1.5,193
0.0,-1.5,198
0.0,-1.35,198
0.0,-1.2,200
0.0,-1.05,201
0.0,-0.9,201
0.0,-0.75,176
0.0,-0.6,177
0.0,-0.45,194
0.0,-0.3,195
0.0,-0.15,212
0.0,0.0,221
0.0,0.15,204
0.0,0.3,204
0.0,0.45,229
0.0,0.6,229
0.0,0.75,229
0.0,0.9,228
0.0,1.05,255
0.0,1.2,219
0.0,1.35,225
0.0,1.5,185
0.15,-1.5,198
0.15,-1.35,199
0.15,-1.2,200
0.15,-1.05,202
0.15,-0.9,202
0.15,-0.75,203
0.15,-0.6,219
0.15,-0.45,220
0.15,-0.3,238
0.15,-0.15,221
0.15,0.0,221
0.15,0.15,221
0.15,0.3,204
0.15,0.45,229
0.15,0.6,229
0.15,0.75,236
0.15,0.9,243
0.15,1.05,242
0.15,1.2,161
0.15,1.35,161
0.15,1.5,161
0.3,-1.5,183
0.3,-1.35,200
0.3,-1.2,201
0.3,-1.05,201
0.3,-0.9,203
0.3,-0.75,203
0.3,-0.6,178
0.3,-0.45,229
0.3,-0.3,238
0.3,-0.15,247
0.3,0.0,230
0.3,0.15,213
0.3,0.3,229
0.3,0.45,188
0.3,0.6,203
0.3,0.75,203
0.3,0.9,162
0.3,1.05,162
0.3,1.2,162
0.3,1.35,153
0.3,1.5,161
0.45,-1.5,151
0.45,-1.35,151
0.45,-1.2,151
0.45,-1.05,169
0.45,-0.9,169
0.45,-0.75,170
0.45,-0.6,221
0.45,-0.45,220
0.45,-0.3,230
0.45,-0.15,230
0.45,0.0,230
0.45,0.15,187
0.45,0.3,187
0.45,0.45,196
0.45,0.6,195
0.45,0.75,162
0.45,0.9,162
0.45,1.05,153
0.45,1.2,161
0.45,1.35,160
0.45,1.5,162
0.6,-1.5,143
0.6,-1.35,143
0.6,-1.2,143
0.6,-1.05,161
0.6,-0.9,153
0.6,-0.75,153
0.6,-0.6,179
0.6,-0.45,230
0.6,-0.3,230
0.6,-0.15,230
0.6,0.0,213
0.6,0.15,179
0.6,0.3,187
0.6,0.45,153
0.6,0.6,162
0.6,0.75,162
0.6,0.9,153
0.6,1.05,153
0.6,1.2,179
0.6,1.35,162
0.6,1.5,162
0.75,-1.5,94
0.75,-1.35,144
0.75,-1.2,145
0.75,-1.05,145
0.75,-0.9,162
0.75,-0.75,171
0.75,-0.6,163
0.75,-0.45,162
0.75,-0.3,162
0.75,-0.15,162
0.75,0.0,136
0.75,0.15,136
0.75,0.3,136
0.75,0.45,120
0.75,0.6,120
0.75,0.75,119
0.75,0.9,127
0.75,1.05,145
0.75,1.2,145
0.75,1.35,145
0.75,1.5,145
0.9,-1.5,136
0.9,-1.35,136
0.9,-1.2,112
0.9,-1.05,112
0.9,-0.9,121
0.9,-0.75,87
0.9,-0.6,86
0.9,-0.45,111
0.9,-0.3,85
0.9,-0.15,85
0.9,0.0,77
0.9,0.15,77
0.9,0.3,111
0.9,0.45,111
0.9,0.6,111
0.9,0.75,129
0.9,0.9,129
0.9,1.05,129
0.9,1.2,129
0.9,1.35,144
0.9,1.5,144
1.05,-1.5,103
1.05,-1.35,111
1.05,-1.2,113
1.05,-1.05,113
1.05,-0.9,121
1.05,-0.75,87
1.05,-0.6,86
1.05,-0.45,77
1.05,-0.3,111
1.05,-0.15,85
1.05,0.0,102
1.05,0.15,94
1.05,0.3,93
1.05,0.45,85
1.05,0.6,86
1.05,0.75,86
1.05,0.9,86
1.05,1.05,78
1.05,1.2,128
1.05,1.35,86
1.05,1.5,86
1.2,-1.5,138
1.2,-1.35,138
1.2,-1.2,112
1.2,-1.05,112
1.2,-0.9,112
1.2,-0.75,112
1.2,-0.6,52
1.2,-0.45,51
1.2,-0.3,34
1.2,-0.15,60
1.2,0.0,85
1.2,0.15,85
1.2,0.3,85
1.2,0.45,111
1.2,0.6,110
1.2,0.75,110
1.2,0.9,78
1.2,1.05,86
1.2,1.2,86
1.2,1.35,86
1.2,1.5,78
1.35,-1.5,112
1.35,-1.35,104
1.35,-1.2,112
1.35,-1.05,112
1.35,-0.9,111
1.35,-0.75,86
1.35,-0.6,60
1.35,-0.45,85
1.35,-0.3,34
1.35,-0.15,51
1.35,0.0,43
1.35,0.15,43
1.35,0.3,68
1.35,0.45,69
1.35,0.6,69
1.35,0.75,69
1.35,0.9,45
1.35,1.05,45
1.35,1.2,53
1.35,1.35,53
1.35,1.5,61
1.5,-1.5,112
1.5,-1.35,112
1.5,-1.2,120
1.5,-1.05,120
1.5,-0.9,128
1.5,-0.75,94
1.5,-0.6,77
1.5,-0.45,43
1.5,-0.3,43
1.5,-0.15,51
1.5,0.0,43
1.5,0.15,60
1.5,0.3,85
1.5,0.45,85
1.5,0.6,52
1.5,0.75,45
1.5,0.9,61
1.5,1.05,61
1.5,1.2,61
1.5,1.35,61
1.5,1.5,53
1.65,-1.5,120
1.65,-1.35,120
1.65,-1.2,120
1.65,-1.05,94
1.65,-0.9,94
1.65,-0.75,86
1.65,-0.6,94
1.65,-0.45,77
1.65,-0.3,85
1.65,-0.15,51
1.65,0.0,34
1.65,0.15,43
1.65,0.3,60
1.65,0.45,60
1.65,0.6,69
1.65,0.75,52
1.65,0.9,45
1.65,1.05,45
1.65,1.2,45
1.65,1.35,45
1.65,1.5,45
1.8,-1.5,119
1.8,-1.35,101
1.8,-1.2,110
1.8,-1.05,102
1.8,-0.9,102
1.8,-0.75,102
1.8,-0.6,77
1.8,-0.45,68
1.8,-0.3,60
1.8,-0.15,51
1.8,0.0,85
1.8,0.15,26
1.8,0.3,60
1.8,0.45,52
1.8,0.6,45
1.8,0.75,45
1.8,0.9,45
1.8,1.05,45
1.8,1.2,45
1.8,1.35,45
1.8,1.5,45
1.95,-1.5,92
1.95,-1.35,93
1.95,-1.2,93
1.95,-1.05,102
1.95,-0.9,111
1.95,-0.75,102
1.95,-0.6,94
1.95,-0.45,85
1.95,-0.3,43
1.95,-0.15,68
1.95,0.0,60
1.95,0.15,43
1.95,0.3,60
1.95,0.45,52
1.95,0.6,52
1.95,0.75,52
1.95,0.9,52
1.95,1.05,45
1.95,1.2,45
1.95,1.35,45
1.95,1.5,45
2.1,-1.5,68
2.1,-1.35,59
2.1,-1.2,60
2.1,-1.05,60
2.1,-0.9,60
2.1,-0.75,77
2.1,-0.6,85
2.1,-0.45,85
2.1,-0.3,77
2.1,-0.15,77
2.1,0.0,51
2.1,0.15,51
2.1,0.3,51
2.1,0.45,77
2.1,0.6,60
2.1,0.75,45
2.1,0.9,45
2.1,1.05,45
2.1,1.2,45
2.1,1.35,53
2.1,1.5,45
2.25,-1.5,26
2.25,-1.35,26
2.25,-1.2,26
2.25,-1.05,26
2.25,-0.9,59
2.25,-0.75,59
2.25,-0.6,68
2.25,-0.45,94
2.25,-0.3,85
2.25,-0.15,94
2.25,0.0,68
2.25,0.15,43
2.25,0.3,43
2.25,0.45,68
2.25,0.6,69
2.25,0.75,69
2.25,0.9,69
2.25,1.05,61
2.25,1.2,53
2.25,1.35,53
2.25,1.5,43
2.4,-1.5,25
2.4,-1.35,25
2.4,-1.2,26
2.4,-1.05,26
2.4,-0.9,26
2.4,-0.75,51
2.4,-0.6,51
2.4,-0.45,60
2.4,-0.3,85
2.4,-0.15,68
2.4,0.0,60
2.4,0.15,17
2.4,0.3,17
2.4,0.45,17
2.4,0.6,26
2.4,0.75,43
2.4,0.9,43
2.4,1.05,43
2.4,1.2,43
2.4,1.35,43
2.4,1.5,63
2.55,-1.5,49
2.55,-1.35,59
2.55,-1.2,59
2.55,-1.05,84
2.55,-0.9,76
2.55,-0.75,68
2.55,-0.6,85
2.55,-0.45,102
2.55,-0.3,102
2.55,-0.15,0
2.55,0.0,34
2.55,0.15,43
2.55,0.3,43
2.55,0.45,34
2.55,0.6,34
2.55,0.75,60
2.55,0.9,87
2.55,1.05,78
2.55,1.2,79
2.55,1.35,104
2.55,1.5,61
2.7,-1.5,33
2.7,-1.35,50
2.7,-1.2,50
2.7,-1.05,68
2.7,-0.9,93
2.7,-0.75,85
2.7,-0.6,85
2.7,-0.45,102
2.7,-0.3,85
2.7,-0.15,26
2.7,0.0,68
2.7,0.15,68
2.7,0.3,34
2.7,0.45,34
2.7,0.6,85
2.7,0.75,85
2.7,0.9,76
2.7,1.05,76
2.7,1.2,68
2.7,1.35,94
2.7,1.5,94
2.85,-1.5,50
2.85,-1.35,50
2.85,-1.2,50
2.85,-1.05,50
2.85,-0.9,84
2.85,-0.75,111
2.85,-0.6,111
2.85,-0.45,119
2.85,-0.3,77
2.85,-0.15,51
2.85,0.0,68
2.85,0.15,77
2.85,0.3,94
2.85,0.45,77
2.85,0.6,77
2.85,0.75,68
2.85,0.9,68
2.85,1.05,60
2.85,1.2,58
2.85,1.35,50
2.85,1.5,50
3.0,-1.5,42
3.0,-1.35,17
3.0,-1.2,17
3.0,-1.05,17
3.0,-0.9,42
3.0,-0.75,85
3.0,-0.6,94
3.0,-0.45,85
3.0,-0.3,111
3.0,-0.15,94
3.0,0.0,77
3.0,0.15,85
3.0,0.3,85
3.0,0.45,68
3.0,0.6,68
3.0,0.75,60
3.0,0.9,51
3.0,1.05,51
3.0,1.2,42
3.0,1.35,50
3.0,1.5,50
3.15,-1.5,75
3.15,-1.35,75
3.15,-1.2,50
3.15,-1.05,51
3.15,-0.9,51
3.15,-0.75,51
3.15,-0.6,34
3.15,-0.45,43
3.15,-0.3,85
3.15,-0.15,85
3.15,0.0,68
3.15,0.15,77
3.15,0.3,68
3.15,0.45,60
3.15,0.6,51
3.15,0.75,51
3.15,0.9,42
3.15,1.05,42
3.15,1.2,42
3.15,1.35,42
3.15,1.5,42
3.3,-1.5,75
3.3,-1.35,109
3.3,-1.2,118
3.3,-1.05,85
3.3,-0.9,51
3.3,-0.75,51
3.3,-0.6,60
3.3,-0.45,51
3.3,-0.3,85
3.3,-0.15,102
3.3,0.0,43
3.3,0.15,17
3.3,0.3,51
3.3,0.45,43
3.3,0.6,43
3.3,0.75,34
3.3,0.9,34
3.3,1.05,42
3.3,1.2,42
3.3,1.35,42
3.3,1.5,50
3.45,-1.5,109
3.45,-1.35,110
3.45,-1.2,110
3.45,-1.05,119
3.45,-0.9,119
3.45,-0.75,102
3.45,-0.6,60
3.45,-0.45,9
3.45,-0.3,68
3.45,-0.15,111
3.45,0.0,68
3.45,0.15,9
3.45,0.3,26
3.45,0.45,94
3.45,0.6,76
3.45,0.75,76
3.45,0.9,76
3.45,1.05,67
3.45,1.2,75
3.45,1.35,101
3.45,1.5,101
3.6,-1.5,102
3.6,-1.35,102
3.6,-1.2,102
3.6,-1.05,102
3.6,-0.9,102
3.6,-0.75,102
3.6,-0.6,111
3.6,-0.45,43
3.6,-0.3,43
3.6,-0.15,102
3.6,0.0,94
3.6,0.15,51
3.6,0.3,43
3.6,0.45,60
3.6,0.6,60
3.6,0.75,60
3.6,0.9,60
3.6,1.05,118
3.6,1.2,118
3.6,1.35,101
3.6,1.5,101
3.75,-1.5,126
3.75,-1.35,126
3.75,-1.2,127
3.75,-1.05,161
3.75,-0.9,161
3.75,-0.75,170
3.75,-0.6,162
3.75,-0.45,111
3.75,-0.3,111
3.75,-0.15,94
3.75,0.0,102
3.75,0.15,136
3.75,0.3,85
3.75,0.45,85
3.75,0.6,76
3.75,0.75,85
3.75,0.9,85
3.75,1.05,85
3.75,1.2,85
3.75,1.35,85
3.75,1.5,85
3.9,-1.5,126
3.9,-1.35,151
3.9,-1.2,152
3.9,-1.05,152
3.9,-0.9,161
3.9,-0.75,161
3.9,-0.6,179
3.9,-0.45,111
3.9,-0.3,68
3.9,-0.15,51
3.9,0.0,85
3.9,0.15,77
3.9,0.3,85
3.9,0.45,85
3.9,0.6,111
3.9,0.75,102
3.9,0.9,110
3.9,1.05,102
3.9,1.2,68
3.9,1.35,52
3.9,1.5,52
4.05,-1.5,84
4.05,-1.35,84
4.05,-1.2,84
4.05,-1.05,118
4.05,-0.9,93
4.05,-0.75,128
4.05,-0.6,136
4.05,-0.45,77
4.05,-0.3,94
4.05,-0.15,68
4.05,0.0,60
4.05,0.15,34
4.05,0.3,68
4.05,0.45,94
4.05,0.6,60
4.05,0.75,60
4.05,0.9,52
4.05,1.05,85
4.05,1.2,85
4.05,1.35,85
4.05,1.5,85
4.2,-1.5,84
4.2,-1.35,118
4.2,-1.2,118
4.2,-1.05,118
4.2,-0.9,110
4.2,-0.75,76
4.2,-0.6,85
4.2,-0.45,94
4.2,-0.3,145
4.2,-0.15,102
4.2,0.0,43
4.2,0.15,60
4.2,0.3,34
4.2,0.45,136
4.2,0.6,120
4.2,0.75,119
4.2,0.9,118
4.2,1.05,118
4.2,1.2,118
4.2,1.35,118
4.2,1.5,85
4.35,-1.5,86
4.35,-1.35,84
4.35,-1.2,85
4.35,-1.05,85
4.35,-0.9,85
4.35,-0.75,119
4.35,-0.6,51
4.35,-0.45,68
4.35,-0.3,34
4.35,-0.15,162
4.35,0.0,43
4.35,0.15,34
4.35,0.3,68
4.35,0.45,119
4.35,0.6,120
4.35,0.75,102
4.35,0.9,85
4.35,1.05,85
4.35,1.2,85
4.35,1.35,85
4.35,1.5,85
4.5,-1.5,52
4.5,-1.35,52
4.5,-1.2,60
4.5,-1.05,43
4.5,-0.9,68
4.5,-0.75,51
4.5,-0.6,77
4.5,-0.45,111
4.5,-0.3,43
4.5,-0.15,77
4.5,0.0,43
4.5,0.15,51
4.5,0.3,77
4.5,0.45,85
4.5,0.6,86
4.5,0.75,86
4.5,0.9,52
4.5,1.05,52
4.5,1.2,52
4.5,1.35,52
4.5,1.5,60
4.65,-1.5,61
4.65,-1.35,61
4.65,-1.2,69
4.65,-1.05,69
4.65,-0.9,51
4.65,-0.75,68
4.65,-0.6,94
4.65,-0.45,60
4.65,-0.3,145
4.65,-0.15,43
4.65,0.0,43
4.65,0.15,77
4.65,0.3,60
4.65,0.45,60
4.65,0.6,60
4.65,0.75,61
4.65,0.9,94
4.65,1.05,52
4.65,1.2,60
4.65,1.35,60
4.65,1.5,60
4.8,-1.5,61
4.8,-1.35,61
4.8,-1.2,77
4.8,-1.05,111
4.8,-0.9,119
4.8,-0.75,94
4.8,-0.6,60
4.8,-0.45,68
4.8,-0.3,85
4.8,-0.15,85
4.8,0.0,43
4.8,0.15,26
4.8,0.3,60
4.8,0.45,60
4.8,0.6,85
4.8,0.75,86
4.8,0.9,86
4.8,1.05,86
4.8,1.2,52
4.8,1.35,52
4.8,1.5,43
4.95,-1.5,103
4.95,-1.35,102
4.95,-1.2,86
4.95,-1.05,77
4.95,-0.9,102
4.95,-0.75,85
4.95,-0.6,102
4.95,-0.45,34
4.95,-0.3,34
4.95,-0.15,34
4.95,0.0,68
4.95,0.15,60
4.95,0.3,17
4.95,0.45,77
4.95,0.6,85
4.95,0.75,111
4.95,0.9,137
4.95,1.05,52
4.95,1.2,52
4.95,1.35,10
4.95,1.5,42
5.1,-1.5,102
5.1,-1.35,102
5.1,-1.2,94
5.1,-1.05,102
5.1,-0.9,136
5.1,-0.75,136
5.1,-0.6,51
5.1,-0.45,34
5.1,-0.3,60
5.1,-0.15,68
5.1,0.0,85
5.1,0.15,102
5.1,0.3,111
5.1,0.45,60
5.1,0.6,51
5.1,0.75,42
5.1,0.9,43
5.1,1.05,77
5.1,1.2,77
5.1,1.35,77
5.1,1.5,68
5.25,-1.5,85
5.25,-1.35,85
5.25,-1.2,85
5.25,-1.05,85
5.25,-0.9,85
5.25,-0.75,94
5.25,-0.6,43
5.25,-0.45,34
5.25,-0.3,68
5.25,-0.15,0
5.25,0.0,51
5.25,0.15,102
5.25,0.3,128
5.25,0.45,127
5.25,0.6,102
5.25,0.75,76
5.25,0.9,75
5.25,1.05,75
5.25,1.2,93
5.25,1.35,101
5.25,1.5,101
5.4,-1.5,85
5.4,-1.35,85
5.4,-1.2,85
5.4,-1.05,77
5.4,-0.9,77
5.4,-0.75,68
5.4,-0.6,85
5.4,-0.45,51
5.4,-0.3,43
5.4,-0.15,34
5.4,0.0,26
5.4,0.15,111
5.4,0.3,161
5.4,0.45,127
5.4,0.6,110
5.4,0.75,109
5.4,0.9,109
5.4,1.05,108
5.4,1.2,108
5.4,1.35,74
5.4,1.5,92
5.55,-1.5,93
5.55,-1.35,60
5.55,-1.2,52
5.55,-1.05,60
5.55,-0.9,43
5.55,-0.75,51
5.55,-0.6,68
5.55,-0.45,111
5.55,-0.3,153
5.55,-0.15,51
5.55,0.0,26
5.55,0.15,60
5.55,0.3,68
5.55,0.45,59
5.55,0.6,68
5.55,0.75,109
5.55,0.9,109
5.55,1.05,108
5.55,1.2,108
5.55,1.35,107
5.55,1.5,107
5.7,-1.5,51
5.7,-1.35,51
5.7,-1.2,60
5.7,-1.05,34
5.7,-0.9,34
5.7,-0.75,26
5.7,-0.6,60
5.7,-0.45,85
5.7,-0.3,77
5.7,-0.15,94
5.7,0.0,102
5.7,0.15,43
5.7,0.3,128
5.7,0.45,102
5.7,0.6,109
5.7,0.75,109
5.7,0.9,109
5.7,1.05,109
5.7,1.2,108
5.7,1.35,106
5.7,1.5,73
5.85,-1.5,59
5.85,-1.35,25
5.85,-1.2,25
5.85,-1.05,17
5.85,-0.9,17
5.85,-0.75,68
5.85,-0.6,136
5.85,-0.45,128
5.85,-0.3,26
5.85,-0.15,26
5.85,0.0,60
5.85,0.15,94
5.85,0.3,68
5.85,0.45,42
5.85,0.6,42
5.85,0.75,42
5.85,0.9,42
5.85,1.05,41
5.85,1.2,41
5.85,1.35,40
5.85,1.5,40
6.0,-1.5,51
6.0,-1.35,68
6.0,-1.2,34
6.0,-1.05,34
6.0,-0.9,9
6.0,-0.75,26
6.0,-0.6,85
6.0,-0.45,102
6.0,-0.3,60
6.0,-0.15,26
6.0,0.0,94
6.0,0.15,51
6.0,0.3,85
6.0,0.45,68
6.0,0.6,118
6.0,0.75,118
6.0,0.9,100
6.0,1.05,100
6.0,1.2,116
6.0,1.35,115
6.0,1.5,114
6.15,-1.5,67
6.15,-1.35,68
6.15,-1.2,68
6.15,-1.05,68
6.15,-0.9,94
6.15,-0.75,68
6.15,-0.6,51
6.15,-0.45,102
6.15,-0.3,43
6.15,-0.15,51
6.15,0.0,77
6.15,0.15,17
6.15,0.3,94
6.15,0.45,94
6.15,0.6,85
6.15,0.75,76
6.15,0.9,75
6.15,1.05,75
6.15,1.2,74
6.15,1.35,66
6.15,1.5,74
6.3,-1.5,85
6.3,-1.35,85
6.3,-1.2,77
6.3,-1.05,77
6.3,-0.9,77
6.3,-0.75,77
6.3,-0.6,51
6.3,-0.45,77
6.3,-0.3,0
6.3,-0.15,94
6.3,0.0,0
6.3,0.15,85
6.3,0.3,128
6.3,0.45,128
6.3,0.6,85
6.3,0.75,84
6.3,0.9,84
6.3,1.05,75
6.3,1.2,75
6.3,1.35,74
6.3,1.5,74
6.45,-1.5,60
6.45,-1.35,60
6.45,-1.2,52
6.45,-1.05,60
6.45,-0.9,60
6.45,-0.75,60
6.45,-0.6,26
6.45,-0.45,94
6.45,-0.3,17
6.45,-0.15,102
6.45,0.0,77
6.45,0.15,153
6.45,0.3,136
6.45,0.45,127
6.45,0.6,136
6.45,0.75,126
6.45,0.9,109
6.45,1.05,109
6.45,1.2,83
6.45,1.35,83
6.45,1.5,74
6.6,-1.5,77
6.6,-1.35,77
6.6,-1.2,51
6.6,-1.05,51
6.6,-0.9,68
6.6,-0.75,68
6.6,-0.6,9
6.6,-0.45,34
6.6,-0.3,17
6.6,-0.15,68
6.6,0.0,119
6.6,0.15,111
6.6,0.3,102
6.6,0.45,111
6.6,0.6,119
6.6,0.75,118
6.6,0.9,117
6.6,1.05,67
6.6,1.2,66
6.6,1.35,93
6.6,1.5,92
6.75,-1.5,60
6.75,-1.35,60
6.75,-1.2,60
6.75,-1.05,60
6.75,-0.9,85
6.75,-0.75,68
6.75,-0.6,111
6.75,-0.45,9
6.75,-0.3,111
6.75,-0.15,85
6.75,0.0,51
6.75,0.15,51
6.75,0.3,17
6.75,0.45,34
6.75,0.6,34
6.75,0.75,84
6.75,0.9,86
6.75,1.05,85
6.75,1.2,85
6.75,1.35,84
6.75,1.5,84
6.9,-1.5,77
6.9,-1.35,94
6.9,-1.2,94
6.9,-1.05,94
6.9,-0.9,60
6.9,-0.75,51
6.9,-0.6,68
6.9,-0.45,77
6.9,-0.3,85
6.9,-0.15,43
6.9,0.0,17
6.9,0.15,26
6.9,0.3,0
6.9,0.45,0
6.9,0.6,84
6.9,0.75,85
6.9,0.9,85
6.9,1.05,84
6.9,1.2,84
6.9,1.35,75
6.9,1.5,75
7.05,-1.5,52
7.05,-1.35,77
7.05,-1.2,77
7.05,-1.05,51
7.05,-0.9,60
7.05,-0.75,34
7.05,-0.6,9
7.05,-0.45,51
7.05,-0.3,17
7.05,-0.15,60
7.05,0.0,51
7.05,0.15,51
7.05,0.3,102
7.05,0.45,110
7.05,0.6,144
7.05,0.75,110
7.05,0.9,110
7.05,1.05,110
7.05,1.2,110
7.05,1.35,109
7.05,1.5,109
7.2,-1.5,86
7.2,-1.35,85
7.2,-1.2,85
7.2,-1.05,85
7.2,-0.9,85
7.2,-0.75,102
7.2,-0.6,94
7.2,-0.45,77
7.2,-0.3,153
7.2,-0.15,162
7.2,0.0,34
7.2,0.15,102
7.2,0.3,111
7.2,0.45,162
7.2,0.6,136
7.2,0.75,135
7.2,0.9,135
7.2,1.05,110
7.2,1.2,118
7.2,1.35,118
7.2,1.5,93
7.35,-1.5,103
7.35,-1.35,111
7.35,-1.2,111
7.35,-1.05,94
7.35,-0.9,68
7.35,-0.75,68
7.35,-0.6,17
7.35,-0.45,17
7.35,-0.3,43
7.35,-0.15,43
7.35,0.0,0
7.35,0.15,111
7.35,0.3,153
7.35,0.45,162
7.35,0.6,153
7.35,0.75,128
7.35,0.9,127
7.35,1.05,127
7.35,1.2,93
7.35,1.35,93
7.35,1.5,43
7.5,-1.5,103
7.5,-1.35,103
7.5,-1.2,103
7.5,-1.05,103
7.5,-0.9,102
7.5,-0.75,68
7.5,-0.6,26
7.5,-0.45,111
7.5,-0.3,17
7.5,-0.15,9
7.5,0.0,43
7.5,0.15,0
7.5,0.3,77
7.5,0.45,111
7.5,0.6,111
7.5,0.75,111
7.5,0.9,102
7.5,1.05,102
7.5,1.2,52
7.5,1.35,43
7.5,1.5,43
7.65,-1.5,52
7.65,-1.35,44
7.65,-1.2,26
7.65,-1.05,18
7.65,-0.9,18
7.65,-0.75,0
7.65,-0.6,0
7.65,-0.45,9
7.65,-0.3,51
7.65,-0.15,43
7.65,0.0,43
7.65,0.15,26
7.65,0.3,9
7.65,0.45,52
7.65,0.6,52
7.65,0.75,52
7.65,0.9,52
7.65,1.05,60
7.65,1.2,60
7.65,1.35,68
7.65,1.5,43
7.8,-1.5,1
7.8,-1.35,1
7.8,-1.2,1
7.8,-1.05,35
7.8,-0.9,35
7.8,-0.75,26
7.8,-0.6,85
7.8,-0.45,0
7.8,-0.3,0
7.8,-0.15,94
7.8,0.0,34
7.8,0.15,0
7.8,0.3,17
7.8,0.45,43
7.8,0.6,60
7.8,0.75,60
7.8,0.9,60
7.8,1.05,60
7.8,1.2,60
7.8,1.35,60
7.8,1.5,60
7.95,-1.5,27
7.95,-1.35,35
7.95,-1.2,35
7.95,-1.05,60
7.95,-0.9,26
7.95,-0.75,34
7.95,-0.6,85
7.95,-0.45,0
7.95,-0.3,9
7.95,-0.15,51
7.95,0.0,34
7.95,0.15,68
7.95,0.3,68
7.95,0.45,34
7.95,0.6,60
7.95,0.75,60
7.95,0.9,76
7.95,1.05,76
7.95,1.2,76
7.95,1.35,76
7.95,1.5,43
8.1,-1.5,61
8.1,-1.35,61
8.1,-1.2,60
8.1,-1.05,26
8.1,-0.9,26
8.1,-0.75,0
8.1,-0.6,60
8.1,-0.45,60
8.1,-0.3,0
8.1,-0.15,77
8.1,0.0,43
8.1,0.15,77
8.1,0.3,34
8.1,0.45,34
8.1,0.6,34
8.1,0.75,51
8.1,0.9,85
8.1,1.05,76
8.1,1.2,76
8.1,1.35,50
8.1,1.5,43
8.25,-1.5,162
8.25,-1.35,95
8.25,-1.2,95
8.25,-1.05,60
8.25,-0.9,43
8.25,-0.75,9
8.25,-0.6,17
8.25,-0.45,68
8.25,-0.3,94
8.25,-0.15,60
8.25,0.0,77
8.25,0.15,60
8.25,0.3,85
8.25,0.45,43
8.25,0.6,76
8.25,0.75,59
8.25,0.9,59
8.25,1.05,58
8.25,1.2,101
8.25,1.35,101
8.25,1.5,67
8.4,-1.5,204
8.4,-1.35,204
8.4,-1.2,170
8.4,-1.05,136
8.4,-0.9,69
8.4,-0.75,43
8.4,-0.6,26
8.4,-0.45,111
8.4,-0.3,77
8.4,-0.15,0
8.4,0.0,0
8.4,0.15,68
8.4,0.3,51
8.4,0.45,51
8.4,0.6,51
8.4,0.75,34
8.4,0.9,42
8.4,1.05,50
8.4,1.2,50
8.4,1.35,93
8.4,1.5,120
8.55,-1.5,204
8.55,-1.35,204
8.55,-1.2,204
8.55,-1.05,204
8.55,-0.9,204
8.55,-0.75,187
8.55,-0.6,119
8.55,-0.45,9
8.55,-0.3,119
8.55,-0.15,85
8.55,0.0,0
8.55,0.15,43
8.55,0.3,51
8.55,0.45,43
8.55,0.6,42
8.55,0.75,51
8.55,0.9,51
8.55,1.05,94
8.55,1.2,94
8.55,1.35,94
8.55,1.5,93
8.7,-1.5,187
8.7,-1.35,187
8.7,-1.2,187
8.7,-1.05,187
8.7,-0.9,153
8.7,-0.75,179
8.7,-0.6,77
8.7,-0.45,0
8.7,-0.3,26
8.7,-0.15,43
8.7,0.0,0
8.7,0.15,26
8.7,0.3,43
8.7,0.45,85
8.7,0.6,76
8.7,0.75,128
8.7,0.9,120
8.7,1.05,119
8.7,1.2,119
8.7,1.35,119
8.7,1.5,119
8.85,-1.5,179
8.85,-1.35,179
8.85,-1.2,179
8.85,-1.05,153
8.85,-0.9,145
8.85,-0.75,128
8.85,-0.6,136
8.85,-0.45,17
8.85,-0.3,43
8.85,-0.15,17
8.85,0.0,51
8.85,0.15,43
8.85,0.3,43
8.85,0.45,68
8.85,0.6,128
8.85,0.75,120
8.85,0.9,120
8.85,1.05,120
8.85,1.2,87
8.85,1.35,87
8.85,1.5,87
9.0,-1.5,179
9.0,-1.35,178
9.0,-1.2,178
9.0,-1.05,153
9.0,-0.9,153
9.0,-0.75,153
9.0,-0.6,187
9.0,-0.45,145
9.0,-0.3,68
9.0,-0.15,51
9.0,0.0,43
9.0,0.15,34
9.0,0.3,34
9.0,0.45,94
9.0,0.6,94
9.0,0.75,95
9.0,0.9,95
9.0,1.05,95
9.0,1.2,87
9.0,1.35,104
9.0,1.5,105
9.15,-1.5,153
9.15,-1.35,153
9.15,-1.2,153
9.15,-1.05,119
9.15,-0.9,119
9.15,-0.75,128
9.15,-0.6,187
9.15,-0.45,51
9.15,-0.3,43
9.15,-0.15,60
9.15,0.0,34
9.15,0.15,43
9.15,0.3,102
9.15,0.45,94
9.15,0.6,94
9.15,0.75,120
9.15,0.9,138
9.15,1.05,112
9.15,1.2,104
9.15,1.35,113
9.15,1.5,113
9.3,-1.5,144
9.3,-1.35,144
9.3,-1.2,153
9.3,-1.05,153
9.3,-0.9,196
9.3,-0.75,204
9.3,-0.6,179
9.3,-0.45,162
9.3,-0.3,51
9.3,-0.15,153
9.3,0.0,136
9.3,0.15,85
9.3,0.3,120
9.3,0.45,120
9.3,0.6,120
9.3,0.75,120
9.3,0.9,120
9.3,1.05,121
9.3,1.2,121
9.3,1.35,113
9.3,1.5,122
9.45,-1.5,229
9.45,-1.35,204
9.45,-1.2,204
9.45,-1.05,178
9.45,-0.9,221
9.45,-0.75,230
9.45,-0.6,204
9.45,-0.45,60
9.45,-0.3,34
9.45,-0.15,128
9.45,0.0,221
9.45,0.15,145
9.45,0.3,170
9.45,0.45,170
9.45,0.6,129
9.45,0.75,129
9.45,0.9,121
9.45,1.05,121
9.45,1.2,121
9.45,1.35,122
9.45,1.5,122
9.6,-1.5,170
9.6,-1.35,170
9.6,-1.2,136
9.6,-1.05,136
9.6,-0.9,136
9.6,-0.75,179
9.6,-0.6,204
9.6,-0.45,111
9.6,-0.3,43
9.6,-0.15,60
9.6,0.0,136
9.6,0.15,94
9.6,0.3,119
9.6,0.45,170
9.6,0.6,171
9.6,0.75,171
9.6,0.9,137
9.6,1.05,138
9.6,1.2,130
9.6,1.35,130
9.6,1.5,130
9.75,-1.5,94
9.75,-1.35,94
9.75,-1.2,94
9.75,-1.05,85
9.75,-0.9,85
9.75,-0.75,85
9.75,-0.6,43
9.75,-0.45,43
9.75,-0.3,77
9.75,-0.15,68
9.75,0.0,51
9.75,0.15,128
9.75,0.3,128
9.75,0.45,179
9.75,0.6,171
9.75,0.75,171
9.75,0.9,171
9.75,1.05,138
9.75,1.2,130
9.75,1.35,130
9.75,1.5,130
9.9,-1.5,94
9.9,-1.35,94
9.9,-1.2,94
9.9,-1.05,94
9.9,-0.9,68
9.9,-0.75,43
9.9,-0.6,9
9.9,-0.45,26
9.9,-0.3,77
9.9,-0.15,102
9.9,0.0,60
9.9,0.15,102
9.9,0.3,103
9.9,0.45,136
9.9,0.6,170
9.9,0.75,145
9.9,0.9,145
9.9,1.05,145
9.9,1.2,145
9.9,1.35,138
9.9,1.5,137
10.05,-1.5,93
10.05,-1.35,60
10.05,-1.2,60
10.05,-1.05,60
10.05,-0.9,60
10.05,-0.75,26
10.05,-0.6,43
10.05,-0.45,60
10.05,-0.3,85
10.05,-0.15,136
10.05,0.0,136
10.05,0.15,136
10.05,0.3,102
10.05,0.45,102
10.05,0.6,102
10.05,0.75,145
10.05,0.9,120
10.05,1.05,120
10.05,1.2,121
10.05,1.35,121
10.05,1.5,121
10.2,-1.5,43
10.2,-1.35,76
10.2,-1.2,68
10.2,-1.05,26
10.2,-0.9,34
10.2,-0.75,43
10.2,-0.6,68
10.2,-0.45,51
10.2,-0.3,102
10.2,-0.15,179
10.2,0.0,153
10.2,0.15,102
10.2,0.3,77
10.2,0.45,111
10.2,0.6,111
10.2,0.75,111
10.2,0.9,102
10.2,1.05,119
10.2,1.2,121
10.2,1.35,120
10.2,1.5,120
10.35,-1.5,35
10.35,-1.35,35
10.35,-1.2,26
10.35,-1.05,26
10.35,-0.9,17
10.35,-0.75,17
10.35,-0.6,9
10.35,-0.45,51
10.35,-0.3,128
10.35,-0.15,136
10.35,0.0,153
10.35,0.15,127
10.35,0.3,127
10.35,0.45,102
10.35,0.6,136
10.35,0.75,110
10.35,0.9,110
10.35,1.05,85
10.35,1.2,85
10.35,1.35,85
10.35,1.5,128
10.5,-1.5,1
10.5,-1.35,1
10.5,-1.2,34
10.5,-1.05,34
10.5,-0.9,26
10.5,-0.75,9
10.5,-0.6,17
10.5,-0.45,0
10.5,-0.3,102
10.5,-0.15,128
10.5,0.0,153
10.5,0.15,152
10.5,0.3,118
10.5,0.45,93
10.5,0.6,93
10.5,0.75,92
10.5,0.9,84
10.5,1.05,102
10.5,1.2,103
10.5,1.35,104
10.5,1.5,129
10.65,-1.5,9
10.65,-1.35,9
10.65,-1.2,1
10.65,-1.05,1
10.65,-0.9,0
10.65,-0.75,0
10.65,-0.6,26
10.65,-0.45,68
10.65,-0.3,145
10.65,-0.15,153
10.65,0.0,136
10.65,0.15,127
10.65,0.3,85
10.65,0.45,85
10.65,0.6,119
10.65,0.75,110
10.65,0.9,110
10.65,1.05,110
10.65,1.2,86
10.65,1.35,86
10.65,1.5,86
10.8,-1.5,26
10.8,-1.35,26
10.8,-1.2,26
10.8,-1.05,0
10.8,-0.9,9
10.8,-0.75,0
10.8,-0.6,77
10.8,-0.45,119
10.8,-0.3,111
10.8,-0.15,145
10.8,0.0,102
10.8,0.15,111
10.8,0.3,127
10.8,0.45,103
10.8,0.6,103
10.8,0.75,110
10.8,0.9,110
10.8,1.05,110
10.8,1.2,110
10.8,1.35,110
10.8,1.5,86
10.95,-1.5,61
10.95,-1.35,26
10.95,-1.2,18
10.95,-1.05,18
10.95,-0.9,17
10.95,-0.75,51
10.95,-0.6,77
10.95,-0.45,128
10.95,-0.3,136
10.95,-0.15,170
10.95,0.0,162
10.95,0.15,162
10.95,0.3,153
10.95,0.45,127
10.95,0.6,136
10.95,0.75,110
10.95,0.9,110
10.95,1.05,110
10.95,1.2,110
10.95,1.35,86
10.95,1.5,86
11.1,-1.5,44
11.1,-1.35,44
11.1,-1.2,44
11.1,-1.05,44
11.1,-0.9,43
11.1,-0.75,94
11.1,-0.6,85
11.1,-0.45,162
11.1,-0.3,137
11.1,-0.15,170
11.1,0.0,187
11.1,0.15,162
11.1,0.3,161
11.1,0.45,136
11.1,0.6,111
11.1,0.75,110
11.1,0.9,110
11.1,1.05,110
11.1,1.2,110
11.1,1.35,78
11.1,1.5,86
11.25,-1.5,95
11.25,-1.35,95
11.25,-1.2,95
11.25,-1.05,145
11.25,-0.9,145
11.25,-0.75,162
11.25,-0.6,162
11.25,-0.45,170
11.25,-0.3,153
11.25,-0.15,153
11.25,0.0,179
11.25,0.15,162
11.25,0.3,128
11.25,0.45,136
11.25,0.6,136
11.25,0.75,126
11.25,0.9,103
11.25,1.05,103
11.25,1.2,103
11.25,1.35,103
11.25,1.5,103
11.4,-1.5,145
11.4,-1.35,146
11.4,-1.2,146
11.4,-1.05,212
11.4,-0.9,213
11.4,-0.75,213
11.4,-0.6,213
11.4,-0.45,247
11.4,-0.3,255
11.4,-0.15,230
11.4,0.0,153
11.4,0.15,128
11.4,0.3,128
11.4,0.45,136
11.4,0.6,136
11.4,0.75,178
11.4,0.9,178
11.4,1.05,178
11.4,1.2,178
11.4,1.35,145
11.4,1.5,131
11.55,-1.5,195
11.55,-1.35,178
11.55,-1.2,178
11.55,-1.05,179
11.55,-0.9,212
11.55,-0.75,255
11.55,-0.6,255
11.55,-0.45,255
11.55,-0.3,238
11.55,-0.15,212
11.55,0.0,204
11.55,0.15,170
11.55,0.3,136
11.55,0.45,154
11.55,0.6,179
11.55,0.75,179
11.55,0.9,145
11.55,1.05,145
11.55,1.2,145
11.55,1.35,133
11.55,1.5,133
11.7,-1.5,228
11.7,-1.35,236
11.7,-1.2,237
11.7,-1.05,247
11.7,-0.9,247
11.7,-0.75,204
11.7,-0.6,255
11.7,-0.45,255
11.7,-0.3,230
11.7,-0.15,178
11.7,0.0,136
11.7,0.15,221
11.7,0.3,255
11.7,0.45,220
11.7,0.6,170
11.7,0.75,170
11.7,0.9,146
11.7,1.05,146
11.7,1.2,133
11.7,1.35,133
11.7,1.5,132
11.85,-1.5,237
11.85,-1.35,255
11.85,-1.2,229
11.85,-1.05,222
11.85,-0.9,222
11.85,-0.75,222
11.85,-0.6,239
11.85,-0.45,238
11.85,-0.3,204
11.85,-0.15,128
11.85,0.0,213
11.85,0.15,212
11.85,0.3,212
11.85,0.45,246
11.85,0.6,203
11.85,0.75,203
11.85,0.9,170
11.85,1.05,134
11.85,1.2,133
11.85,1.35,133
11.85,1.5,132
12.0,-1.5,250
12.0,-1.35,251
12.0,-1.2,255
12.0,-1.05,248
12.0,-0.9,239
12.0,-0.75,239
12.0,-0.6,205
12.0,-0.45,221
12.0,-0.3,153
12.0,-0.15,187
12.0,0.0,204
12.0,0.15,212
12.0,0.3,212
12.0,0.45,212
12.0,0.6,212
12.0,0.75,170
12.0,0.9,170
12.0,1.05,165
12.0,1.2,133
12.0,1.35,132
12.0,1.5,132
12.15,-1.5,242
12.15,-1.35,243
12.15,-1.2,228
12.15,-1.05,205
12.15,-0.9,239
12.15,-0.75,205
12.15,-0.6,154
12.15,-0.45,153
12.15,-0.3,153
12.15,-0.15,153
12.15,0.0,153
12.15,0.15,153
12.15,0.3,137
12.15,0.45,128
12.15,0.6,128
12.15,0.75,161
12.15,0.9,101
12.15,1.05,132
12.15,1.2,132
12.15,1.35,131
12.15,1.5,131
12.3,-1.5,185
12.3,-1.35,186
12.3,-1.2,161
12.3,-1.05,163
12.3,-0.9,137
12.3,-0.75,128
12.3,-0.6,162
12.3,-0.45,162
12.3,-0.3,162
12.3,-0.15,179
12.3,0.0,136
12.3,0.15,128
12.3,0.3,120
12.3,0.45,128
12.3,0.6,128
12.3,0.75,92
12.3,0.9,124
12.3,1.05,101
12.3,1.2,101
12.3,1.35,130
12.3,1.5,130
12.45,-1.5,184
12.45,-1.35,160
12.45,-1.2,160
12.45,-1.05,160
12.45,-0.9,129
12.45,-0.75,128
12.45,-0.6,179
12.45,-0.45,179
12.45,-0.3,179
12.45,-0.15,145
12.45,0.0,170
12.45,0.15,137
12.45,0.3,146
12.45,0.45,137
12.45,0.6,145
12.45,0.75,109
12.45,0.9,109
12.45,1.05,108
12.45,1.2,101
12.45,1.35,101
12.45,1.5,101
12.6,-1.5,159
12.6,-1.35,159
12.6,-1.2,160
12.6,-1.05,160
12.6,-0.9,179
12.6,-0.75,170
12.6,-0.6,170
12.6,-0.45,170
12.6,-0.3,170
12.6,-0.15,119
12.6,0.0,145
12.6,0.15,145
12.6,0.3,170
12.6,0.45,170
12.6,0.6,134
12.6,0.75,109
12.6,0.9,108
12.6,1.05,108
12.6,1.2,107
12.6,1.35,107
12.6,1.5,107
12.75,-1.5,150
12.75,-1.35,167
12.75,-1.2,167
12.75,-1.05,168
12.75,-0.9,168
12.75,-0.75,170
12.75,-0.6,170
12.75,-0.45,170
12.75,-0.3,170
12.75,-0.15,119
12.75,0.0,118
12.75,0.15,145
12.75,0.3,145
12.75,0.45,145
12.75,0.6,133
12.75,0.75,133
12.75,0.9,108
12.75,1.05,107
12.75,1.2,107
12.75,1.35,107
12.75,1.5,107
12.9,-1.5,166
12.9,-1.35,166
12.9,-1.2,167
12.9,-1.05,167
12.9,-0.9,168
12.9,-0.75,170
12.9,-0.6,170
12.9,-0.45,170
12.9,-0.3,169
12.9,-0.15,119
12.9,0.0,119
12.9,0.15,136
12.9,0.3,144
12.9,0.45,145
12.9,0.6,133
12.9,0.75,133
12.9,0.9,132
12.9,1.05,132
12.9,1.2,107
12.9,1.35,107
12.9,1.5,107
13.05,-1.5,166
13.05,-1.35,166
13.05,-1.2,166
13.05,-1.05,167
13.05,-0.9,168
13.05,-0.75,168
13.05,-0.6,170
13.05,-0.45,169
13.05,-0.3,169
13.05,-0.15,119
13.05,0.0,119
13.05,0.15,136
13.05,0.3,144
13.05,0.45,144
13.05,0.6,133
13.05,0.75,132
13.05,0.9,132
13.05,1.05,131
13.05,1.2,131
13.05,1.35,107
13.05,1.5,107
