-3.0,-1.5,210
-3.0,-1.35,211
-3.0,-1.2,237
-3.0,-1.05,238
-3.0,-0.9,239
-3.0,-0.75,239
-3.0,-0.6,240
-3.0,-0.45,241
-3.0,-0.3,242
-3.0,-0.15,208
-3.0,0.0,218
-3.0,0.15,218
-3.0,0.3,225
-3.0,0.45,224
-3.0,0.6,223
-3.0,0.75,221
-3.0,0.9,220
-3.0,1.05,218
-3.0,1.2,217
-3.0,1.35,215
-3.0,1.5,214
-2.85,-1.5,220
-2.85,-1.35,221
-2.85,-1.2,213
-2.85,-1.05,239
-2.85,-0.9,240
-2.85,-0.75,241
-2.85,-0.6,242
-2.85,-0.45,242
-2.85,-0.3,243
-2.85,-0.15,244
-2.85,0.0,220
-2.85,0.15,228
-2.85,0.3,226
-2.85,0.45,225
-2.85,0.6,224
-2.85,0.75,222
-2.85,0.9,221
-2.85,1.05,219
-2.85,1.2,218
-2.85,1.35,216
-2.85,1.5,192
-2.7,-1.5,221
-2.7,-1.35,222
-2.7,-1.2,223
-2.7,-1.05,224
-2.7,-0.9,242
-2.7,-0.75,242
-2.7,-0.6,243
-2.7,-0.45,244
-2.7,-0.3,245
-2.7,-0.15,245
-2.7,0.0,254
-2.7,0.15,229
-2.7,0.3,227
-2.7,0.45,226
-2.7,0.6,225
-2.7,0.75,223
-2.7,0.9,222
-2.7,1.05,220
-2.7,1.2,219
-2.7,1.35,193
-2.7,1.5,192
-2.55,-1.5,197
-2.55,-1.35,223
-2.55,-1.2,224
-2.55,-1.05,225
-2.55,-0.9,226
-2.55,-0.75,244
-2.55,-0.6,245
-2.55,-0.45,245
-2.55,-0.3,246
-2.55,-0.15,254
-2.55,0.0,254
-2.55,0.15,254
-2.55,0.3,228
-2.55,0.45,227
-2.55,0.6,226
-2.55,0.75,224
-2.55,0.9,223
-2.55,1.05,221
-2.55,1.2,194
-2.55,1.35,193
-2.55,1.5,192
-2.4,-1.5,175
-2.4,-1.35,198
-2.4,-1.2,225
-2.4,-1.05,226
-2.4,-0.9,227
-2.4,-0.75,244
-2.4,-0.6,245
-2.4,-0.45,230
-2.4,-0.3,255
-2.4,-0.15,255
-2.4,0.0,255
-2.4,0.15,254
-2.4,0.3,254
-2.4,0.45,228
-2.4,0.6,227
-2.4,0.75,225
-2.4,0.9,224
-2.4,1.05,196
-2.4,1.2,195
-2.4,1.35,184
-2.4,1.5,183
-2.25,-1.5,175
-2.25,-1.35,176
-2.25,-1.2,199
-2.25,-1.05,226
-2.25,-0.9,227
-2.25,-0.75,246
-2.25,-0.6,246
-2.25,-0.45,255
-2.25,-0.3,255
-2.25,-0.15,255
-2.25,0.0,255
-2.25,0.15,255
-2.25,0.3,254
-2.25,0.45,254
-2.25,0.6,228
-2.25,0.75,199
-2.25,0.9,197
-2.25,1.05,196
-2.25,1.2,185
-2.25,1.35,184
-2.25,1.5,183
-2.1,-1.5,174
-2.1,-1.35,175
-2.1,-1.2,209
-2.1,-1.05,210
-2.1,-0.9,228
-2.1,-0.75,247
-2.1,-0.6,255
-2.1,-0.45,255
-2.1,-0.3,255
-2.1,-0.15,255
-2.1,0.0,238
-2.1,0.15,255
-2.1,0.3,254
-2.1,0.45,226
-2.1,0.6,225
-2.1,0.75,216
-2.1,0.9,214
-2.1,1.05,213
-2.1,1.2,212
-2.1,1.35,210
-2.1,1.5,209
-1.95,-1.5,174
-1.95,-1.35,175
-1.95,-1.2,176
-1.95,-1.05,211
-1.95,-0.9,237
-1.95,-0.75,255
-1.95,-0.6,255
-1.95,-0.45,255
-1.95,-0.3,255
-1.95,-0.15,255
-1.95,0.0,238
-1.95,0.15,238
-1.95,0.3,255
-1.95,0.45,254
-1.95,0.6,225
-1.95,0.75,216
-1.95,0.9,215
-1.95,1.05,213
-1.95,1.2,212
-1.95,1.35,210
-1.95,1.5,209
-1.8,-1.5,200
-1.8,-1.35,202
-1.8,-1.2,203
-1.8,-1.05,204
-1.8,-0.9,232
-1.8,-0.75,240
-1.8,-0.6,240
-1.8,-0.45,240
-1.8,-0.3,240
-1.8,-0.15,255
-1.8,0.0,255
-1.8,0.15,238
-1.8,0.3,238
-1.8,0.45,253
-1.8,0.6,220
-1.8,0.75,219
-1.8,0.9,215
-1.8,1.05,213
-1.8,1.2,212
-1.8,1.35,211
-1.8,1.5,209
-1.65,-1.5,199
-1.65,-1.35,201
-1.65,-1.2,202
-1.65,-1.05,230
-1.65,-0.9,231
-1.65,-0.75,231
-1.65,-0.6,238
-1.65,-0.45,211
-1.65,-0.3,210
-1.65,-0.15,238
-1.65,0.0,238
-1.65,0.15,204
-1.65,0.3,204
-1.65,0.45,203
-1.65,0.6,203
-1.65,0.75,218
-1.65,0.9,218
-1.65,1.05,214
-1.65,1.2,212
-1.65,1.35,211
-1.65,1.5,188
-1.5,-1.5,185
-1.5,-1.35,186
-1.5,-1.2,195
-1.5,-1.05,193
-1.5,-0.9,193
-1.5,-0.75,199
-1.5,-0.6,199
-1.5,-0.45,200
-1.5,-0.3,176
-1.5,-0.15,175
-1.5,0.0,175
-1.5,0.15,181
-1.5,0.3,181
-1.5,0.45,159
-1.5,0.6,158
-1.5,0.75,174
-1.5,0.9,173
-1.5,1.05,173
-1.5,1.2,167
-1.5,1.35,135
-1.5,1.5,134
-1.35,-1.5,167
-1.35,-1.35,167
-1.35,-1.2,193
-1.35,-1.05,193
-1.35,-0.9,176
-1.35,-0.75,192
-1.35,-0.6,164
-1.35,-0.45,164
-1.35,-0.3,165
-1.35,-0.15,164
-1.35,0.0,154
-1.35,0.15,158
-1.35,0.3,158
-1.35,0.45,157
-1.35,0.6,157
-1.35,0.75,157
-1.35,0.9,151
-1.35,1.05,150
-1.35,1.2,150
-1.35,1.35,134
-1.35,1.5,108
-1.2,-1.5,186
-1.2,-1.35,165
-1.2,-1.2,165
-1.2,-1.05,164
-1.2,-0.9,164
-1.2,-0.75,146
-1.2,-0.6,146
-1.2,-0.45,162
-1.2,-0.3,163
-1.2,-0.15,141
-1.2,0.0,152
-1.2,0.15,147
-1.2,0.3,147
-1.2,0.45,146
-1.2,0.6,146
-1.2,0.75,146
-1.2,0.9,146
-1.2,1.05,145
-1.2,1.2,145
-1.2,1.35,144
-1.2,1.5,104
-1.05,-1.5,152
-1.05,-1.35,152
-1.05,-1.2,152
-1.05,-1.05,153
-1.05,-0.9,163
-1.05,-0.75,163
-1.05,-0.6,140
-1.05,-0.45,140
-1.05,-0.3,123
-1.05,-0.15,129
-1.05,0.0,145
-1.05,0.15,145
-1.05,0.3,145
-1.05,0.45,145
-1.05,0.6,144
-1.05,0.75,117
-1.05,0.9,134
-1.05,1.05,133
-1.05,1.2,133
-1.05,1.35,133
-1.05,1.5,132
-0.9,-1.5,150
-0.9,-1.35,151
-0.9,-1.2,118
-0.9,-1.05,118
-0.9,-0.9,118
-0.9,-0.75,95
-0.9,-0.6,123
-0.9,-0.45,94
-0.9,-0.3,94
-0.9,-0.15,99
-0.9,0.0,99
-0.9,0.15,116
-0.9,0.3,133
-0.9,0.45,133
-0.9,0.6,106
-0.9,0.75,106
-0.9,0.9,106
-0.9,1.05,132
-0.9,1.2,106
-0.9,1.35,106
-0.9,1.5,106
-0.75,-1.5,139
-0.75,-1.35,139
-0.75,-1.2,139
-0.75,-1.05,139
-0.75,-0.9,117
-0.75,-0.75,83
-0.75,-0.6,81
-0.75,-0.45,70
-0.75,-0.3,82
-0.75,-0.15,105
-0.75,0.0,105
-0.75,0.15,105
-0.75,0.3,105
-0.75,0.45,105
-0.75,0.6,105
-0.75,0.75,121
-0.75,0.9,121
-0.75,1.05,105
-0.75,1.2,105
-0.75,1.35,105
-0.75,1.5,105
-0.6,-1.5,122
-0.6,-1.35,117
-0.6,-1.2,105
-0.6,-1.05,83
-0.6,-0.9,83
-0.6,-0.75,82
-0.6,-0.6,82
-0.6,-0.45,69
-0.6,-0.3,87
-0.6,-0.15,93
-0.6,0.0,122
-0.6,0.15,122
-0.6,0.3,76
-0.6,0.45,121
-0.6,0.6,121
-0.6,0.75,104
-0.6,0.9,104
-0.6,1.05,105
-0.6,1.2,105
-0.6,1.35,105
-0.6,1.5,105
-0.45,-1.5,115
-0.45,-1.35,115
-0.45,-1.2,106
-0.45,-1.05,82
-0.45,-0.9,82
-0.45,-0.75,81
-0.45,-0.6,81
-0.45,-0.45,81
-0.45,-0.3,110
-0.45,-0.15,93
-0.45,0.0,93
-0.45,0.15,93
-0.45,0.3,93
-0.45,0.45,93
-0.45,0.6,92
-0.45,0.75,92
-0.45,0.9,91
-0.45,1.05,81
-0.45,1.2,93
-0.45,1.35,93
-0.45,1.5,93
-0.3,-1.5,115
-0.3,-1.35,115
-0.3,-1.2,92
-0.3,-1.05,109
-0.3,-0.9,109
-0.3,-0.75,105
-0.3,-0.6,105
-0.3,-0.45,99
-0.3,-0.3,111
-0.3,-0.15,110
-0.3,0.0,98
-0.3,0.15,81
-0.3,0.3,81
-0.3,0.45,98
-0.3,0.6,98
-0.3,0.75,98
-0.3,0.9,97
-0.3,1.05,97
-0.3,1.2,81
-0.3,1.35,81
-0.3,1.5,81
-0.15,-1.5,90
-0.15,-1.35,103
-0.15,-1.2,103
-0.15,-1.05,103
-0.15,-0.9,121
-0.15,-0.75,116
-0.15,-0.6,110
-0.15,-0.45,111
-0.15,-0.3,122
-0.15,-0.15,116
-0.15,0.0,87
-0.15,0.15,87
-0.15,0.3,104
-0.15,0.45,104
-0.15,0.6,104
-0.15,0.75,98
-0.15,0.9,98
-0.15,1.05,98
-0.15,1.2,98
-0.15,1.35,79
-0.15,1.5,79
0.0,-1.5,86
0.0,-1.35,97
0.0,-1.2,97
0.0,-1.05,109
0.0,-0.9,127
0.0,-0.75,122
0.0,-0.6,122
0.0,-0.45,122
0.0,-0.3,122
0.0,-0.15,122
0.0,0.0,93
0.0,0.15,110
0.0,0.3,110
0.0,0.45,105
0.0,0.6,104
0.0,0.75,104
0.0,0.9,92
0.0,1.05,92
0.0,1.2,92
0.0,1.35,79
0.0,1.5,79
0.15,-1.5,85
0.15,-1.35,86
0.15,-1.2,103
0.15,-1.05,103
0.15,-0.9,104
0.15,-0.75,127
0.15,-0.6,146
0.15,-0.45,134
0.15,-0.3,140
0.15,-0.15,134
0.15,0.0,117
0.15,0.15,111
0.15,0.3,111
0.15,0.45,111
0.15,0.6,104
0.15,0.75,104
0.15,0.9,103
0.15,1.05,103
0.15,1.2,103
0.15,1.35,80
0.15,1.5,79
0.3,-1.5,81
0.3,-1.35,81
0.3,-1.2,103
0.3,-1.05,104
0.3,-0.9,127
0.3,-0.75,127
0.3,-0.6,128
0.3,-0.45,157
0.3,-0.3,157
0.3,-0.15,157
0.3,0.0,140
0.3,0.15,116
0.3,0.3,116
0.3,0.45,116
0.3,0.6,116
0.3,0.75,99
0.3,0.9,98
0.3,1.05,86
0.3,1.2,86
0.3,1.35,79
0.3,1.5,63
0.45,-1.5,97
0.45,-1.35,98
0.45,-1.2,110
0.45,-1.05,111
0.45,-0.9,111
0.45,-0.75,122
0.45,-0.6,122
0.45,-0.45,134
0.45,-0.3,134
0.45,-0.15,134
0.45,0.0,145
0.45,0.15,105
0.45,0.3,105
0.45,0.45,105
0.45,0.6,116
0.45,0.75,110
0.45,0.9,97
0.45,1.05,98
0.45,1.2,97
0.45,1.35,97
0.45,1.5,96
0.6,-1.5,98
0.6,-1.35,99
0.6,-1.2,110
0.6,-1.05,110
0.6,-0.9,110
0.6,-0.75,110
0.6,-0.6,93
0.6,-0.45,99
0.6,-0.3,105
0.6,-0.15,105
0.6,0.0,82
0.6,0.15,105
0.6,0.3,87
0.6,0.45,93
0.6,0.6,81
0.6,0.75,81
0.6,0.9,81
0.6,1.05,81
0.6,1.2,70
0.6,1.35,75
0.6,1.5,75
0.75,-1.5,98
0.75,-1.35,98
0.75,-1.2,75
0.75,-1.05,75
0.75,-0.9,82
0.75,-0.75,87
0.75,-0.6,76
0.75,-0.45,76
0.75,-0.3,76
0.75,-0.15,87
0.75,0.0,82
0.75,0.15,88
0.75,0.3,76
0.75,0.45,70
0.75,0.6,59
0.75,0.75,59
0.75,0.9,53
0.75,1.05,53
0.75,1.2,53
0.75,1.35,53
0.75,1.5,53
0.9,-1.5,70
0.9,-1.35,70
0.9,-1.2,70
0.9,-1.05,53
0.9,-0.9,53
0.9,-0.75,58
0.9,-0.6,59
0.9,-0.45,64
0.9,-0.3,76
0.9,-0.15,82
0.9,0.0,82
0.9,0.15,88
0.9,0.3,76
0.9,0.45,53
0.9,0.6,53
0.9,0.75,53
0.9,0.9,52
0.9,1.05,52
0.9,1.2,52
0.9,1.35,52
0.9,1.5,52
1.05,-1.5,69
1.05,-1.35,53
1.05,-1.2,53
1.05,-1.05,53
1.05,-0.9,53
1.05,-0.75,53
1.05,-0.6,58
1.05,-0.45,58
1.05,-0.3,70
1.05,-0.15,82
1.05,0.0,76
1.05,0.15,64
1.05,0.3,53
1.05,0.45,53
1.05,0.6,53
1.05,0.75,52
1.05,0.9,53
1.05,1.05,52
1.05,1.2,52
1.05,1.35,52
1.05,1.5,45
1.2,-1.5,68
1.2,-1.35,68
1.2,-1.2,68
1.2,-1.05,68
1.2,-0.9,53
1.2,-0.75,53
1.2,-0.6,53
1.2,-0.45,53
1.2,-0.3,64
1.2,-0.15,64
1.2,0.0,64
1.2,0.15,47
1.2,0.3,35
1.2,0.45,35
1.2,0.6,53
1.2,0.75,53
1.2,0.9,53
1.2,1.05,53
1.2,1.2,53
1.2,1.35,46
1.2,1.5,41
1.35,-1.5,56
1.35,-1.35,68
1.35,-1.2,68
1.35,-1.05,68
1.35,-0.9,68
1.35,-0.75,68
1.35,-0.6,58
1.35,-0.45,53
1.35,-0.3,53
1.35,-0.15,64
1.35,0.0,64
1.35,0.15,53
1.35,0.3,35
1.35,0.45,35
1.35,0.6,35
1.35,0.75,35
1.35,0.9,53
1.35,1.05,46
1.35,1.2,46
1.35,1.35,41
1.35,1.5,46
1.5,-1.5,34
1.5,-1.35,40
1.5,-1.2,40
1.5,-1.05,46
1.5,-0.9,64
1.5,-0.75,58
1.5,-0.6,58
1.5,-0.45,70
1.5,-0.3,47
1.5,-0.15,41
1.5,0.0,47
1.5,0.15,47
1.5,0.3,47
1.5,0.45,46
1.5,0.6,35
1.5,0.75,35
1.5,0.9,35
1.5,1.05,24
1.5,1.2,24
1.5,1.35,28
1.5,1.5,28
1.65,-1.5,17
1.65,-1.35,17
1.65,-1.2,17
1.65,-1.05,18
1.65,-0.9,35
1.65,-0.75,35
1.65,-0.6,41
1.65,-0.45,41
1.65,-0.3,53
1.65,-0.15,53
1.65,0.0,41
1.65,0.15,41
1.65,0.3,41
1.65,0.45,35
1.65,0.6,35
1.65,0.75,24
1.65,0.9,24
1.65,1.05,24
1.65,1.2,24
1.65,1.35,28
1.65,1.5,28
1.8,-1.5,12
1.8,-1.35,12
1.8,-1.2,12
1.8,-1.05,18
1.8,-0.9,18
1.8,-0.75,29
1.8,-0.6,24
1.8,-0.45,41
1.8,-0.3,47
1.8,-0.15,53
1.8,0.0,47
1.8,0.15,24
1.8,0.3,30
1.8,0.45,29
1.8,0.6,29
1.8,0.75,29
1.8,0.9,24
1.8,1.05,24
1.8,1.2,24
1.8,1.35,24
1.8,1.5,24
1.95,-1.5,12
1.95,-1.35,18
1.95,-1.2,18
1.95,-1.05,18
1.95,-0.9,23
1.95,-0.75,24
1.95,-0.6,41
1.95,-0.45,35
1.95,-0.3,35
1.95,-0.15,18
1.95,0.0,18
1.95,0.15,24
1.95,0.3,24
1.95,0.45,24
1.95,0.6,24
1.95,0.75,24
1.95,0.9,24
1.95,1.05,24
1.95,1.2,24
1.95,1.35,24
1.95,1.5,24
2.1,-1.5,0
2.1,-1.35,0
2.1,-1.2,18
2.1,-1.05,18
2.1,-0.9,24
2.1,-0.75,29
2.1,-0.6,35
2.1,-0.45,41
2.1,-0.3,18
2.1,-0.15,41
2.1,0.0,35
2.1,0.15,30
2.1,0.3,35
2.1,0.45,30
2.1,0.6,24
2.1,0.75,24
2.1,0.9,24
2.1,1.05,24
2.1,1.2,24
2.1,1.35,24
2.1,1.5,24
2.25,-1.5,12
2.25,-1.35,1
2.25,-1.2,1
2.25,-1.05,1
2.25,-0.9,1
2.25,-0.75,1
2.25,-0.6,1
2.25,-0.45,12
2.25,-0.3,41
2.25,-0.15,30
2.25,0.0,35
2.25,0.15,35
2.25,0.3,24
2.25,0.45,29
2.25,0.6,29
2.25,0.75,29
2.25,0.9,24
2.25,1.05,24
2.25,1.2,24
2.25,1.35,24
2.25,1.5,24
2.4,-1.5,12
2.4,-1.35,12
2.4,-1.2,12
2.4,-1.05,12
2.4,-0.9,1
2.4,-0.75,1
2.4,-0.6,1
2.4,-0.45,1
2.4,-0.3,35
2.4,-0.15,41
2.4,0.0,35
2.4,0.15,18
2.4,0.3,18
2.4,0.45,29
2.4,0.6,29
2.4,0.75,29
2.4,0.9,24
2.4,1.05,24
2.4,1.2,24
2.4,1.35,24
2.4,1.5,24
2.55,-1.5,18
2.55,-1.35,18
2.55,-1.2,12
2.55,-1.05,29
2.55,-0.9,6
2.55,-0.75,12
2.55,-0.6,18
2.55,-0.45,1
2.55,-0.3,18
2.55,-0.15,18
2.55,0.0,18
2.55,0.15,30
2.55,0.3,41
2.55,0.45,35
2.55,0.6,35
2.55,0.75,35
2.55,0.9,29
2.55,1.05,29
2.55,1.2,29
2.55,1.35,24
2.55,1.5,24
2.7,-1.5,18
2.7,-1.35,18
2.7,-1.2,18
2.7,-1.05,18
2.7,-0.9,29
2.7,-0.75,29
2.7,-0.6,30
2.7,-0.45,47
2.7,-0.3,41
2.7,-0.15,30
2.7,0.0,35
2.7,0.15,35
2.7,0.3,41
2.7,0.45,41
2.7,0.6,41
2.7,0.75,41
2.7,0.9,35
2.7,1.05,24
2.7,1.2,24
2.7,1.35,24
2.7,1.5,24
2.85,-1.5,30
2.85,-1.35,18
2.85,-1.2,18
2.85,-1.05,18
2.85,-0.9,18
2.85,-0.75,29
2.85,-0.6,41
2.85,-0.45,53
2.85,-0.3,82
2.85,-0.15,30
2.85,0.0,35
2.85,0.15,30
2.85,0.3,41
2.85,0.45,47
2.85,0.6,41
2.85,0.75,41
2.85,0.9,29
2.85,1.05,29
2.85,1.2,29
2.85,1.35,29
2.85,1.5,29
3.0,-1.5,41
3.0,-1.35,47
3.0,-1.2,47
3.0,-1.05,35
3.0,-0.9,35
3.0,-0.75,47
3.0,-0.6,53
3.0,-0.45,87
3.0,-0.3,70
3.0,-0.15,53
3.0,0.0,30
3.0,0.15,30
3.0,0.3,35
3.0,0.45,29
3.0,0.6,35
3.0,0.75,41
3.0,0.9,41
3.0,1.05,29
3.0,1.2,29
3.0,1.35,29
3.0,1.5,29
3.15,-1.5,75
3.15,-1.35,75
3.15,-1.2,76
3.15,-1.05,76
3.15,-0.9,76
3.15,-0.75,70
3.15,-0.6,47
3.15,-0.45,70
3.15,-0.3,59
3.15,-0.15,59
3.15,0.0,24
3.15,0.15,35
3.15,0.3,29
3.15,0.45,41
3.15,0.6,41
3.15,0.75,35
3.15,0.9,24
3.15,1.05,29
3.15,1.2,29
3.15,1.35,29
3.15,1.5,29
3.3,-1.5,93
3.3,-1.35,93
3.3,-1.2,93
3.3,-1.05,59
3.3,-0.9,59
3.3,-0.75,53
3.3,-0.6,47
3.3,-0.45,18
3.3,-0.3,18
3.3,-0.15,24
3.3,0.0,24
3.3,0.15,24
3.3,0.3,24
3.3,0.45,24
3.3,0.6,24
3.3,0.75,24
3.3,0.9,24
3.3,1.05,24
3.3,1.2,30
3.3,1.35,30
3.3,1.5,35
3.45,-1.5,93
3.45,-1.35,93
3.45,-1.2,94
3.45,-1.05,99
3.45,-0.9,99
3.45,-0.75,76
3.45,-0.6,59
3.45,-0.45,53
3.45,-0.3,18
3.45,-0.15,24
3.45,0.0,30
3.45,0.15,24
3.45,0.3,24
3.45,0.45,24
3.45,0.6,24
3.45,0.75,24
3.45,0.9,24
3.45,1.05,47
3.45,1.2,47
3.45,1.35,30
3.45,1.5,46
3.6,-1.5,99
3.6,-1.35,105
3.6,-1.2,99
3.6,-1.05,122
3.6,-0.9,99
3.6,-0.75,99
3.6,-0.6,93
3.6,-0.45,70
3.6,-0.3,59
3.6,-0.15,47
3.6,0.0,70
3.6,0.15,24
3.6,0.3,30
3.6,0.45,30
3.6,0.6,47
3.6,0.75,47
3.6,0.9,47
3.6,1.05,64
3.6,1.2,64
3.6,1.35,64
3.6,1.5,64
3.75,-1.5,99
3.75,-1.35,99
3.75,-1.2,105
3.75,-1.05,117
3.75,-0.9,122
3.75,-0.75,128
3.75,-0.6,128
3.75,-0.45,59
3.75,-0.3,64
3.75,-0.15,111
3.75,0.0,93
3.75,0.15,35
3.75,0.3,35
3.75,0.45,35
3.75,0.6,64
3.75,0.75,64
3.75,0.9,64
3.75,1.05,64
3.75,1.2,64
3.75,1.35,64
3.75,1.5,64
3.9,-1.5,76
3.9,-1.35,71
3.9,-1.2,70
3.9,-1.05,99
3.9,-0.9,99
3.9,-0.75,93
3.9,-0.6,82
3.9,-0.45,47
3.9,-0.3,59
3.9,-0.15,111
3.9,0.0,82
3.9,0.15,41
3.9,0.3,64
3.9,0.45,64
3.9,0.6,64
3.9,0.75,64
3.9,0.9,70
3.9,1.05,64
3.9,1.2,53
3.9,1.35,53
3.9,1.5,53
4.05,-1.5,105
4.05,-1.35,105
4.05,-1.2,105
4.05,-1.05,105
4.05,-0.9,105
4.05,-0.75,122
4.05,-0.6,88
4.05,-0.45,53
4.05,-0.3,82
4.05,-0.15,47
4.05,0.0,41
4.05,0.15,59
4.05,0.3,64
4.05,0.45,64
4.05,0.6,76
4.05,0.75,76
4.05,0.9,64
4.05,1.05,64
4.05,1.2,53
4.05,1.35,53
4.05,1.5,53
4.2,-1.5,93
4.2,-1.35,105
4.2,-1.2,105
4.2,-1.05,105
4.2,-0.9,105
4.2,-0.75,122
4.2,-0.6,105
4.2,-0.45,88
4.2,-0.3,64
4.2,-0.15,99
4.2,0.0,53
4.2,0.15,59
4.2,0.3,59
4.2,0.45,70
4.2,0.6,70
4.2,0.75,82
4.2,0.9,76
4.2,1.05,76
4.2,1.2,53
4.2,1.35,53
4.2,1.5,53
4.35,-1.5,92
4.35,-1.35,75
4.35,-1.2,75
4.35,-1.05,82
4.35,-0.9,47
4.35,-0.75,47
4.35,-0.6,99
4.35,-0.45,93
4.35,-0.3,1
4.35,-0.15,99
4.35,0.0,59
4.35,0.15,47
4.35,0.3,70
4.35,0.45,47
4.35,0.6,47
4.35,0.75,47
4.35,0.9,53
4.35,1.05,53
4.35,1.2,58
4.35,1.35,47
4.35,1.5,47
4.5,-1.5,64
4.5,-1.35,69
4.5,-1.2,69
4.5,-1.05,70
4.5,-0.9,53
4.5,-0.75,47
4.5,-0.6,41
4.5,-0.45,12
4.5,-0.3,134
4.5,-0.15,47
4.5,0.0,41
4.5,0.15,41
4.5,0.3,35
4.5,0.45,30
4.5,0.6,36
4.5,0.75,41
4.5,0.9,42
4.5,1.05,41
4.5,1.2,41
4.5,1.35,47
4.5,1.5,47
4.65,-1.5,64
4.65,-1.35,64
4.65,-1.2,64
4.65,-1.05,69
4.65,-0.9,70
4.65,-0.75,41
4.65,-0.6,30
4.65,-0.45,12
4.65,-0.3,76
4.65,-0.15,64
4.65,0.0,41
4.65,0.15,53
4.65,0.3,12
4.65,0.45,18
4.65,0.6,18
4.65,0.75,18
4.65,0.9,18
4.65,1.05,18
4.65,1.2,18
4.65,1.35,48
4.65,1.5,48
4.8,-1.5,64
4.8,-1.35,64
4.8,-1.2,70
4.8,-1.05,70
4.8,-0.9,52
4.8,-0.75,59
4.8,-0.6,59
4.8,-0.45,41
4.8,-0.3,30
4.8,-0.15,82
4.8,0.0,99
4.8,0.15,58
4.8,0.3,41
4.8,0.45,6
4.8,0.6,6
4.8,0.75,6
4.8,0.9,6
4.8,1.05,42
4.8,1.2,42
4.8,1.35,48
4.8,1.5,37
4.95,-1.5,35
4.95,-1.35,35
4.95,-1.2,35
4.95,-1.05,58
4.95,-0.9,70
4.95,-0.75,70
4.95,-0.6,47
4.95,-0.45,64
4.95,-0.3,59
4.95,-0.15,93
4.95,0.0,128
4.95,0.15,41
4.95,0.3,29
4.95,0.45,12
4.95,0.6,0
4.95,0.75,30
4.95,0.9,30
4.95,1.05,31
4.95,1.2,49
4.95,1.35,49
4.95,1.5,49
5.1,-1.5,59
5.1,-1.35,59
5.1,-1.2,64
5.1,-1.05,64
5.1,-0.9,35
5.1,-0.75,30
5.1,-0.6,24
5.1,-0.45,12
5.1,-0.3,70
5.1,-0.15,59
5.1,0.0,70
5.1,0.15,64
5.1,0.3,41
5.1,0.45,18
5.1,0.6,24
5.1,0.75,25
5.1,0.9,48
5.1,1.05,49
5.1,1.2,49
5.1,1.35,49
5.1,1.5,49
5.25,-1.5,59
5.25,-1.35,59
5.25,-1.2,59
5.25,-1.05,59
5.25,-0.9,59
5.25,-0.75,59
5.25,-0.6,1
5.25,-0.45,24
5.25,-0.3,47
5.25,-0.15,41
5.25,0.0,105
5.25,0.15,93
5.25,0.3,41
5.25,0.45,70
5.25,0.6,70
5.25,0.75,70
5.25,0.9,48
5.25,1.05,49
5.25,1.2,49
5.25,1.35,49
5.25,1.5,49
5.4,-1.5,36
5.4,-1.35,36
5.4,-1.2,36
5.4,-1.05,41
5.4,-0.9,53
5.4,-0.75,53
5.4,-0.6,24
5.4,-0.45,35
5.4,-0.3,41
5.4,-0.15,64
5.4,0.0,70
5.4,0.15,93
5.4,0.3,70
5.4,0.45,70
5.4,0.6,48
5.4,0.75,48
5.4,0.9,49
5.4,1.05,48
5.4,1.2,48
5.4,1.35,49
5.4,1.5,66
5.55,-1.5,30
5.55,-1.35,35
5.55,-1.2,41
5.55,-1.05,41
5.55,-0.9,41
5.55,-0.75,30
5.55,-0.6,53
5.55,-0.45,41
5.55,-0.3,93
5.55,-0.15,24
5.55,0.0,59
5.55,0.15,47
5.55,0.3,59
5.55,0.45,59
5.55,0.6,59
5.55,0.75,54
5.55,0.9,54
5.55,1.05,66
5.55,1.2,71
5.55,1.35,71
5.55,1.5,71
5.7,-1.5,41
5.7,-1.35,41
5.7,-1.2,47
5.7,-1.05,30
5.7,-0.9,30
5.7,-0.75,41
5.7,-0.6,12
5.7,-0.45,30
5.7,-0.3,6
5.7,-0.15,53
5.7,0.0,70
5.7,0.15,18
5.7,0.3,53
5.7,0.45,82
5.7,0.6,71
5.7,0.75,76
5.7,0.9,71
5.7,1.05,71
5.7,1.2,71
5.7,1.35,71
5.7,1.5,71
5.85,-1.5,46
5.85,-1.35,53
5.85,-1.2,53
5.85,-1.05,53
5.85,-0.9,53
5.85,-0.75,1
5.85,-0.6,1
5.85,-0.45,76
5.85,-0.3,35
5.85,-0.15,99
5.85,0.0,30
5.85,0.15,47
5.85,0.3,59
5.85,0.45,82
5.85,0.6,82
5.85,0.75,83
5.85,0.9,71
5.85,1.05,71
5.85,1.2,71
5.85,1.35,71
5.85,1.5,71
6.0,-1.5,52
6.0,-1.35,40
6.0,-1.2,41
6.0,-1.05,41
6.0,-0.9,41
6.0,-0.75,70
6.0,-0.6,64
6.0,-0.45,59
6.0,-0.3,30
6.0,-0.15,88
6.0,0.0,35
6.0,0.15,47
6.0,0.3,59
6.0,0.45,53
6.0,0.6,82
6.0,0.75,82
6.0,0.9,83
6.0,1.05,77
6.0,1.2,71
6.0,1.35,59
6.0,1.5,65
6.15,-1.5,24
6.15,-1.35,40
6.15,-1.2,41
6.15,-1.05,47
6.15,-0.9,70
6.15,-0.75,76
6.15,-0.6,76
6.15,-0.45,64
6.15,-0.3,30
6.15,-0.15,30
6.15,0.0,41
6.15,0.15,47
6.15,0.3,53
6.15,0.45,64
6.15,0.6,47
6.15,0.75,71
6.15,0.9,71
6.15,1.05,71
6.15,1.2,72
6.15,1.35,72
6.15,1.5,65
6.3,-1.5,24
6.3,-1.35,24
6.3,-1.2,24
6.3,-1.05,41
6.3,-0.9,41
6.3,-0.75,70
6.3,-0.6,59
6.3,-0.45,59
6.3,-0.3,12
6.3,-0.15,41
6.3,0.0,24
6.3,0.15,18
6.3,0.3,12
6.3,0.45,29
6.3,0.6,47
6.3,0.75,41
6.3,0.9,41
6.3,1.05,71
6.3,1.2,71
6.3,1.35,71
6.3,1.5,71
6.45,-1.5,18
6.45,-1.35,18
6.45,-1.2,18
6.45,-1.05,18
6.45,-0.9,24
6.45,-0.75,41
6.45,-0.6,35
6.45,-0.45,53
6.45,-0.3,59
6.45,-0.15,82
6.45,0.0,35
6.45,0.15,6
6.45,0.3,6
6.45,0.45,6
6.45,0.6,6
6.45,0.75,24
6.45,0.9,41
6.45,1.05,24
6.45,1.2,24
6.45,1.35,25
6.45,1.5,25
6.6,-1.5,35
6.6,-1.35,35
6.6,-1.2,35
6.6,-1.05,0
6.6,-0.9,0
6.6,-0.75,0
6.6,-0.6,18
6.6,-0.45,30
6.6,-0.3,70
6.6,-0.15,93
6.6,0.0,30
6.6,0.15,18
6.6,0.3,6
6.6,0.45,6
6.6,0.6,6
6.6,0.75,6
6.6,0.9,6
6.6,1.05,6
6.6,1.2,6
6.6,1.35,6
6.6,1.5,24
6.75,-1.5,18
6.75,-1.35,18
6.75,-1.2,18
6.75,-1.05,47
6.75,-0.9,47
6.75,-0.75,30
6.75,-0.6,64
6.75,-0.45,53
6.75,-0.3,30
6.75,-0.15,53
6.75,0.0,47
6.75,0.15,18
6.75,0.3,24
6.75,0.45,29
6.75,0.6,29
6.75,0.75,23
6.75,0.9,23
6.75,1.05,1
6.75,1.2,1
6.75,1.35,0
6.75,1.5,0
6.9,-1.5,18
6.9,-1.35,24
6.9,-1.2,24
6.9,-1.05,24
6.9,-0.9,24
6.9,-0.75,76
6.9,-0.6,87
6.9,-0.45,35
6.9,-0.3,30
6.9,-0.15,47
6.9,0.0,53
6.9,0.15,58
6.9,0.3,47
6.9,0.45,30
6.9,0.6,29
6.9,0.75,29
6.9,0.9,1
6.9,1.05,0
6.9,1.2,0
6.9,1.35,0
6.9,1.5,6
7.05,-1.5,30
7.05,-1.35,35
7.05,-1.2,35
7.05,-1.05,41
7.05,-0.9,36
7.05,-0.75,59
7.05,-0.6,53
7.05,-0.45,0
7.05,-0.3,47
7.05,-0.15,93
7.05,0.0,47
7.05,0.15,58
7.05,0.3,58
7.05,0.45,41
7.05,0.6,41
7.05,0.75,18
7.05,0.9,12
7.05,1.05,12
7.05,1.2,12
7.05,1.35,6
7.05,1.5,6
7.2,-1.5,41
7.2,-1.35,41
7.2,-1.2,41
7.2,-1.05,47
7.2,-0.9,47
7.2,-0.75,35
7.2,-0.6,18
7.2,-0.45,18
7.2,-0.3,35
7.2,-0.15,59
7.2,0.0,47
7.2,0.15,58
7.2,0.3,41
7.2,0.45,24
7.2,0.6,18
7.2,0.75,23
7.2,0.9,23
7.2,1.05,12
7.2,1.2,12
7.2,1.35,6
7.2,1.5,6
7.35,-1.5,58
7.35,-1.35,58
7.35,-1.2,53
7.35,-1.05,53
7.35,-0.9,53
7.35,-0.75,47
7.35,-0.6,0
7.35,-0.45,24
7.35,-0.3,18
7.35,-0.15,53
7.35,0.0,93
7.35,0.15,70
7.35,0.3,35
7.35,0.45,35
7.35,0.6,35
7.35,0.75,18
7.35,0.9,17
7.35,1.05,17
7.35,1.2,17
7.35,1.35,17
7.35,1.5,17
7.5,-1.5,53
7.5,-1.35,70
7.5,-1.2,53
7.5,-1.05,53
7.5,-0.9,53
7.5,-0.75,24
7.5,-0.6,53
7.5,-0.45,41
7.5,-0.3,18
7.5,-0.15,82
7.5,0.0,88
7.5,0.15,64
7.5,0.3,64
7.5,0.45,29
7.5,0.6,35
7.5,0.75,35
7.5,0.9,18
7.5,1.05,17
7.5,1.2,17
7.5,1.35,6
7.5,1.5,29
7.65,-1.5,53
7.65,-1.35,53
7.65,-1.2,53
7.65,-1.05,58
7.65,-0.9,58
7.65,-0.75,53
7.65,-0.6,64
7.65,-0.45,53
7.65,-0.3,0
7.65,-0.15,64
7.65,0.0,82
7.65,0.15,76
7.65,0.3,47
7.65,0.45,18
7.65,0.6,58
7.65,0.75,40
7.65,0.9,40
7.65,1.05,46
7.65,1.2,46
7.65,1.35,46
7.65,1.5,46
7.8,-1.5,58
7.8,-1.35,58
7.8,-1.2,58
7.8,-1.05,58
7.8,-0.9,58
7.8,-0.75,58
7.8,-0.6,35
7.8,-0.45,6
7.8,-0.3,1
7.8,-0.15,18
7.8,0.0,82
7.8,0.15,53
7.8,0.3,53
7.8,0.45,58
7.8,0.6,41
7.8,0.75,41
7.8,0.9,41
7.8,1.05,41
7.8,1.2,46
7.8,1.35,46
7.8,1.5,46
7.95,-1.5,24
7.95,-1.35,30
7.95,-1.2,18
7.95,-1.05,18
7.95,-0.9,12
7.95,-0.75,18
7.95,-0.6,35
7.95,-0.45,24
7.95,-0.3,6
7.95,-0.15,6
7.95,0.0,41
7.95,0.15,59
7.95,0.3,47
7.95,0.45,41
7.95,0.6,58
7.95,0.75,58
7.95,0.9,58
7.95,1.05,58
7.95,1.2,58
7.95,1.35,63
7.95,1.5,63
8.1,-1.5,29
8.1,-1.35,24
8.1,-1.2,29
8.1,-1.05,35
8.1,-0.9,35
8.1,-0.75,35
8.1,-0.6,64
8.1,-0.45,82
8.1,-0.3,59
8.1,-0.15,30
8.1,0.0,41
8.1,0.15,59
8.1,0.3,76
8.1,0.45,70
8.1,0.6,70
8.1,0.75,64
8.1,0.9,64
8.1,1.05,64
8.1,1.2,63
8.1,1.35,63
8.1,1.5,52
8.25,-1.5,58
8.25,-1.35,76
8.25,-1.2,53
8.25,-1.05,53
8.25,-0.9,35
8.25,-0.75,35
8.25,-0.6,41
8.25,-0.45,47
8.25,-0.3,30
8.25,-0.15,70
8.25,0.0,24
8.25,0.15,58
8.25,0.3,88
8.25,0.45,70
8.25,0.6,64
8.25,0.75,47
8.25,0.9,53
8.25,1.05,47
8.25,1.2,52
8.25,1.35,52
8.25,1.5,52
8.4,-1.5,70
8.4,-1.35,87
8.4,-1.2,82
8.4,-1.05,93
8.4,-0.9,87
8.4,-0.75,76
8.4,-0.6,35
8.4,-0.45,24
8.4,-0.3,53
8.4,-0.15,47
8.4,0.0,6
8.4,0.15,1
8.4,0.3,53
8.4,0.45,47
8.4,0.6,47
8.4,0.75,47
8.4,0.9,41
8.4,1.05,47
8.4,1.2,47
8.4,1.35,47
8.4,1.5,46
8.55,-1.5,105
8.55,-1.35,116
8.55,-1.2,116
8.55,-1.05,93
8.55,-0.9,87
8.55,-0.75,93
8.55,-0.6,82
8.55,-0.45,12
8.55,-0.3,1
8.55,-0.15,1
8.55,0.0,0
8.55,0.15,0
8.55,0.3,24
8.55,0.45,47
8.55,0.6,47
8.55,0.75,24
8.55,0.9,47
8.55,1.05,41
8.55,1.2,24
8.55,1.35,24
8.55,1.5,70
8.7,-1.5,105
8.7,-1.35,105
8.7,-1.2,105
8.7,-1.05,105
8.7,-0.9,99
8.7,-0.75,70
8.7,-0.6,59
8.7,-0.45,64
8.7,-0.3,64
8.7,-0.15,6
8.7,0.0,6
8.7,0.15,12
8.7,0.3,18
8.7,0.45,36
8.7,0.6,36
8.7,0.75,19
8.7,0.9,19
8.7,1.05,24
8.7,1.2,42
8.7,1.35,48
8.7,1.5,47
8.85,-1.5,105
8.85,-1.35,99
8.85,-1.2,99
8.85,-1.05,99
8.85,-0.9,88
8.85,-0.75,70
8.85,-0.6,24
8.85,-0.45,18
8.85,-0.3,35
8.85,-0.15,35
8.85,0.0,6
8.85,0.15,18
8.85,0.3,18
8.85,0.45,18
8.85,0.6,18
8.85,0.75,18
8.85,0.9,42
8.85,1.05,42
8.85,1.2,48
8.85,1.35,48
8.85,1.5,48
9.0,-1.5,99
9.0,-1.35,88
9.0,-1.2,88
9.0,-1.05,93
9.0,-0.9,88
9.0,-0.75,88
9.0,-0.6,59
9.0,-0.45,47
9.0,-0.3,93
9.0,-0.15,47
9.0,0.0,18
9.0,0.15,30
9.0,0.3,30
9.0,0.45,29
9.0,0.6,47
9.0,0.75,30
9.0,0.9,30
9.0,1.05,48
9.0,1.2,48
9.0,1.35,48
9.0,1.5,48
9.15,-1.5,93
9.15,-1.35,93
9.15,-1.2,82
9.15,-1.05,82
9.15,-0.9,82
9.15,-0.75,88
9.15,-0.6,76
9.15,-0.45,53
9.15,-0.3,53
9.15,-0.15,47
9.15,0.0,47
9.15,0.15,18
9.15,0.3,18
9.15,0.45,30
9.15,0.6,30
9.15,0.75,30
9.15,0.9,36
9.15,1.05,30
9.15,1.2,48
9.15,1.35,48
9.15,1.5,48
9.3,-1.5,47
9.3,-1.35,47
9.3,-1.2,47
9.3,-1.05,47
9.3,-0.9,53
9.3,-0.75,35
9.3,-0.6,24
9.3,-0.45,35
9.3,-0.3,53
9.3,-0.15,47
9.3,0.0,76
9.3,0.15,47
9.3,0.3,41
9.3,0.45,41
9.3,0.6,41
9.3,0.75,41
9.3,0.9,42
9.3,1.05,42
9.3,1.2,36
9.3,1.35,36
9.3,1.5,36
9.45,-1.5,41
9.45,-1.35,41
9.45,-1.2,42
9.45,-1.05,18
9.45,-0.9,18
9.45,-0.75,18
9.45,-0.6,1
9.45,-0.45,12
9.45,-0.3,1
9.45,-0.15,64
9.45,0.0,70
9.45,0.15,41
9.45,0.3,59
9.45,0.45,53
9.45,0.6,53
9.45,0.75,41
9.45,0.9,36
9.45,1.05,36
9.45,1.2,36
9.45,1.35,30
9.45,1.5,30
9.6,-1.5,12
9.6,-1.35,24
9.6,-1.2,12
9.6,-1.05,12
9.6,-0.9,12
9.6,-0.75,6
9.6,-0.6,24
9.6,-0.45,41
9.6,-0.3,47
9.6,-0.15,59
9.6,0.0,41
9.6,0.15,64
9.6,0.3,53
9.6,0.45,53
9.6,0.6,58
9.6,0.75,47
9.6,0.9,30
9.6,1.05,30
9.6,1.2,30
9.6,1.35,30
9.6,1.5,30
9.75,-1.5,69
9.75,-1.35,35
9.75,-1.2,35
9.75,-1.05,35
9.75,-0.9,58
9.75,-0.75,53
9.75,-0.6,30
9.75,-0.45,41
9.75,-0.3,30
9.75,-0.15,53
9.75,0.0,41
9.75,0.15,59
9.75,0.3,53
9.75,0.45,53
9.75,0.6,58
9.75,0.75,24
9.75,0.9,24
9.75,1.05,59
9.75,1.2,59
9.75,1.35,59
9.75,1.5,30
9.9,-1.5,75
9.9,-1.35,75
9.9,-1.2,76
9.9,-1.05,64
9.9,-0.9,58
9.9,-0.75,47
9.9,-0.6,53
9.9,-0.45,87
9.9,-0.3,35
9.9,-0.15,12
9.9,0.0,35
9.9,0.15,64
9.9,0.3,93
9.9,0.45,88
9.9,0.6,88
9.9,0.75,71
9.9,0.9,71
9.9,1.05,60
9.9,1.2,60
9.9,1.35,60
9.9,1.5,60
10.05,-1.5,58
10.05,-1.35,81
10.05,-1.2,75
10.05,-1.05,76
10.05,-0.9,76
10.05,-0.75,105
10.05,-0.6,122
10.05,-0.45,99
10.05,-0.3,41
10.05,-0.15,35
10.05,0.0,53
10.05,0.15,76
10.05,0.3,82
10.05,0.45,99
10.05,0.6,99
10.05,0.75,77
10.05,0.9,65
10.05,1.05,60
10.05,1.2,60
10.05,1.35,60
10.05,1.5,60
10.2,-1.5,115
10.2,-1.35,110
10.2,-1.2,110
10.2,-1.05,110
10.2,-0.9,76
10.2,-0.75,116
10.2,-0.6,93
10.2,-0.45,76
10.2,-0.3,59
10.2,-0.15,82
10.2,0.0,82
10.2,0.15,70
10.2,0.3,76
10.2,0.45,76
10.2,0.6,94
10.2,0.75,88
10.2,0.9,88
10.2,1.05,82
10.2,1.2,60
10.2,1.35,60
10.2,1.5,60
10.35,-1.5,65
10.35,-1.35,65
10.35,-1.2,65
10.35,-1.05,65
10.35,-0.9,65
10.35,-0.75,65
10.35,-0.6,53
10.35,-0.45,64
10.35,-0.3,82
10.35,-0.15,59
10.35,0.0,76
10.35,0.15,87
10.35,0.3,64
10.35,0.45,64
10.35,0.6,64
10.35,0.75,82
10.35,0.9,82
10.35,1.05,82
10.35,1.2,82
10.35,1.35,82
10.35,1.5,82
10.5,-1.5,76
10.5,-1.35,76
10.5,-1.2,76
10.5,-1.05,76
10.5,-0.9,76
10.5,-0.75,76
10.5,-0.6,76
10.5,-0.45,76
10.5,-0.3,82
10.5,-0.15,87
10.5,0.0,117
10.5,0.15,76
10.5,0.3,59
10.5,0.45,64
10.5,0.6,64
10.5,0.75,64
10.5,0.9,64
10.5,1.05,82
10.5,1.2,82
10.5,1.35,81
10.5,1.5,81
10.65,-1.5,76
10.65,-1.35,76
10.65,-1.2,76
10.65,-1.05,59
10.65,-0.9,59
10.65,-0.75,59
10.65,-0.6,59
10.65,-0.45,64
10.65,-0.3,76
10.65,-0.15,105
10.65,0.0,111
10.65,0.15,59
10.65,0.3,59
10.65,0.45,59
10.65,0.6,64
10.65,0.75,64
10.65,0.9,64
10.65,1.05,64
10.65,1.2,82
10.65,1.35,75
10.65,1.5,75
10.8,-1.5,65
10.8,-1.35,59
10.8,-1.2,59
10.8,-1.05,65
10.8,-0.9,65
10.8,-0.75,64
10.8,-0.6,64
10.8,-0.45,53
10.8,-0.3,53
10.8,-0.15,64
10.8,0.0,58
10.8,0.15,59
10.8,0.3,59
10.8,0.45,59
10.8,0.6,59
10.8,0.75,59
10.8,0.9,63
10.8,1.05,63
10.8,1.2,58
10.8,1.35,75
10.8,1.5,75
10.95,-1.5,65
10.95,-1.35,65
10.95,-1.2,65
10.95,-1.05,59
10.95,-0.9,64
10.95,-0.75,82
10.95,-0.6,47
10.95,-0.45,53
10.95,-0.3,76
10.95,-0.15,82
10.95,0.0,47
10.95,0.15,35
10.95,0.3,64
10.95,0.45,53
10.95,0.6,58
10.95,0.75,58
10.95,0.9,58
10.95,1.05,58
10.95,1.2,58
10.95,1.35,58
10.95,1.5,57
11.1,-1.5,59
11.1,-1.35,59
11.1,-1.2,59
11.1,-1.05,59
11.1,-0.9,47
11.1,-0.75,47
11.1,-0.6,58
11.1,-0.45,76
11.1,-0.3,59
11.1,-0.15,82
11.1,0.0,76
11.1,0.15,52
11.1,0.3,52
11.1,0.45,64
11.1,0.6,58
11.1,0.75,58
11.1,0.9,58
11.1,1.05,58
11.1,1.2,58
11.1,1.35,57
11.1,1.5,57
11.25,-1.5,58
11.25,-1.35,58
11.25,-1.2,70
11.25,-1.05,58
11.25,-0.9,64
11.25,-0.75,93
11.25,-0.6,93
11.25,-0.45,93
11.25,-0.3,82
11.25,-0.15,76
11.25,0.0,70
11.25,0.15,69
11.25,0.3,69
11.25,0.45,79
11.25,0.6,79
11.25,0.75,74
11.25,0.9,52
11.25,1.05,52
11.25,1.2,52
11.25,1.35,52
11.25,1.5,48
11.4,-1.5,70
11.4,-1.35,58
11.4,-1.2,58
11.4,-1.05,58
11.4,-0.9,64
11.4,-0.75,81
11.4,-0.6,81
11.4,-0.45,82
11.4,-0.3,105
11.4,-0.15,81
11.4,0.0,75
11.4,0.15,92
11.4,0.3,69
11.4,0.45,74
11.4,0.6,52
11.4,0.75,79
11.4,0.9,79
11.4,1.05,71
11.4,1.2,50
11.4,1.35,48
11.4,1.5,47
11.55,-1.5,58
11.55,-1.35,58
11.55,-1.2,64
11.55,-1.05,64
11.55,-0.9,81
11.55,-0.75,64
11.55,-0.6,64
11.55,-0.45,70
11.55,-0.3,82
11.55,-0.15,76
11.55,0.0,75
11.55,0.15,75
11.55,0.3,92
11.55,0.45,69
11.55,0.6,68
11.55,0.75,45
11.55,0.9,68
11.55,1.05,97
11.55,1.2,62
11.55,1.35,60
11.55,1.5,59
11.7,-1.5,64
11.7,-1.35,58
11.7,-1.2,58
11.7,-1.05,76
11.7,-0.9,58
11.7,-0.75,58
11.7,-0.6,58
11.7,-0.45,35
11.7,-0.3,65
11.7,-0.15,65
11.7,0.0,75
11.7,0.15,92
11.7,0.3,86
11.7,0.45,109
11.7,0.6,107
11.7,0.75,85
11.7,0.9,84
11.7,1.05,28
11.7,1.2,28
11.7,1.35,27
11.7,1.5,60
11.85,-1.5,99
11.85,-1.35,99
11.85,-1.2,99
11.85,-1.05,104
11.85,-0.9,105
11.85,-0.75,105
11.85,-0.6,105
11.85,-0.45,105
11.85,-0.3,105
11.85,-0.15,87
11.85,0.0,87
11.85,0.15,87
11.85,0.3,87
11.85,0.45,63
11.85,0.6,40
11.85,0.75,39
11.85,0.9,32
11.85,1.05,32
11.85,1.2,48
11.85,1.35,48
11.85,1.5,47
12.0,-1.5,79
12.0,-1.35,80
12.0,-1.2,87
12.0,-1.05,87
12.0,-0.9,88
12.0,-0.75,88
12.0,-0.6,87
12.0,-0.45,87
12.0,-0.3,111
12.0,-0.15,110
12.0,0.0,110
12.0,0.15,110
12.0,0.3,64
12.0,0.45,63
12.0,0.6,63
12.0,0.75,62
12.0,0.9,38
12.0,1.05,37
12.0,1.2,37
12.0,1.35,37
12.0,1.5,37
12.15,-1.5,74
12.15,-1.35,75
12.15,-1.2,82
12.15,-1.05,82
12.15,-0.9,82
12.15,-0.75,82
12.15,-0.6,105
12.15,-0.45,111
12.15,-0.3,111
12.15,-0.15,134
12.15,0.0,134
12.15,0.15,81
12.15,0.3,80
12.15,0.45,80
12.15,0.6,80
12.15,0.75,61
12.15,0.9,60
12.15,1.05,59
12.15,1.2,37
12.15,1.35,37
12.15,1.5,37
12.3,-1.5,68
12.3,-1.35,69
12.3,-1.2,69
12.3,-1.05,82
12.3,-0.9,82
12.3,-0.75,105
12.3,-0.6,105
12.3,-0.45,105
12.3,-0.3,88
12.3,-0.15,111
12.3,0.0,111
12.3,0.15,81
12.3,0.3,81
12.3,0.45,80
12.3,0.6,80
12.3,0.75,77
12.3,0.9,60
12.3,1.05,59
12.3,1.2,59
12.3,1.35,58
12.3,1.5,51
12.45,-1.5,51
12.45,-1.35,51
12.45,-1.2,52
12.45,-1.05,81
12.45,-0.9,104
12.45,-0.75,105
12.45,-0.6,105
12.45,-0.45,105
12.45,-0.3,111
12.45,-0.15,111
12.45,0.0,104
12.45,0.15,104
12.45,0.3,81
12.45,0.45,80
12.45,0.6,56
12.45,0.75,55
12.45,0.9,55
12.45,1.05,54
12.45,1.2,59
12.45,1.35,58
12.45,1.5,57
12.6,-1.5,73
12.6,-1.35,79
12.6,-1.2,80
12.6,-1.05,80
12.6,-0.9,87
12.6,-0.75,104
12.6,-0.6,104
12.6,-0.45,127
12.6,-0.3,105
12.6,-0.15,105
12.6,0.0,81
12.6,0.15,98
12.6,0.3,87
12.6,0.45,80
12.6,0.6,56
12.6,0.75,55
12.6,0.9,55
12.6,1.05,54
12.6,1.2,54
12.6,1.35,53
12.6,1.5,57
12.75,-1.5,79
12.75,-1.35,79
12.75,-1.2,79
12.75,-1.05,80
12.75,-0.9,80
12.75,-0.75,104
12.75,-0.6,109
12.75,-0.45,104
12.75,-0.3,104
12.75,-0.15,81
12.75,0.0,81
12.75,0.15,81
12.75,0.3,81
12.75,0.45,81
12.75,0.6,56
12.75,0.75,55
12.75,0.9,55
12.75,1.05,54
12.75,1.2,54
12.75,1.35,53
12.75,1.5,52
12.9,-1.5,79
12.9,-1.35,79
12.9,-1.2,79
12.9,-1.05,79
12.9,-0.9,102
12.9,-0.75,102
12.9,-0.6,103
12.9,-0.45,103
12.9,-0.3,103
12.9,-0.15,81
12.9,0.0,80
12.9,0.15,80
12.9,0.3,80
12.9,0.45,56
12.9,0.6,56
12.9,0.75,50
12.9,0.9,55
12.9,1.05,54
12.9,1.2,53
12.9,1.35,53
12.9,1.5,52
13.05,-1.5,79
13.05,-1.35,79
13.05,-1.2,79
13.05,-1.05,95
13.05,-0.9,101
13.05,-0.75,79
13.05,-0.6,103
13.05,-0.45,103
13.05,-0.3,80
13.05,-0.15,80
13.05,0.0,80
13.05,0.15,80
13.05,0.3,80
13.05,0.45,56
13.05,0.6,55
13.05,0.75,55
13.05,0.9,49
13.05,1.05,48
13.05,1.2,48
13.05,1.35,47
13.05,1.5,52
