-3.0,-1.5,168
-3.0,-1.35,169
-3.0,-1.2,169
-3.0,-1.05,169
-3.0,-0.9,169
-3.0,-0.75,169
-3.0,-0.6,170
-3.0,-0.45,170
-3.0,-0.3,141
-3.0,-0.15,141
-3.0,0.0,136
-3.0,0.15,136
-3.0,0.3,137
-3.0,0.45,136
-3.0,0.6,135
-3.0,0.75,134
-3.0,0.9,132
-3.0,1.05,131
-3.0,1.2,130
-3.0,1.35,129
-3.0,1.5,128
-2.85,-1.5,168
-2.85,-1.35,169
-2.85,-1.2,170
-2.85,-1.05,169
-2.85,-0.9,170
-2.85,-0.75,170
-2.85,-0.6,170
-2.85,-0.45,170
-2.85,-0.3,151
-2.85,-0.15,151
-2.85,0.0,136
-2.85,0.15,151
-2.85,0.3,136
-2.85,0.45,135
-2.85,0.6,134
-2.85,0.75,133
-2.85,0.9,132
-2.85,1.05,131
-2.85,1.2,130
-2.85,1.35,129
-2.85,1.5,128
-2.7,-1.5,167
-2.7,-1.35,168
-2.7,-1.2,170
-2.7,-1.05,171
-2.7,-0.9,170
-2.7,-0.75,170
-2.7,-0.6,170
-2.7,-0.45,171
-2.7,-0.3,151
-2.7,-0.15,151
-2.7,0.0,151
-2.7,0.15,150
-2.7,0.3,136
-2.7,0.45,135
-2.7,0.6,134
-2.7,0.75,133
-2.7,0.9,132
-2.7,1.05,131
-2.7,1.2,130
-2.7,1.35,142
-2.7,1.5,154
-2.55,-1.5,167
-2.55,-1.35,168
-2.55,-1.2,169
-2.55,-1.05,170
-2.55,-0.9,178
-2.55,-0.75,179
-2.55,-0.6,179
-2.55,-0.45,171
-2.55,-0.3,171
-2.55,-0.15,181
-2.55,0.0,181
-2.55,0.15,153
-2.55,0.3,136
-2.55,0.45,135
-2.55,0.6,134
-2.55,0.75,133
-2.55,0.9,131
-2.55,1.05,144
-2.55,1.2,143
-2.55,1.35,156
-2.55,1.5,154
-2.4,-1.5,166
-2.4,-1.35,167
-2.4,-1.2,169
-2.4,-1.05,170
-2.4,-0.9,178
-2.4,-0.75,179
-2.4,-0.6,179
-2.4,-0.45,180
-2.4,-0.3,181
-2.4,-0.15,181
-2.4,0.0,181
-2.4,0.15,152
-2.4,0.3,151
-2.4,0.45,134
-2.4,0.6,133
-2.4,0.75,147
-2.4,0.9,145
-2.4,1.05,144
-2.4,1.2,157
-2.4,1.35,156
-2.4,1.5,143
-2.25,-1.5,166
-2.25,-1.35,167
-2.25,-1.2,168
-2.25,-1.05,169
-2.25,-0.9,170
-2.25,-0.75,179
-2.25,-0.6,179
-2.25,-0.45,180
-2.25,-0.3,181
-2.25,-0.15,181
-2.25,0.0,180
-2.25,0.15,151
-2.25,0.3,151
-2.25,0.45,150
-2.25,0.6,148
-2.25,0.75,146
-2.25,0.9,145
-2.25,1.05,144
-2.25,1.2,143
-2.25,1.35,143
-2.25,1.5,143
-2.1,-1.5,165
-2.1,-1.35,167
-2.1,-1.2,168
-2.1,-1.05,169
-2.1,-0.9,170
-2.1,-0.75,178
-2.1,-0.6,179
-2.1,-0.45,181
-2.1,-0.3,181
-2.1,-0.15,181
-2.1,0.0,181
-2.1,0.15,181
-2.1,0.3,150
-2.1,0.45,149
-2.1,0.6,148
-2.1,0.75,147
-2.1,0.9,145
-2.1,1.05,144
-2.1,1.2,143
-2.1,1.35,143
-2.1,1.5,143
-1.95,-1.5,145
-1.95,-1.35,166
-1.95,-1.2,167
-1.95,-1.05,168
-1.95,-0.9,169
-1.95,-0.75,180
-1.95,-0.6,181
-1.95,-0.45,181
-1.95,-0.3,181
-1.95,-0.15,181
-1.95,0.0,181
-1.95,0.15,152
-1.95,0.3,180
-1.95,0.45,179
-1.95,0.6,150
-1.95,0.75,147
-1.95,0.9,146
-1.95,1.05,145
-1.95,1.2,143
-1.95,1.35,143
-1.95,1.5,143
-1.8,-1.5,144
-1.8,-1.35,145
-1.8,-1.2,146
-1.8,-1.05,168
-1.8,-0.9,179
-1.8,-0.75,179
-1.8,-0.6,181
-1.8,-0.45,181
-1.8,-0.3,181
-1.8,-0.15,181
-1.8,0.0,152
-1.8,0.15,181
-1.8,0.3,181
-1.8,0.45,181
-1.8,0.6,149
-1.8,0.75,149
-1.8,0.9,148
-1.8,1.05,145
-1.8,1.2,144
-1.8,1.35,143
-1.8,1.5,157
-1.65,-1.5,143
-1.65,-1.35,172
-1.65,-1.2,144
-1.65,-1.05,148
-1.65,-0.9,149
-1.65,-0.75,149
-1.65,-0.6,158
-1.65,-0.45,158
-1.65,-0.3,158
-1.65,-0.15,180
-1.65,0.0,181
-1.65,0.15,181
-1.65,0.3,180
-1.65,0.45,180
-1.65,0.6,159
-1.65,0.75,158
-1.65,0.9,148
-1.65,1.05,147
-1.65,1.2,132
-1.65,1.35,131
-1.65,1.5,144
-1.5,-1.5,141
-1.5,-1.35,142
-1.5,-1.2,155
-1.5,-1.05,155
-1.5,-0.9,148
-1.5,-0.75,148
-1.5,-0.6,149
-1.5,-0.45,166
-1.5,-0.3,166
-1.5,-0.15,188
-1.5,0.0,188
-1.5,0.15,143
-1.5,0.3,143
-1.5,0.45,143
-1.5,0.6,157
-1.5,0.75,114
-1.5,0.9,144
-1.5,1.05,144
-1.5,1.2,128
-1.5,1.35,118
-1.5,1.5,117
-1.35,-1.5,80
-1.35,-1.35,111
-1.35,-1.2,111
-1.35,-1.05,112
-1.35,-0.9,75
-1.35,-0.75,75
-1.35,-0.6,76
-1.35,-0.45,106
-1.35,-0.3,105
-1.35,-0.15,106
-1.35,0.0,106
-1.35,0.15,98
-1.35,0.3,98
-1.35,0.45,98
-1.35,0.6,98
-1.35,0.75,99
-1.35,0.9,128
-1.35,1.05,129
-1.35,1.2,129
-1.35,1.35,129
-1.35,1.5,126
-1.2,-1.5,66
-1.2,-1.35,96
-1.2,-1.2,96
-1.2,-1.05,96
-1.2,-0.9,105
-1.2,-0.75,105
-1.2,-0.6,105
-1.2,-0.45,105
-1.2,-0.3,106
-1.2,-0.15,135
-1.2,0.0,106
-1.2,0.15,106
-1.2,0.3,106
-1.2,0.45,128
-1.2,0.6,128
-1.2,0.75,129
-1.2,0.9,129
-1.2,1.05,130
-1.2,1.2,129
-1.2,1.35,130
-1.2,1.5,130
-1.05,-1.5,97
-1.05,-1.35,97
-1.05,-1.2,97
-1.05,-1.05,127
-1.05,-0.9,127
-1.05,-0.75,127
-1.05,-0.6,105
-1.05,-0.45,105
-1.05,-0.3,135
-1.05,-0.15,135
-1.05,0.0,135
-1.05,0.15,106
-1.05,0.3,128
-1.05,0.45,129
-1.05,0.6,129
-1.05,0.75,129
-1.05,0.9,130
-1.05,1.05,130
-1.05,1.2,131
-1.05,1.35,131
-1.05,1.5,131
-0.9,-1.5,97
-0.9,-1.35,97
-0.9,-1.2,97
-0.9,-1.05,97
-0.9,-0.9,97
-0.9,-0.75,127
-0.9,-0.6,127
-0.9,-0.45,127
-0.9,-0.3,106
-0.9,-0.15,135
-0.9,0.0,136
-0.9,0.15,136
-0.9,0.3,136
-0.9,0.45,129
-0.9,0.6,129
-0.9,0.75,130
-0.9,0.9,130
-0.9,1.05,131
-0.9,1.2,131
-0.9,1.35,131
-0.9,1.5,131
-0.75,-1.5,97
-0.75,-1.35,97
-0.75,-1.2,97
-0.75,-1.05,98
-0.75,-0.9,98
-0.75,-0.75,98
-0.75,-0.6,128
-0.75,-0.45,128
-0.75,-0.3,128
-0.75,-0.15,136
-0.75,0.0,165
-0.75,0.15,166
-0.75,0.3,136
-0.75,0.45,158
-0.75,0.6,158
-0.75,0.75,158
-0.75,0.9,158
-0.75,1.05,158
-0.75,1.2,131
-0.75,1.35,131
-0.75,1.5,131
-0.6,-1.5,97
-0.6,-1.35,119
-0.6,-1.2,119
-0.6,-1.05,119
-0.6,-0.9,120
-0.6,-0.75,120
-0.6,-0.6,120
-0.6,-0.45,150
-0.6,-0.3,180
-0.6,-0.15,210
-0.6,0.0,188
-0.6,0.15,158
-0.6,0.3,158
-0.6,0.45,136
-0.6,0.6,151
-0.6,0.75,151
-0.6,0.9,151
-0.6,1.05,151
-0.6,1.2,151
-0.6,1.35,151
-0.6,1.5,152
-0.45,-1.5,111
-0.45,-1.35,111
-0.45,-1.2,112
-0.45,-1.05,120
-0.45,-0.9,120
-0.45,-0.75,120
-0.45,-0.6,120
-0.45,-0.45,120
-0.45,-0.3,165
-0.45,-0.15,195
-0.45,0.0,180
-0.45,0.15,209
-0.45,0.3,173
-0.45,0.45,173
-0.45,0.6,165
-0.45,0.75,165
-0.45,0.9,180
-0.45,1.05,180
-0.45,1.2,180
-0.45,1.35,166
-0.45,1.5,166
-0.3,-1.5,111
-0.3,-1.35,111
-0.3,-1.2,111
-0.3,-1.05,112
-0.3,-0.9,112
-0.3,-0.75,112
-0.3,-0.6,83
-0.3,-0.45,120
-0.3,-0.3,157
-0.3,-0.15,210
-0.3,0.0,210
-0.3,0.15,210
-0.3,0.3,211
-0.3,0.45,211
-0.3,0.6,202
-0.3,0.75,181
-0.3,0.9,181
-0.3,1.05,181
-0.3,1.2,181
-0.3,1.35,181
-0.3,1.5,166
-0.15,-1.5,145
-0.15,-1.35,146
-0.15,-1.2,147
-0.15,-1.05,147
-0.15,-0.9,118
-0.15,-0.75,126
-0.15,-0.6,127
-0.15,-0.45,157
-0.15,-0.3,128
-0.15,-0.15,158
-0.15,0.0,180
-0.15,0.15,210
-0.15,0.3,210
-0.15,0.45,211
-0.15,0.6,211
-0.15,0.75,211
-0.15,0.9,181
-0.15,1.05,181
-0.15,1.2,188
-0.15,1.35,166
-0.15,1.5,172
0.0,-1.5,73
0.0,-1.35,116
0.0,-1.2,117
0.0,-1.05,118
0.0,-0.9,118
0.0,-0.75,148
0.0,-0.6,150
0.0,-0.45,150
0.0,-0.3,158
0.0,-0.15,151
0.0,0.0,181
0.0,0.15,203
0.0,0.3,210
0.0,0.45,210
0.0,0.6,233
0.0,0.75,211
0.0,0.9,175
0.0,1.05,182
0.0,1.2,213
0.0,1.35,180
0.0,1.5,172
0.15,-1.5,72
0.15,-1.35,73
0.15,-1.2,81
0.15,-1.05,117
0.15,-0.9,140
0.15,-0.75,150
0.15,-0.6,150
0.15,-0.45,151
0.15,-0.3,152
0.15,-0.15,152
0.15,0.0,181
0.15,0.15,181
0.15,0.3,211
0.15,0.45,218
0.15,0.6,197
0.15,0.75,182
0.15,0.9,154
0.15,1.05,154
0.15,1.2,161
0.15,1.35,161
0.15,1.5,180
0.3,-1.5,72
0.3,-1.35,73
0.3,-1.2,73
0.3,-1.05,105
0.3,-0.9,148
0.3,-0.75,149
0.3,-0.6,128
0.3,-0.45,128
0.3,-0.3,129
0.3,-0.15,129
0.3,0.0,129
0.3,0.15,158
0.3,0.3,159
0.3,0.45,196
0.3,0.6,182
0.3,0.75,153
0.3,0.9,153
0.3,1.05,160
0.3,1.2,160
0.3,1.35,160
0.3,1.5,160
0.45,-1.5,72
0.45,-1.35,72
0.45,-1.2,82
0.45,-1.05,82
0.45,-0.9,148
0.45,-0.75,149
0.45,-0.6,127
0.45,-0.45,128
0.45,-0.3,128
0.45,-0.15,128
0.45,0.0,113
0.45,0.15,136
0.45,0.3,136
0.45,0.45,150
0.45,0.6,150
0.45,0.75,129
0.45,0.9,116
0.45,1.05,116
0.45,1.2,117
0.45,1.35,117
0.45,1.5,117
0.6,-1.5,52
0.6,-1.35,52
0.6,-1.2,23
0.6,-1.05,23
0.6,-0.9,23
0.6,-0.75,97
0.6,-0.6,60
0.6,-0.45,105
0.6,-0.3,106
0.6,-0.15,113
0.6,0.0,136
0.6,0.15,113
0.6,0.3,121
0.6,0.45,128
0.6,0.6,128
0.6,0.75,91
0.6,0.9,91
0.6,1.05,93
0.6,1.2,115
0.6,1.35,116
0.6,1.5,116
0.75,-1.5,0
0.75,-1.35,23
0.75,-1.2,30
0.75,-1.05,23
0.75,-0.9,23
0.75,-0.75,23
0.75,-0.6,53
0.75,-0.45,61
0.75,-0.3,61
0.75,-0.15,68
0.75,0.0,98
0.75,0.15,76
0.75,0.3,98
0.75,0.45,98
0.75,0.6,91
0.75,0.75,91
0.75,0.9,91
0.75,1.05,61
0.75,1.2,91
0.75,1.35,116
0.75,1.5,146
0.9,-1.5,0
0.9,-1.35,0
0.9,-1.2,1
0.9,-1.05,1
0.9,-0.9,23
0.9,-0.75,23
0.9,-0.6,31
0.9,-0.45,31
0.9,-0.3,53
0.9,-0.15,76
0.9,0.0,76
0.9,0.15,61
0.9,0.3,69
0.9,0.45,76
0.9,0.6,76
0.9,0.75,76
0.9,0.9,91
0.9,1.05,91
0.9,1.2,91
0.9,1.35,84
0.9,1.5,84
1.05,-1.5,1
1.05,-1.35,1
1.05,-1.2,1
1.05,-1.05,8
1.05,-0.9,31
1.05,-0.75,31
1.05,-0.6,24
1.05,-0.45,38
1.05,-0.3,39
1.05,-0.15,83
1.05,0.0,91
1.05,0.15,76
1.05,0.3,76
1.05,0.45,76
1.05,0.6,91
1.05,0.75,91
1.05,0.9,84
1.05,1.05,84
1.05,1.2,84
1.05,1.35,84
1.05,1.5,84
1.2,-1.5,9
1.2,-1.35,1
1.2,-1.2,1
1.2,-1.05,30
1.2,-0.9,31
1.2,-0.75,31
1.2,-0.6,31
1.2,-0.45,39
1.2,-0.3,46
1.2,-0.15,54
1.2,0.0,76
1.2,0.15,68
1.2,0.3,68
1.2,0.45,91
1.2,0.6,91
1.2,0.75,84
1.2,0.9,84
1.2,1.05,84
1.2,1.2,84
1.2,1.35,84
1.2,1.5,76
1.35,-1.5,9
1.35,-1.35,9
1.35,-1.2,1
1.35,-1.05,1
1.35,-0.9,1
1.35,-0.75,1
1.35,-0.6,1
1.35,-0.45,16
1.35,-0.3,24
1.35,-0.15,31
1.35,0.0,24
1.35,0.15,61
1.35,0.3,68
1.35,0.45,91
1.35,0.6,91
1.35,0.75,84
1.35,0.9,76
1.35,1.05,76
1.35,1.2,76
1.35,1.35,76
1.35,1.5,76
1.5,-1.5,2
1.5,-1.35,2
1.5,-1.2,9
1.5,-1.05,1
1.5,-0.9,1
1.5,-0.75,1
1.5,-0.6,16
1.5,-0.45,31
1.5,-0.3,31
1.5,-0.15,24
1.5,0.0,24
1.5,0.15,61
1.5,0.3,61
1.5,0.45,61
1.5,0.6,61
1.5,0.75,76
1.5,0.9,76
1.5,1.05,76
1.5,1.2,76
1.5,1.35,76
1.5,1.5,76
1.65,-1.5,9
1.65,-1.35,9
1.65,-1.2,16
1.65,-1.05,24
1.65,-0.9,1
1.65,-0.75,9
1.65,-0.6,9
1.65,-0.45,24
1.65,-0.3,31
1.65,-0.15,24
1.65,0.0,39
1.65,0.15,54
1.65,0.3,61
1.65,0.45,61
1.65,0.6,61
1.65,0.75,69
1.65,0.9,61
1.65,1.05,62
1.65,1.2,62
1.65,1.35,62
1.65,1.5,62
1.8,-1.5,9
1.8,-1.35,9
1.8,-1.2,9
1.8,-1.05,16
1.8,-0.9,16
1.8,-0.75,16
1.8,-0.6,46
1.8,-0.45,46
1.8,-0.3,46
1.8,-0.15,16
1.8,0.0,16
1.8,0.15,39
1.8,0.3,39
1.8,0.45,54
1.8,0.6,54
1.8,0.75,61
1.8,0.9,69
1.8,1.05,61
1.8,1.2,61
1.8,1.35,62
1.8,1.5,84
1.95,-1.5,9
1.95,-1.35,9
1.95,-1.2,9
1.95,-1.05,38
1.95,-0.9,38
1.95,-0.75,39
1.95,-0.6,39
1.95,-0.45,46
1.95,-0.3,39
1.95,-0.15,61
1.95,0.0,46
1.95,0.15,16
1.95,0.3,54
1.95,0.45,54
1.95,0.6,54
1.95,0.75,46
1.95,0.9,46
1.95,1.05,76
1.95,1.2,76
1.95,1.35,69
1.95,1.5,69
2.1,-1.5,59
2.1,-1.35,59
2.1,-1.2,60
2.1,-1.05,60
2.1,-0.9,61
2.1,-0.75,61
2.1,-0.6,53
2.1,-0.45,39
2.1,-0.3,61
2.1,-0.15,54
2.1,0.0,54
2.1,0.15,61
2.1,0.3,61
2.1,0.45,46
2.1,0.6,54
2.1,0.75,76
2.1,0.9,76
2.1,1.05,76
2.1,1.2,76
2.1,1.35,76
2.1,1.5,76
2.25,-1.5,60
2.25,-1.35,60
2.25,-1.2,82
2.25,-1.05,82
2.25,-0.9,83
2.25,-0.75,83
2.25,-0.6,83
2.25,-0.45,83
2.25,-0.3,53
2.25,-0.15,61
2.25,0.0,83
2.25,0.15,54
2.25,0.3,39
2.25,0.45,46
2.25,0.6,84
2.25,0.75,84
2.25,0.9,84
2.25,1.05,84
2.25,1.2,84
2.25,1.35,84
2.25,1.5,84
2.4,-1.5,89
2.4,-1.35,89
2.4,-1.2,90
2.4,-1.05,83
2.4,-0.9,83
2.4,-0.75,113
2.4,-0.6,98
2.4,-0.45,68
2.4,-0.3,76
2.4,-0.15,68
2.4,0.0,68
2.4,0.15,61
2.4,0.3,76
2.4,0.45,76
2.4,0.6,68
2.4,0.75,68
2.4,0.9,68
2.4,1.05,91
2.4,1.2,83
2.4,1.35,84
2.4,1.5,84
2.55,-1.5,125
2.55,-1.35,119
2.55,-1.2,119
2.55,-1.05,120
2.55,-0.9,171
2.55,-0.75,165
2.55,-0.6,120
2.55,-0.45,106
2.55,-0.3,76
2.55,-0.15,39
2.55,0.0,61
2.55,0.15,54
2.55,0.3,76
2.55,0.45,76
2.55,0.6,76
2.55,0.75,76
2.55,0.9,76
2.55,1.05,76
2.55,1.2,76
2.55,1.35,61
2.55,1.5,61
2.7,-1.5,148
2.7,-1.35,148
2.7,-1.2,148
2.7,-1.05,178
2.7,-0.9,201
2.7,-0.75,202
2.7,-0.6,188
2.7,-0.45,158
2.7,-0.3,113
2.7,-0.15,1
2.7,0.0,24
2.7,0.15,76
2.7,0.3,76
2.7,0.45,76
2.7,0.6,76
2.7,0.75,68
2.7,0.9,61
2.7,1.05,61
2.7,1.2,61
2.7,1.35,61
2.7,1.5,61
2.85,-1.5,125
2.85,-1.35,126
2.85,-1.2,126
2.85,-1.05,156
2.85,-0.9,157
2.85,-0.75,172
2.85,-0.6,203
2.85,-0.45,202
2.85,-0.3,135
2.85,-0.15,16
2.85,0.0,16
2.85,0.15,68
2.85,0.3,76
2.85,0.45,68
2.85,0.6,68
2.85,0.75,68
2.85,0.9,68
2.85,1.05,91
2.85,1.2,91
2.85,1.35,91
2.85,1.5,91
3.0,-1.5,103
3.0,-1.35,133
3.0,-1.2,134
3.0,-1.05,134
3.0,-0.9,149
3.0,-0.75,150
3.0,-0.6,180
3.0,-0.45,158
3.0,-0.3,128
3.0,-0.15,54
3.0,0.0,61
3.0,0.15,68
3.0,0.3,91
3.0,0.45,76
3.0,0.6,98
3.0,0.75,113
3.0,0.9,113
3.0,1.05,113
3.0,1.2,113
3.0,1.35,113
3.0,1.5,120
3.15,-1.5,53
3.15,-1.35,53
3.15,-1.2,82
3.15,-1.05,127
3.15,-0.9,105
3.15,-0.75,106
3.15,-0.6,128
3.15,-0.45,113
3.15,-0.3,91
3.15,-0.15,68
3.15,0.0,54
3.15,0.15,39
3.15,0.3,91
3.15,0.45,91
3.15,0.6,113
3.15,0.75,128
3.15,0.9,128
3.15,1.05,128
3.15,1.2,128
3.15,1.35,128
3.15,1.5,128
3.3,-1.5,53
3.3,-1.35,38
3.3,-1.2,68
3.3,-1.05,68
3.3,-0.9,76
3.3,-0.75,68
3.3,-0.6,98
3.3,-0.45,61
3.3,-0.3,61
3.3,-0.15,76
3.3,0.0,24
3.3,0.15,46
3.3,0.3,83
3.3,0.45,83
3.3,0.6,91
3.3,0.75,91
3.3,0.9,121
3.3,1.05,113
3.3,1.2,113
3.3,1.35,98
3.3,1.5,98
3.45,-1.5,68
3.45,-1.35,68
3.45,-1.2,68
3.45,-1.05,68
3.45,-0.9,68
3.45,-0.75,68
3.45,-0.6,83
3.45,-0.45,91
3.45,-0.3,61
3.45,-0.15,61
3.45,0.0,24
3.45,0.15,76
3.45,0.3,91
3.45,0.45,91
3.45,0.6,91
3.45,0.75,76
3.45,0.9,83
3.45,1.05,83
3.45,1.2,68
3.45,1.35,68
3.45,1.5,90
3.6,-1.5,148
3.6,-1.35,90
3.6,-1.2,90
3.6,-1.05,90
3.6,-0.9,90
3.6,-0.75,98
3.6,-0.6,106
3.6,-0.45,106
3.6,-0.3,39
3.6,-0.15,61
3.6,0.0,76
3.6,0.15,68
3.6,0.3,91
3.6,0.45,91
3.6,0.6,91
3.6,0.75,83
3.6,0.9,76
3.6,1.05,68
3.6,1.2,68
3.6,1.35,60
3.6,1.5,60
3.75,-1.5,119
3.75,-1.35,119
3.75,-1.2,120
3.75,-1.05,120
3.75,-0.9,120
3.75,-0.75,120
3.75,-0.6,106
3.75,-0.45,106
3.75,-0.3,61
3.75,-0.15,24
3.75,0.0,68
3.75,0.15,54
3.75,0.3,46
3.75,0.45,84
3.75,0.6,83
3.75,0.75,76
3.75,0.9,68
3.75,1.05,68
3.75,1.2,60
3.75,1.35,60
3.75,1.5,60
3.9,-1.5,120
3.9,-1.35,120
3.9,-1.2,120
3.9,-1.05,120
3.9,-0.9,120
3.9,-0.75,135
3.9,-0.6,135
3.9,-0.45,91
3.9,-0.3,68
3.9,-0.15,0
3.9,0.0,68
3.9,0.15,24
3.9,0.3,16
3.9,0.45,31
3.9,0.6,31
3.9,0.75,53
3.9,0.9,53
3.9,1.05,68
3.9,1.2,68
3.9,1.35,60
3.9,1.5,60
4.05,-1.5,120
4.05,-1.35,135
4.05,-1.2,135
4.05,-1.05,135
4.05,-0.9,135
4.05,-0.75,158
4.05,-0.6,165
4.05,-0.45,113
4.05,-0.3,143
4.05,-0.15,91
4.05,0.0,68
4.05,0.15,54
4.05,0.3,16
4.05,0.45,16
4.05,0.6,16
4.05,0.75,23
4.05,0.9,16
4.05,1.05,16
4.05,1.2,16
4.05,1.35,61
4.05,1.5,60
4.2,-1.5,134
4.2,-1.35,135
4.2,-1.2,127
4.2,-1.05,128
4.2,-0.9,128
4.2,-0.75,128
4.2,-0.6,143
4.2,-0.45,98
4.2,-0.3,113
4.2,-0.15,31
4.2,0.0,9
4.2,0.15,1
4.2,0.3,1
4.2,0.45,1
4.2,0.6,1
4.2,0.75,1
4.2,0.9,24
4.2,1.05,16
4.2,1.2,16
4.2,1.35,16
4.2,1.5,16
4.35,-1.5,105
4.35,-1.35,105
4.35,-1.2,128
4.35,-1.05,128
4.35,-0.9,98
4.35,-0.75,158
4.35,-0.6,195
4.35,-0.45,128
4.35,-0.3,54
4.35,-0.15,68
4.35,0.0,16
4.35,0.15,0
4.35,0.3,0
4.35,0.45,0
4.35,0.6,9
4.35,0.75,31
4.35,0.9,31
4.35,1.05,31
4.35,1.2,31
4.35,1.35,31
4.35,1.5,16
4.5,-1.5,83
4.5,-1.35,112
4.5,-1.2,113
4.5,-1.05,142
4.5,-0.9,195
4.5,-0.75,202
4.5,-0.6,165
4.5,-0.45,135
4.5,-0.3,68
4.5,-0.15,39
4.5,0.0,61
4.5,0.15,24
4.5,0.3,39
4.5,0.45,39
4.5,0.6,31
4.5,0.75,31
4.5,0.9,31
4.5,1.05,31
4.5,1.2,31
4.5,1.35,30
4.5,1.5,30
4.65,-1.5,112
4.65,-1.35,112
4.65,-1.2,83
4.65,-1.05,113
4.65,-0.9,128
4.65,-0.75,165
4.65,-0.6,173
4.65,-0.45,225
4.65,-0.3,113
4.65,-0.15,76
4.65,0.0,39
4.65,0.15,24
4.65,0.3,39
4.65,0.45,31
4.65,0.6,31
4.65,0.75,31
4.65,0.9,31
4.65,1.05,31
4.65,1.2,31
4.65,1.35,30
4.65,1.5,52
4.8,-1.5,75
4.8,-1.35,76
4.8,-1.2,76
4.8,-1.05,76
4.8,-0.9,106
4.8,-0.75,121
4.8,-0.6,143
4.8,-0.45,165
4.8,-0.3,61
4.8,-0.15,150
4.8,0.0,135
4.8,0.15,106
4.8,0.3,83
4.8,0.45,83
4.8,0.6,75
4.8,0.75,76
4.8,0.9,75
4.8,1.05,82
4.8,1.2,60
4.8,1.35,60
4.8,1.5,60
4.95,-1.5,75
4.95,-1.35,75
4.95,-1.2,76
4.95,-1.05,76
4.95,-0.9,76
4.95,-0.75,83
4.95,-0.6,173
4.95,-0.45,106
4.95,-0.3,128
4.95,-0.15,9
4.95,0.0,98
4.95,0.15,76
4.95,0.3,106
4.95,0.45,113
4.95,0.6,76
4.95,0.75,98
4.95,0.9,75
4.95,1.05,90
4.95,1.2,90
4.95,1.35,90
4.95,1.5,60
5.1,-1.5,46
5.1,-1.35,46
5.1,-1.2,46
5.1,-1.05,39
5.1,-0.9,39
5.1,-0.75,54
5.1,-0.6,113
5.1,-0.45,150
5.1,-0.3,143
5.1,-0.15,91
5.1,0.0,61
5.1,0.15,106
5.1,0.3,106
5.1,0.45,98
5.1,0.6,121
5.1,0.75,98
5.1,0.9,98
5.1,1.05,98
5.1,1.2,60
5.1,1.35,60
5.1,1.5,60
5.25,-1.5,46
5.25,-1.35,46
5.25,-1.2,46
5.25,-1.05,68
5.25,-0.9,61
5.25,-0.75,31
5.25,-0.6,98
5.25,-0.45,128
5.25,-0.3,1
5.25,-0.15,68
5.25,0.0,91
5.25,0.15,106
5.25,0.3,113
5.25,0.45,106
5.25,0.6,98
5.25,0.75,76
5.25,0.9,68
5.25,1.05,98
5.25,1.2,75
5.25,1.35,60
5.25,1.5,60
5.4,-1.5,53
5.4,-1.35,61
5.4,-1.2,61
5.4,-1.05,61
5.4,-0.9,68
5.4,-0.75,106
5.4,-0.6,83
5.4,-0.45,39
5.4,-0.3,39
5.4,-0.15,1
5.4,0.0,91
5.4,0.15,106
5.4,0.3,113
5.4,0.45,121
5.4,0.6,113
5.4,0.75,98
5.4,0.9,98
5.4,1.05,98
5.4,1.2,68
5.4,1.35,67
5.4,1.5,67
5.55,-1.5,61
5.55,-1.35,61
5.55,-1.2,61
5.55,-1.05,61
5.55,-0.9,98
5.55,-0.75,106
5.55,-0.6,76
5.55,-0.45,121
5.55,-0.3,135
5.55,-0.15,16
5.55,0.0,91
5.55,0.15,46
5.55,0.3,39
5.55,0.45,39
5.55,0.6,68
5.55,0.75,61
5.55,0.9,98
5.55,1.05,98
5.55,1.2,75
5.55,1.35,75
5.55,1.5,75
5.7,-1.5,107
5.7,-1.35,107
5.7,-1.2,68
5.7,-1.05,68
5.7,-0.9,76
5.7,-0.75,76
5.7,-0.6,76
5.7,-0.45,76
5.7,-0.3,61
5.7,-0.15,16
5.7,0.0,39
5.7,0.15,31
5.7,0.3,31
5.7,0.45,31
5.7,0.6,39
5.7,0.75,38
5.7,0.9,38
5.7,1.05,38
5.7,1.2,38
5.7,1.35,38
5.7,1.5,38
5.85,-1.5,114
5.85,-1.35,114
5.85,-1.2,122
5.85,-1.05,122
5.85,-0.9,83
5.85,-0.75,83
5.85,-0.6,76
5.85,-0.45,106
5.85,-0.3,83
5.85,-0.15,16
5.85,0.0,16
5.85,0.15,24
5.85,0.3,39
5.85,0.45,39
5.85,0.6,38
5.85,0.75,38
5.85,0.9,46
5.85,1.05,46
5.85,1.2,38
5.85,1.35,38
5.85,1.5,31
6.0,-1.5,114
6.0,-1.35,114
6.0,-1.2,114
6.0,-1.05,143
6.0,-0.9,158
6.0,-0.75,135
6.0,-0.6,135
6.0,-0.45,158
6.0,-0.3,68
6.0,-0.15,46
6.0,0.0,106
6.0,0.15,39
6.0,0.3,39
6.0,0.45,38
6.0,0.6,16
6.0,0.75,16
6.0,0.9,16
6.0,1.05,9
6.0,1.2,8
6.0,1.35,8
6.0,1.5,8
6.15,-1.5,129
6.15,-1.35,122
6.15,-1.2,121
6.15,-1.05,151
6.15,-0.9,158
6.15,-0.75,158
6.15,-0.6,158
6.15,-0.45,150
6.15,-0.3,61
6.15,-0.15,24
6.15,0.0,98
6.15,0.15,68
6.15,0.3,46
6.15,0.45,53
6.15,0.6,53
6.15,0.75,53
6.15,0.9,53
6.15,1.05,53
6.15,1.2,53
6.15,1.35,52
6.15,1.5,52
6.3,-1.5,85
6.3,-1.35,144
6.3,-1.2,144
6.3,-1.05,151
6.3,-0.9,151
6.3,-0.75,158
6.3,-0.6,143
6.3,-0.45,135
6.3,-0.3,106
6.3,-0.15,91
6.3,0.0,54
6.3,0.15,31
6.3,0.3,68
6.3,0.45,61
6.3,0.6,68
6.3,0.75,68
6.3,0.9,60
6.3,1.05,53
6.3,1.2,53
6.3,1.35,53
6.3,1.5,53
6.45,-1.5,100
6.45,-1.35,144
6.45,-1.2,122
6.45,-1.05,121
6.45,-0.9,121
6.45,-0.75,128
6.45,-0.6,83
6.45,-0.45,128
6.45,-0.3,143
6.45,-0.15,68
6.45,0.0,121
6.45,0.15,91
6.45,0.3,61
6.45,0.45,68
6.45,0.6,68
6.45,0.75,68
6.45,0.9,68
6.45,1.05,68
6.45,1.2,60
6.45,1.35,60
6.45,1.5,60
6.6,-1.5,137
6.6,-1.35,100
6.6,-1.2,99
6.6,-1.05,99
6.6,-0.9,84
6.6,-0.75,84
6.6,-0.6,68
6.6,-0.45,76
6.6,-0.3,98
6.6,-0.15,76
6.6,0.0,68
6.6,0.15,76
6.6,0.3,68
6.6,0.45,68
6.6,0.6,68
6.6,0.75,68
6.6,0.9,68
6.6,1.05,61
6.6,1.2,60
6.6,1.35,60
6.6,1.5,53
6.75,-1.5,144
6.75,-1.35,144
6.75,-1.2,144
6.75,-1.05,106
6.75,-0.9,91
6.75,-0.75,76
6.75,-0.6,91
6.75,-0.45,83
6.75,-0.3,68
6.75,-0.15,46
6.75,0.0,46
6.75,0.15,61
6.75,0.3,24
6.75,0.45,68
6.75,0.6,61
6.75,0.75,61
6.75,0.9,61
6.75,1.05,60
6.75,1.2,60
6.75,1.35,53
6.75,1.5,53
6.9,-1.5,144
6.9,-1.35,144
6.9,-1.2,144
6.9,-1.05,106
6.9,-0.9,98
6.9,-0.75,98
6.9,-0.6,98
6.9,-0.45,76
6.9,-0.3,39
6.9,-0.15,61
6.9,0.0,68
6.9,0.15,53
6.9,0.3,61
6.9,0.45,16
6.9,0.6,9
6.9,0.75,46
6.9,0.9,46
6.9,1.05,46
6.9,1.2,45
6.9,1.35,45
6.9,1.5,53
7.05,-1.5,159
7.05,-1.35,144
7.05,-1.2,106
7.05,-1.05,84
7.05,-0.9,76
7.05,-0.75,76
7.05,-0.6,54
7.05,-0.45,54
7.05,-0.3,16
7.05,-0.15,91
7.05,0.0,135
7.05,0.15,61
7.05,0.3,53
7.05,0.45,46
7.05,0.6,38
7.05,0.75,9
7.05,0.9,16
7.05,1.05,9
7.05,1.2,9
7.05,1.35,9
7.05,1.5,9
7.2,-1.5,129
7.2,-1.35,128
7.2,-1.2,121
7.2,-1.05,121
7.2,-0.9,106
7.2,-0.75,91
7.2,-0.6,76
7.2,-0.45,46
7.2,-0.3,24
7.2,-0.15,83
7.2,0.0,91
7.2,0.15,61
7.2,0.3,46
7.2,0.45,38
7.2,0.6,24
7.2,0.75,0
7.2,0.9,1
7.2,1.05,1
7.2,1.2,1
7.2,1.35,9
7.2,1.5,9
7.35,-1.5,129
7.35,-1.35,121
7.35,-1.2,121
7.35,-1.05,121
7.35,-0.9,121
7.35,-0.75,121
7.35,-0.6,68
7.35,-0.45,54
7.35,-0.3,106
7.35,-0.15,76
7.35,0.0,54
7.35,0.15,46
7.35,0.3,39
7.35,0.45,46
7.35,0.6,16
7.35,0.75,1
7.35,0.9,23
7.35,1.05,1
7.35,1.2,1
7.35,1.35,1
7.35,1.5,9
7.5,-1.5,114
7.5,-1.35,114
7.5,-1.2,114
7.5,-1.05,114
7.5,-0.9,113
7.5,-0.75,91
7.5,-0.6,91
7.5,-0.45,54
7.5,-0.3,46
7.5,-0.15,68
7.5,0.0,68
7.5,0.15,46
7.5,0.3,39
7.5,0.45,38
7.5,0.6,75
7.5,0.75,68
7.5,0.9,75
7.5,1.05,75
7.5,1.2,75
7.5,1.35,75
7.5,1.5,75
7.65,-1.5,173
7.65,-1.35,181
7.65,-1.2,151
7.65,-1.05,91
7.65,-0.9,128
7.65,-0.75,128
7.65,-0.6,83
7.65,-0.45,76
7.65,-0.3,54
7.65,-0.15,24
7.65,0.0,31
7.65,0.15,76
7.65,0.3,76
7.65,0.45,76
7.65,0.6,75
7.65,0.75,75
7.65,0.9,75
7.65,1.05,75
7.65,1.2,75
7.65,1.35,75
7.65,1.5,75
7.8,-1.5,136
7.8,-1.35,136
7.8,-1.2,136
7.8,-1.05,136
7.8,-0.9,136
7.8,-0.75,128
7.8,-0.6,76
7.8,-0.45,106
7.8,-0.3,91
7.8,-0.15,9
7.8,0.0,9
7.8,0.15,61
7.8,0.3,83
7.8,0.45,83
7.8,0.6,91
7.8,0.75,90
7.8,0.9,75
7.8,1.05,76
7.8,1.2,76
7.8,1.35,76
7.8,1.5,75
7.95,-1.5,144
7.95,-1.35,144
7.95,-1.2,143
7.95,-1.05,121
7.95,-0.9,106
7.95,-0.75,106
7.95,-0.6,76
7.95,-0.45,68
7.95,-0.3,91
7.95,-0.15,61
7.95,0.0,121
7.95,0.15,76
7.95,0.3,150
7.95,0.45,150
7.95,0.6,120
7.95,0.75,120
7.95,0.9,120
7.95,1.05,120
7.95,1.2,105
7.95,1.35,104
7.95,1.5,104
8.1,-1.5,106
8.1,-1.35,113
8.1,-1.2,121
8.1,-1.05,121
8.1,-0.9,113
8.1,-0.75,98
8.1,-0.6,98
8.1,-0.45,113
8.1,-0.3,76
8.1,-0.15,31
8.1,0.0,68
8.1,0.15,121
8.1,0.3,106
8.1,0.45,106
8.1,0.6,106
8.1,0.75,90
8.1,0.9,90
8.1,1.05,61
8.1,1.2,61
8.1,1.35,60
8.1,1.5,60
8.25,-1.5,84
8.25,-1.35,84
8.25,-1.2,61
8.25,-1.05,61
8.25,-0.9,84
8.25,-0.75,83
8.25,-0.6,91
8.25,-0.45,98
8.25,-0.3,158
8.25,-0.15,150
8.25,0.0,98
8.25,0.15,113
8.25,0.3,106
8.25,0.45,106
8.25,0.6,106
8.25,0.75,98
8.25,0.9,90
8.25,1.05,60
8.25,1.2,60
8.25,1.35,46
8.25,1.5,45
8.4,-1.5,68
8.4,-1.35,68
8.4,-1.2,61
8.4,-1.05,61
8.4,-0.9,54
8.4,-0.75,54
8.4,-0.6,128
8.4,-0.45,150
8.4,-0.3,143
8.4,-0.15,158
8.4,0.0,173
8.4,0.15,76
8.4,0.3,128
8.4,0.45,128
8.4,0.6,128
8.4,0.75,120
8.4,0.9,120
8.4,1.05,83
8.4,1.2,83
8.4,1.35,60
8.4,1.5,60
8.55,-1.5,61
8.55,-1.35,61
8.55,-1.2,39
8.55,-1.05,39
8.55,-0.9,9
8.55,-0.75,9
8.55,-0.6,98
8.55,-0.45,121
8.55,-0.3,91
8.55,-0.15,106
8.55,0.0,135
8.55,0.15,106
8.55,0.3,98
8.55,0.45,61
8.55,0.6,76
8.55,0.75,83
8.55,0.9,83
8.55,1.05,90
8.55,1.2,90
8.55,1.35,90
8.55,1.5,90
8.7,-1.5,31
8.7,-1.35,31
8.7,-1.2,38
8.7,-1.05,38
8.7,-0.9,68
8.7,-0.75,53
8.7,-0.6,83
8.7,-0.45,83
8.7,-0.3,9
8.7,-0.15,106
8.7,0.0,39
8.7,0.15,68
8.7,0.3,31
8.7,0.45,31
8.7,0.6,31
8.7,0.75,31
8.7,0.9,54
8.7,1.05,54
8.7,1.2,83
8.7,1.35,83
8.7,1.5,90
8.85,-1.5,8
8.85,-1.35,8
8.85,-1.2,0
8.85,-1.05,0
8.85,-0.9,23
8.85,-0.75,53
8.85,-0.6,76
8.85,-0.45,128
8.85,-0.3,128
8.85,-0.15,61
8.85,0.0,76
8.85,0.15,31
8.85,0.3,61
8.85,0.45,31
8.85,0.6,53
8.85,0.75,53
8.85,0.9,53
8.85,1.05,53
8.85,1.2,61
8.85,1.35,61
8.85,1.5,90
9.0,-1.5,16
9.0,-1.35,16
9.0,-1.2,0
9.0,-1.05,16
9.0,-0.9,16
9.0,-0.75,16
9.0,-0.6,143
9.0,-0.45,255
9.0,-0.3,143
9.0,-0.15,68
9.0,0.0,16
9.0,0.15,24
9.0,0.3,61
9.0,0.45,31
9.0,0.6,31
9.0,0.75,31
9.0,0.9,53
9.0,1.05,53
9.0,1.2,53
9.0,1.35,60
9.0,1.5,60
9.15,-1.5,16
9.15,-1.35,16
9.15,-1.2,16
9.15,-1.05,60
9.15,-0.9,53
9.15,-0.75,98
9.15,-0.6,143
9.15,-0.45,202
9.15,-0.3,188
9.15,-0.15,68
9.15,0.0,39
9.15,0.15,54
9.15,0.3,61
9.15,0.45,54
9.15,0.6,31
9.15,0.75,31
9.15,0.9,31
9.15,1.05,31
9.15,1.2,31
9.15,1.35,60
9.15,1.5,60
9.3,-1.5,16
9.3,-1.35,16
9.3,-1.2,53
9.3,-1.05,68
9.3,-0.9,98
9.3,-0.75,98
9.3,-0.6,150
9.3,-0.45,158
9.3,-0.3,121
9.3,-0.15,76
9.3,0.0,39
9.3,0.15,98
9.3,0.3,106
9.3,0.45,61
9.3,0.6,61
9.3,0.75,61
9.3,0.9,53
9.3,1.05,53
9.3,1.2,53
9.3,1.35,31
9.3,1.5,31
9.45,-1.5,61
9.45,-1.35,61
9.45,-1.2,76
9.45,-1.05,53
9.45,-0.9,83
9.45,-0.75,68
9.45,-0.6,113
9.45,-0.45,76
9.45,-0.3,91
9.45,-0.15,91
9.45,0.0,143
9.45,0.15,173
9.45,0.3,113
9.45,0.45,61
9.45,0.6,61
9.45,0.75,61
9.45,0.9,61
9.45,1.05,53
9.45,1.2,53
9.45,1.35,31
9.45,1.5,31
9.6,-1.5,91
9.6,-1.35,120
9.6,-1.2,120
9.6,-1.05,120
9.6,-0.9,113
9.6,-0.75,105
9.6,-0.6,121
9.6,-0.45,113
9.6,-0.3,46
9.6,-0.15,54
9.6,0.0,143
9.6,0.15,150
9.6,0.3,135
9.6,0.45,98
9.6,0.6,98
9.6,0.75,98
9.6,0.9,97
9.6,1.05,97
9.6,1.2,97
9.6,1.35,75
9.6,1.5,46
9.75,-1.5,121
9.75,-1.35,121
9.75,-1.2,121
9.75,-1.05,158
9.75,-0.9,165
9.75,-0.75,165
9.75,-0.6,128
9.75,-0.45,128
9.75,-0.3,121
9.75,-0.15,76
9.75,0.0,158
9.75,0.15,173
9.75,0.3,135
9.75,0.45,105
9.75,0.6,91
9.75,0.75,98
9.75,0.9,98
9.75,1.05,90
9.75,1.2,97
9.75,1.35,97
9.75,1.5,96
9.9,-1.5,128
9.9,-1.35,136
9.9,-1.2,136
9.9,-1.05,136
9.9,-0.9,136
9.9,-0.75,136
9.9,-0.6,180
9.9,-0.45,165
9.9,-0.3,165
9.9,-0.15,143
9.9,0.0,173
9.9,0.15,158
9.9,0.3,150
9.9,0.45,83
9.9,0.6,83
9.9,0.75,83
9.9,0.9,90
9.9,1.05,90
9.9,1.2,90
9.9,1.35,90
9.9,1.5,119
10.05,-1.5,106
10.05,-1.35,106
10.05,-1.2,106
10.05,-1.05,151
10.05,-0.9,151
10.05,-0.75,143
10.05,-0.6,180
10.05,-0.45,225
10.05,-0.3,195
10.05,-0.15,195
10.05,0.0,165
10.05,0.15,135
10.05,0.3,120
10.05,0.45,83
10.05,0.6,83
10.05,0.75,83
10.05,0.9,83
10.05,1.05,83
10.05,1.2,67
10.05,1.35,68
10.05,1.5,68
10.2,-1.5,165
10.2,-1.35,165
10.2,-1.2,165
10.2,-1.05,165
10.2,-0.9,172
10.2,-0.75,180
10.2,-0.6,217
10.2,-0.45,158
10.2,-0.3,180
10.2,-0.15,165
10.2,0.0,165
10.2,0.15,150
10.2,0.3,143
10.2,0.45,98
10.2,0.6,98
10.2,0.75,67
10.2,0.9,67
10.2,1.05,67
10.2,1.2,67
10.2,1.35,67
10.2,1.5,67
10.35,-1.5,209
10.35,-1.35,209
10.35,-1.2,209
10.35,-1.05,210
10.35,-0.9,210
10.35,-0.75,225
10.35,-0.6,225
10.35,-0.45,195
10.35,-0.3,247
10.35,-0.15,217
10.35,0.0,150
10.35,0.15,113
10.35,0.3,106
10.35,0.45,106
10.35,0.6,98
10.35,0.75,75
10.35,0.9,75
10.35,1.05,67
10.35,1.2,67
10.35,1.35,67
10.35,1.5,67
10.5,-1.5,209
10.5,-1.35,209
10.5,-1.2,209
10.5,-1.05,195
10.5,-0.9,224
10.5,-0.75,194
10.5,-0.6,195
10.5,-0.45,225
10.5,-0.3,255
10.5,-0.15,255
10.5,0.0,195
10.5,0.15,128
10.5,0.3,76
10.5,0.45,76
10.5,0.6,68
10.5,0.75,68
10.5,0.9,68
10.5,1.05,68
10.5,1.2,68
10.5,1.35,67
10.5,1.5,67
10.65,-1.5,180
10.65,-1.35,180
10.65,-1.2,180
10.65,-1.05,172
10.65,-0.9,172
10.65,-0.75,209
10.65,-0.6,224
10.65,-0.45,255
10.65,-0.3,255
10.65,-0.15,255
10.65,0.0,225
10.65,0.15,113
10.65,0.3,76
10.65,0.45,76
10.65,0.6,75
10.65,0.75,75
10.65,0.9,68
10.65,1.05,68
10.65,1.2,67
10.65,1.35,67
10.65,1.5,67
10.8,-1.5,172
10.8,-1.35,172
10.8,-1.2,172
10.8,-1.05,216
10.8,-0.9,239
10.8,-0.75,194
10.8,-0.6,217
10.8,-0.45,247
10.8,-0.3,232
10.8,-0.15,232
10.8,0.0,165
10.8,0.15,128
10.8,0.3,105
10.8,0.45,75
10.8,0.6,98
10.8,0.75,98
10.8,0.9,98
10.8,1.05,98
10.8,1.2,97
10.8,1.35,97
10.8,1.5,54
10.95,-1.5,165
10.95,-1.35,165
10.95,-1.2,165
10.95,-1.05,195
10.95,-0.9,217
10.95,-0.75,187
10.95,-0.6,217
10.95,-0.45,255
10.95,-0.3,225
10.95,-0.15,225
10.95,0.0,202
10.95,0.15,158
10.95,0.3,157
10.95,0.45,143
10.95,0.6,135
10.95,0.75,98
10.95,0.9,98
10.95,1.05,98
10.95,1.2,98
10.95,1.35,97
10.95,1.5,97
11.1,-1.5,187
11.1,-1.35,187
11.1,-1.2,187
11.1,-1.05,150
11.1,-0.9,150
11.1,-0.75,150
11.1,-0.6,202
11.1,-0.45,225
11.1,-0.3,240
11.1,-0.15,240
11.1,0.0,240
11.1,0.15,195
11.1,0.3,165
11.1,0.45,128
11.1,0.6,98
11.1,0.75,76
11.1,0.9,91
11.1,1.05,98
11.1,1.2,97
11.1,1.35,97
11.1,1.5,97
11.25,-1.5,187
11.25,-1.35,187
11.25,-1.2,187
11.25,-1.05,187
11.25,-0.9,187
11.25,-0.75,217
11.25,-0.6,188
11.25,-0.45,180
11.25,-0.3,255
11.25,-0.15,255
11.25,0.0,210
11.25,0.15,195
11.25,0.3,165
11.25,0.45,142
11.25,0.6,141
11.25,0.75,119
11.25,0.9,119
11.25,1.05,83
11.25,1.2,82
11.25,1.35,82
11.25,1.5,89
11.4,-1.5,165
11.4,-1.35,165
11.4,-1.2,165
11.4,-1.05,195
11.4,-0.9,195
11.4,-0.75,195
11.4,-0.6,195
11.4,-0.45,240
11.4,-0.3,180
11.4,-0.15,255
11.4,0.0,217
11.4,0.15,187
11.4,0.3,164
11.4,0.45,142
11.4,0.6,142
11.4,0.75,141
11.4,0.9,141
11.4,1.05,141
11.4,1.2,118
11.4,1.35,82
11.4,1.5,82
11.55,-1.5,209
11.55,-1.35,209
11.55,-1.2,210
11.55,-1.05,210
11.55,-0.9,210
11.55,-0.75,210
11.55,-0.6,254
11.55,-0.45,255
11.55,-0.3,165
11.55,-0.15,173
11.55,0.0,173
11.55,0.15,164
11.55,0.3,172
11.55,0.45,135
11.55,0.6,134
11.55,0.75,134
11.55,0.9,141
11.55,1.05,141
11.55,1.2,141
11.55,1.35,114
11.55,1.5,113
11.7,-1.5,210
11.7,-1.35,211
11.7,-1.2,211
11.7,-1.05,254
11.7,-0.9,210
11.7,-0.75,210
11.7,-0.6,210
11.7,-0.45,195
11.7,-0.3,210
11.7,-0.15,203
11.7,0.0,180
11.7,0.15,180
11.7,0.3,172
11.7,0.45,171
11.7,0.6,134
11.7,0.75,134
11.7,0.9,134
11.7,1.05,133
11.7,1.2,130
11.7,1.35,129
11.7,1.5,129
11.85,-1.5,207
11.85,-1.35,209
11.85,-1.2,254
11.85,-1.05,255
11.85,-0.9,255
11.85,-0.75,211
11.85,-0.6,211
11.85,-0.45,210
11.85,-0.3,188
11.85,-0.15,150
11.85,0.0,150
11.85,0.15,172
11.85,0.3,172
11.85,0.45,172
11.85,0.6,172
11.85,0.75,127
11.85,0.9,133
11.85,1.05,133
11.85,1.2,87
11.85,1.35,86
11.85,1.5,85
12.0,-1.5,134
12.0,-1.35,134
12.0,-1.2,179
12.0,-1.05,179
12.0,-0.9,180
12.0,-0.75,181
12.0,-0.6,181
12.0,-0.45,180
12.0,-0.3,180
12.0,-0.15,135
12.0,0.0,150
12.0,0.15,171
12.0,0.3,171
12.0,0.45,171
12.0,0.6,127
12.0,0.75,126
12.0,0.9,126
12.0,1.05,44
12.0,1.2,44
12.0,1.35,44
12.0,1.5,43
12.15,-1.5,133
12.15,-1.35,133
12.15,-1.2,177
12.15,-1.05,179
12.15,-0.9,179
12.15,-0.75,172
12.15,-0.6,143
12.15,-0.45,172
12.15,-0.3,135
12.15,-0.15,165
12.15,0.0,135
12.15,0.15,127
12.15,0.3,127
12.15,0.45,126
12.15,0.6,126
12.15,0.75,125
12.15,0.9,80
12.15,1.05,80
12.15,1.2,80
12.15,1.35,37
12.15,1.5,43
12.3,-1.5,175
12.3,-1.35,176
12.3,-1.2,169
12.3,-1.05,199
12.3,-0.9,202
12.3,-0.75,172
12.3,-0.6,173
12.3,-0.45,157
12.3,-0.3,135
12.3,-0.15,173
12.3,0.0,127
12.3,0.15,127
12.3,0.3,82
12.3,0.45,82
12.3,0.6,82
12.3,0.75,80
12.3,0.9,79
12.3,1.05,66
12.3,1.2,65
12.3,1.35,65
12.3,1.5,65
12.45,-1.5,211
12.45,-1.35,212
12.45,-1.2,170
12.45,-1.05,215
12.45,-0.9,215
12.45,-0.75,173
12.45,-0.6,143
12.45,-0.45,143
12.45,-0.3,136
12.45,-0.15,136
12.45,0.0,98
12.45,0.15,127
12.45,0.3,127
12.45,0.45,126
12.45,0.6,126
12.45,0.75,80
12.45,0.9,79
12.45,1.05,79
12.45,1.2,78
12.45,1.35,65
12.45,1.5,65
12.6,-1.5,197
12.6,-1.35,170
12.6,-1.2,170
12.6,-1.05,207
12.6,-0.9,141
12.6,-0.75,134
12.6,-0.6,136
12.6,-0.45,136
12.6,-0.3,135
12.6,-0.15,135
12.6,0.0,98
12.6,0.15,98
12.6,0.3,127
12.6,0.45,126
12.6,0.6,95
12.6,0.75,94
12.6,0.9,93
12.6,1.05,121
12.6,1.2,120
12.6,1.35,119
12.6,1.5,118
12.75,-1.5,168
12.75,-1.35,169
12.75,-1.2,177
12.75,-1.05,140
12.75,-0.9,133
12.75,-0.75,134
12.75,-0.6,135
12.75,-0.45,135
12.75,-0.3,135
12.75,-0.15,134
12.75,0.0,98
12.75,0.15,98
12.75,0.3,90
12.75,0.45,90
12.75,0.6,95
12.75,0.75,94
12.75,0.9,93
12.75,1.05,93
12.75,1.2,92
12.75,1.35,91
12.75,1.5,77
12.9,-1.5,161
12.9,-1.35,175
12.9,-1.2,175
12.9,-1.05,132
12.9,-0.9,133
12.9,-0.75,133
12.9,-0.6,90
12.9,-0.45,134
12.9,-0.3,134
12.9,-0.15,134
12.9,0.0,133
12.9,0.15,98
12.9,0.3,90
12.9,0.45,89
12.9,0.6,45
12.9,0.75,94
12.9,0.9,93
12.9,1.05,93
12.9,1.2,92
12.9,1.35,91
12.9,1.5,90
13.05,-1.5,173
13.05,-1.35,173
13.05,-1.2,132
13.05,-1.05,132
13.05,-0.9,132
13.05,-0.75,132
13.05,-0.6,90
13.05,-0.45,90
13.05,-0.3,133
13.05,-0.15,133
13.05,0.0,133
13.05,0.15,98
13.05,0.3,89
13.05,0.45,88
13.05,0.6,46
13.05,0.75,45
13.05,0.9,52
13.05,1.05,93
13.05,1.2,92
13.05,1.35,91
13.05,1.5,90
