-3.0,-1.5,90
-3.0,-1.35,91
-3.0,-1.2,92
-3.0,-1.05,105
-3.0,-0.9,107
-3.0,-0.75,110
-3.0,-0.6,113
-3.0,-0.45,116
-3.0,-0.3,124
-3.0,-0.15,131
-3.0,0.0,131
-3.0,0.15,131
-3.0,0.3,103
-3.0,0.45,96
-3.0,0.6,114
-3.0,0.75,112
-3.0,0.9,110
-3.0,1.05,103
-3.0,1.2,96
-3.0,1.35,95
-3.0,1.5,95
-2.85,-1.5,75
-2.85,-1.35,91
-2.85,-1.2,92
-2.85,-1.05,94
-2.85,-0.9,96
-2.85,-0.75,110
-2.85,-0.6,112
-2.85,-0.45,116
-2.85,-0.3,124
-2.85,-0.15,135
-2.85,0.0,131
-2.85,0.15,130
-2.85,0.3,102
-2.85,0.45,96
-2.85,0.6,116
-2.85,0.75,114
-2.85,0.9,108
-2.85,1.05,104
-2.85,1.2,97
-2.85,1.35,95
-2.85,1.5,95
-2.7,-1.5,57
-2.7,-1.35,77
-2.7,-1.2,79
-2.7,-1.05,94
-2.7,-0.9,96
-2.7,-0.75,99
-2.7,-0.6,113
-2.7,-0.45,116
-2.7,-0.3,124
-2.7,-0.15,135
-2.7,0.0,135
-2.7,0.15,130
-2.7,0.3,128
-2.7,0.45,123
-2.7,0.6,118
-2.7,0.75,116
-2.7,0.9,109
-2.7,1.05,102
-2.7,1.2,97
-2.7,1.35,95
-2.7,1.5,95
-2.55,-1.5,58
-2.55,-1.35,59
-2.55,-1.2,79
-2.55,-1.05,81
-2.55,-0.9,96
-2.55,-0.75,99
-2.55,-0.6,101
-2.55,-0.45,104
-2.55,-0.3,135
-2.55,-0.15,135
-2.55,0.0,135
-2.55,0.15,135
-2.55,0.3,128
-2.55,0.45,131
-2.55,0.6,125
-2.55,0.75,118
-2.55,0.9,111
-2.55,1.05,103
-2.55,1.2,98
-2.55,1.35,95
-2.55,1.5,95
-2.4,-1.5,83
-2.4,-1.35,84
-2.4,-1.2,85
-2.4,-1.05,88
-2.4,-0.9,84
-2.4,-0.75,86
-2.4,-0.6,88
-2.4,-0.45,113
-2.4,-0.3,114
-2.4,-0.15,134
-2.4,0.0,135
-2.4,0.15,135
-2.4,0.3,135
-2.4,0.45,131
-2.4,0.6,126
-2.4,0.75,119
-2.4,0.9,112
-2.4,1.05,104
-2.4,1.2,99
-2.4,1.35,95
-2.4,1.5,95
-2.25,-1.5,77
-2.25,-1.35,77
-2.25,-1.2,67
-2.25,-1.05,88
-2.25,-0.9,90
-2.25,-0.75,92
-2.25,-0.6,97
-2.25,-0.45,98
-2.25,-0.3,98
-2.25,-0.15,126
-2.25,0.0,142
-2.25,0.15,143
-2.25,0.3,145
-2.25,0.45,138
-2.25,0.6,126
-2.25,0.75,120
-2.25,0.9,113
-2.25,1.05,104
-2.25,1.2,99
-2.25,1.35,95
-2.25,1.5,95
-2.1,-1.5,77
-2.1,-1.35,78
-2.1,-1.2,80
-2.1,-1.05,81
-2.1,-0.9,71
-2.1,-0.75,72
-2.1,-0.6,102
-2.1,-0.45,103
-2.1,-0.3,125
-2.1,-0.15,134
-2.1,0.0,128
-2.1,0.15,128
-2.1,0.3,143
-2.1,0.45,147
-2.1,0.6,148
-2.1,0.75,130
-2.1,0.9,104
-2.1,1.05,117
-2.1,1.2,86
-2.1,1.35,104
-2.1,1.5,99
-1.95,-1.5,78
-1.95,-1.35,79
-1.95,-1.2,81
-1.95,-1.05,82
-1.95,-0.9,83
-1.95,-0.75,93
-1.95,-0.6,101
-1.95,-0.45,102
-1.95,-0.3,125
-1.95,-0.15,134
-1.95,0.0,134
-1.95,0.15,160
-1.95,0.3,130
-1.95,0.45,148
-1.95,0.6,148
-1.95,0.75,131
-1.95,0.9,128
-1.95,1.05,119
-1.95,1.2,114
-1.95,1.35,109
-1.95,1.5,104
-1.8,-1.5,79
-1.8,-1.35,80
-1.8,-1.2,81
-1.8,-1.05,83
-1.8,-0.9,92
-1.8,-0.75,93
-1.8,-0.6,93
-1.8,-0.45,93
-1.8,-0.3,101
-1.8,-0.15,133
-1.8,0.0,134
-1.8,0.15,160
-1.8,0.3,162
-1.8,0.45,134
-1.8,0.6,134
-1.8,0.75,141
-1.8,0.9,128
-1.8,1.05,123
-1.8,1.2,119
-1.8,1.35,114
-1.8,1.5,106
-1.65,-1.5,79
-1.65,-1.35,79
-1.65,-1.2,79
-1.65,-1.05,86
-1.65,-0.9,92
-1.65,-0.75,93
-1.65,-0.6,93
-1.65,-0.45,93
-1.65,-0.3,117
-1.65,-0.15,118
-1.65,0.0,125
-1.65,0.15,159
-1.65,0.3,151
-1.65,0.45,153
-1.65,0.6,147
-1.65,0.75,140
-1.65,0.9,161
-1.65,1.05,128
-1.65,1.2,119
-1.65,1.35,114
-1.65,1.5,123
-1.5,-1.5,90
-1.5,-1.35,90
-1.5,-1.2,84
-1.5,-1.05,85
-1.5,-0.9,86
-1.5,-0.75,87
-1.5,-0.6,87
-1.5,-0.45,116
-1.5,-0.3,117
-1.5,-0.15,118
-1.5,0.0,140
-1.5,0.15,139
-1.5,0.3,151
-1.5,0.45,174
-1.5,0.6,173
-1.5,0.75,165
-1.5,0.9,162
-1.5,1.05,183
-1.5,1.2,180
-1.5,1.35,146
-1.5,1.5,120
-1.35,-1.5,90
-1.35,-1.35,114
-1.35,-1.2,100
-1.35,-1.05,100
-1.35,-0.9,101
-1.35,-0.75,86
-1.35,-0.6,87
-1.35,-0.45,109
-1.35,-0.3,117
-1.35,-0.15,139
-1.35,0.0,139
-1.35,0.15,141
-1.35,0.3,168
-1.35,0.45,170
-1.35,0.6,174
-1.35,0.75,168
-1.35,0.9,163
-1.35,1.05,159
-1.35,1.2,156
-1.35,1.35,153
-1.35,1.5,150
-1.2,-1.5,115
-1.2,-1.35,115
-1.2,-1.2,115
-1.2,-1.05,101
-1.2,-0.9,101
-1.2,-0.75,101
-1.2,-0.6,101
-1.2,-0.45,87
-1.2,-0.3,111
-1.2,-0.15,130
-1.2,0.0,138
-1.2,0.15,140
-1.2,0.3,168
-1.2,0.45,195
-1.2,0.6,180
-1.2,0.75,169
-1.2,0.9,166
-1.2,1.05,162
-1.2,1.2,159
-1.2,1.35,170
-1.2,1.5,167
-1.05,-1.5,118
-1.05,-1.35,118
-1.05,-1.2,117
-1.05,-1.05,117
-1.05,-0.9,117
-1.05,-0.75,116
-1.05,-0.6,101
-1.05,-0.45,121
-1.05,-0.3,99
-1.05,-0.15,130
-1.05,0.0,134
-1.05,0.15,136
-1.05,0.3,162
-1.05,0.45,165
-1.05,0.6,191
-1.05,0.75,169
-1.05,0.9,162
-1.05,1.05,179
-1.05,1.2,189
-1.05,1.35,185
-1.05,1.5,183
-0.9,-1.5,111
-0.9,-1.35,111
-0.9,-1.2,117
-0.9,-1.05,117
-0.9,-0.9,116
-0.9,-0.75,89
-0.9,-0.6,89
-0.9,-0.45,89
-0.9,-0.3,121
-0.9,-0.15,103
-0.9,0.0,104
-0.9,0.15,133
-0.9,0.3,163
-0.9,0.45,166
-0.9,0.6,166
-0.9,0.75,182
-0.9,0.9,194
-0.9,1.05,190
-0.9,1.2,154
-0.9,1.35,179
-0.9,1.5,177
-0.75,-1.5,106
-0.75,-1.35,106
-0.75,-1.2,106
-0.75,-1.05,85
-0.75,-0.9,85
-0.75,-0.75,92
-0.75,-0.6,92
-0.75,-0.45,94
-0.75,-0.3,92
-0.75,-0.15,103
-0.75,0.0,104
-0.75,0.15,102
-0.75,0.3,129
-0.75,0.45,155
-0.75,0.6,156
-0.75,0.75,172
-0.75,0.9,172
-0.75,1.05,194
-0.75,1.2,154
-0.75,1.35,177
-0.75,1.5,177
-0.6,-1.5,108
-0.6,-1.35,109
-0.6,-1.2,109
-0.6,-1.05,109
-0.6,-0.9,110
-0.6,-0.75,118
-0.6,-0.6,117
-0.6,-0.45,119
-0.6,-0.3,93
-0.6,-0.15,92
-0.6,0.0,115
-0.6,0.15,101
-0.6,0.3,147
-0.6,0.45,151
-0.6,0.6,154
-0.6,0.75,194
-0.6,0.9,210
-0.6,1.05,211
-0.6,1.2,212
-0.6,1.35,212
-0.6,1.5,200
-0.45,-1.5,109
-0.45,-1.35,110
-0.45,-1.2,110
-0.45,-1.05,111
-0.45,-0.9,120
-0.45,-0.75,120
-0.45,-0.6,119
-0.45,-0.45,119
-0.45,-0.3,119
-0.45,-0.15,92
-0.45,0.0,101
-0.45,0.15,115
-0.45,0.3,121
-0.45,0.45,146
-0.45,0.6,183
-0.45,0.75,209
-0.45,0.9,210
-0.45,1.05,211
-0.45,1.2,212
-0.45,1.35,228
-0.45,1.5,228
-0.3,-1.5,126
-0.3,-1.35,112
-0.3,-1.2,130
-0.3,-1.05,130
-0.3,-0.9,121
-0.3,-0.75,105
-0.3,-0.6,105
-0.3,-0.45,104
-0.3,-0.3,98
-0.3,-0.15,98
-0.3,0.0,92
-0.3,0.15,92
-0.3,0.3,107
-0.3,0.45,133
-0.3,0.6,177
-0.3,0.75,194
-0.3,0.9,214
-0.3,1.05,216
-0.3,1.2,202
-0.3,1.35,228
-0.3,1.5,228
-0.15,-1.5,128
-0.15,-1.35,129
-0.15,-1.2,129
-0.15,-1.05,130
-0.15,-0.9,130
-0.15,-0.75,122
-0.15,-0.6,135
-0.15,-0.45,116
-0.15,-0.3,115
-0.15,-0.15,113
-0.15,0.0,113
-0.15,0.15,112
-0.15,0.3,148
-0.15,0.45,166
-0.15,0.6,193
-0.15,0.75,215
-0.15,0.9,216
-0.15,1.05,245
-0.15,1.2,231
-0.15,1.35,231
-0.15,1.5,230
0.0,-1.5,128
0.0,-1.35,128
0.0,-1.2,128
0.0,-1.05,128
0.0,-0.9,142
0.0,-0.75,142
0.0,-0.6,131
0.0,-0.45,131
0.0,-0.3,113
0.0,-0.15,113
0.0,0.0,113
0.0,0.15,112
0.0,0.3,124
0.0,0.45,162
0.0,0.6,210
0.0,0.75,220
0.0,0.9,247
0.0,1.05,231
0.0,1.2,231
0.0,1.35,216
0.0,1.5,216
0.15,-1.5,128
0.15,-1.35,128
0.15,-1.2,138
0.15,-1.05,139
0.15,-0.9,139
0.15,-0.75,143
0.15,-0.6,148
0.15,-0.45,133
0.15,-0.3,152
0.15,-0.15,130
0.15,0.0,114
0.15,0.15,142
0.15,0.3,142
0.15,0.45,162
0.15,0.6,194
0.15,0.75,220
0.15,0.9,220
0.15,1.05,204
0.15,1.2,204
0.15,1.35,194
0.15,1.5,193
0.3,-1.5,128
0.3,-1.35,128
0.3,-1.2,128
0.3,-1.05,146
0.3,-0.9,146
0.3,-0.75,146
0.3,-0.6,148
0.3,-0.45,148
0.3,-0.3,105
0.3,-0.15,104
0.3,0.0,109
0.3,0.15,97
0.3,0.3,130
0.3,0.45,173
0.3,0.6,198
0.3,0.75,199
0.3,0.9,198
0.3,1.05,197
0.3,1.2,183
0.3,1.35,183
0.3,1.5,167
0.45,-1.5,146
0.45,-1.35,146
0.45,-1.2,146
0.45,-1.05,128
0.45,-0.9,141
0.45,-0.75,140
0.45,-0.6,120
0.45,-0.45,105
0.45,-0.3,104
0.45,-0.15,82
0.45,0.0,71
0.45,0.15,71
0.45,0.3,114
0.45,0.45,140
0.45,0.6,157
0.45,0.75,189
0.45,0.9,189
0.45,1.05,208
0.45,1.2,208
0.45,1.35,187
0.45,1.5,187
0.6,-1.5,145
0.6,-1.35,141
0.6,-1.2,141
0.6,-1.05,140
0.6,-0.9,126
0.6,-0.75,105
0.6,-0.6,119
0.6,-0.45,103
0.6,-0.3,97
0.6,-0.15,119
0.6,0.0,66
0.6,0.15,65
0.6,0.3,61
0.6,0.45,119
0.6,0.6,146
0.6,0.75,152
0.6,0.9,153
0.6,1.05,152
0.6,1.2,133
0.6,1.35,123
0.6,1.5,123
0.75,-1.5,140
0.75,-1.35,139
0.75,-1.2,124
0.75,-1.05,104
0.75,-0.9,104
0.75,-0.75,83
0.75,-0.6,92
0.75,-0.45,98
0.75,-0.3,93
0.75,-0.15,76
0.75,0.0,103
0.75,0.15,81
0.75,0.3,92
0.75,0.45,129
0.75,0.6,129
0.75,0.75,136
0.75,0.9,125
0.75,1.05,105
0.75,1.2,104
0.75,1.35,104
0.75,1.5,103
0.9,-1.5,129
0.9,-1.35,108
0.9,-1.2,83
0.9,-1.05,83
0.9,-0.9,83
0.9,-0.75,85
0.9,-0.6,84
0.9,-0.45,83
0.9,-0.3,82
0.9,-0.15,87
0.9,0.0,86
0.9,0.15,108
0.9,0.3,113
0.9,0.45,129
0.9,0.6,81
0.9,0.75,113
0.9,0.9,102
0.9,1.05,101
0.9,1.2,101
0.9,1.35,100
0.9,1.5,100
1.05,-1.5,104
1.05,-1.35,104
1.05,-1.2,108
1.05,-1.05,84
1.05,-0.9,79
1.05,-0.75,79
1.05,-0.6,78
1.05,-0.45,62
1.05,-0.3,61
1.05,-0.15,87
1.05,0.0,87
1.05,0.15,98
1.05,0.3,93
1.05,0.45,124
1.05,0.6,75
1.05,0.75,76
1.05,0.9,79
1.05,1.05,102
1.05,1.2,102
1.05,1.35,93
1.05,1.5,92
1.2,-1.5,108
1.2,-1.35,108
1.2,-1.2,108
1.2,-1.05,95
1.2,-0.9,108
1.2,-0.75,103
1.2,-0.6,68
1.2,-0.45,67
1.2,-0.3,45
1.2,-0.15,87
1.2,0.0,87
1.2,0.15,77
1.2,0.3,98
1.2,0.45,97
1.2,0.6,76
1.2,0.75,75
1.2,0.9,79
1.2,1.05,68
1.2,1.2,66
1.2,1.35,46
1.2,1.5,45
1.35,-1.5,89
1.35,-1.35,90
1.35,-1.2,90
1.35,-1.05,97
1.35,-0.9,96
1.35,-0.75,95
1.35,-0.6,79
1.35,-0.45,45
1.35,-0.3,45
1.35,-0.15,39
1.35,0.0,49
1.35,0.15,93
1.35,0.3,118
1.35,0.45,103
1.35,0.6,112
1.35,0.75,86
1.35,0.9,64
1.35,1.05,64
1.35,1.2,61
1.35,1.35,60
1.35,1.5,59
1.5,-1.5,88
1.5,-1.35,88
1.5,-1.2,88
1.5,-1.05,88
1.5,-0.9,88
1.5,-0.75,74
1.5,-0.6,73
1.5,-0.45,74
1.5,-0.3,40
1.5,-0.15,39
1.5,0.0,33
1.5,0.15,34
1.5,0.3,123
1.5,0.45,112
1.5,0.6,96
1.5,0.75,65
1.5,0.9,64
1.5,1.05,62
1.5,1.2,55
1.5,1.35,54
1.5,1.5,53
1.65,-1.5,65
1.65,-1.35,71
1.65,-1.2,71
1.65,-1.05,71
1.65,-0.9,72
1.65,-0.75,48
1.65,-0.6,47
1.65,-0.45,47
1.65,-0.3,46
1.65,-0.15,33
1.65,0.0,65
1.65,0.15,92
1.65,0.3,146
1.65,0.45,109
1.65,0.6,107
1.65,0.75,95
1.65,0.9,22
1.65,1.05,21
1.65,1.2,20
1.65,1.35,49
1.65,1.5,49
1.8,-1.5,52
1.8,-1.35,52
1.8,-1.2,52
1.8,-1.05,52
1.8,-0.9,62
1.8,-0.75,57
1.8,-0.6,52
1.8,-0.45,51
1.8,-0.3,56
1.8,-0.15,51
1.8,0.0,60
1.8,0.15,92
1.8,0.3,119
1.8,0.45,104
1.8,0.6,97
1.8,0.75,79
1.8,0.9,37
1.8,1.05,26
1.8,1.2,20
1.8,1.35,20
1.8,1.5,14
1.95,-1.5,52
1.95,-1.35,52
1.95,-1.2,57
1.95,-1.05,57
1.95,-0.9,57
1.95,-0.75,57
1.95,-0.6,57
1.95,-0.45,57
1.95,-0.3,57
1.95,-0.15,28
1.95,0.0,54
1.95,0.15,65
1.95,0.3,81
1.95,0.45,44
1.95,0.6,54
1.95,0.75,54
1.95,0.9,32
1.95,1.05,31
1.95,1.2,30
1.95,1.35,24
1.95,1.5,14
2.1,-1.5,46
2.1,-1.35,47
2.1,-1.2,47
2.1,-1.05,47
2.1,-0.9,52
2.1,-0.75,51
2.1,-0.6,51
2.1,-0.45,51
2.1,-0.3,50
2.1,-0.15,23
2.1,0.0,33
2.1,0.15,34
2.1,0.3,39
2.1,0.45,34
2.1,0.6,44
2.1,0.75,32
2.1,0.9,32
2.1,1.05,63
2.1,1.2,62
2.1,1.35,49
2.1,1.5,39
2.25,-1.5,33
2.25,-1.35,33
2.25,-1.2,41
2.25,-1.05,46
2.25,-0.9,46
2.25,-0.75,45
2.25,-0.6,50
2.25,-0.45,50
2.25,-0.3,17
2.25,-0.15,28
2.25,0.0,18
2.25,0.15,18
2.25,0.3,34
2.25,0.45,34
2.25,0.6,45
2.25,0.75,39
2.25,0.9,79
2.25,1.05,93
2.25,1.2,79
2.25,1.35,78
2.25,1.5,78
2.4,-1.5,31
2.4,-1.35,31
2.4,-1.2,30
2.4,-1.05,30
2.4,-0.9,30
2.4,-0.75,34
2.4,-0.6,11
2.4,-0.45,17
2.4,-0.3,17
2.4,-0.15,23
2.4,0.0,7
2.4,0.15,7
2.4,0.3,38
2.4,0.45,45
2.4,0.6,61
2.4,0.75,60
2.4,0.9,100
2.4,1.05,98
2.4,1.2,81
2.4,1.35,61
2.4,1.5,60
2.55,-1.5,29
2.55,-1.35,28
2.55,-1.2,28
2.55,-1.05,0
2.55,-0.9,1
2.55,-0.75,1
2.55,-0.6,6
2.55,-0.45,6
2.55,-0.3,17
2.55,-0.15,23
2.55,0.0,44
2.55,0.15,65
2.55,0.3,81
2.55,0.45,98
2.55,0.6,122
2.55,0.75,94
2.55,0.9,100
2.55,1.05,98
2.55,1.2,87
2.55,1.35,109
2.55,1.5,108
2.7,-1.5,0
2.7,-1.35,0
2.7,-1.2,0
2.7,-1.05,0
2.7,-0.9,5
2.7,-0.75,5
2.7,-0.6,6
2.7,-0.45,12
2.7,-0.3,17
2.7,-0.15,23
2.7,0.0,76
2.7,0.15,124
2.7,0.3,161
2.7,0.45,198
2.7,0.6,186
2.7,0.75,130
2.7,0.9,154
2.7,1.05,134
2.7,1.2,124
2.7,1.35,122
2.7,1.5,101
2.85,-1.5,0
2.85,-1.35,0
2.85,-1.2,0
2.85,-1.05,0
2.85,-0.9,0
2.85,-0.75,1
2.85,-0.6,11
2.85,-0.45,17
2.85,-0.3,22
2.85,-0.15,23
2.85,0.0,60
2.85,0.15,135
2.85,0.3,167
2.85,0.45,188
2.85,0.6,172
2.85,0.75,157
2.85,0.9,134
2.85,1.05,133
2.85,1.2,113
2.85,1.35,112
2.85,1.5,79
3.0,-1.5,0
3.0,-1.35,15
3.0,-1.2,15
3.0,-1.05,16
3.0,-0.9,16
3.0,-0.75,16
3.0,-0.6,22
3.0,-0.45,29
3.0,-0.3,34
3.0,-0.15,82
3.0,0.0,102
3.0,0.15,135
3.0,0.3,178
3.0,0.45,156
3.0,0.6,87
3.0,0.75,108
3.0,0.9,108
3.0,1.05,108
3.0,1.2,108
3.0,1.35,88
3.0,1.5,88
3.15,-1.5,0
3.15,-1.35,0
3.15,-1.2,19
3.15,-1.05,20
3.15,-0.9,26
3.15,-0.75,22
3.15,-0.6,27
3.15,-0.45,43
3.15,-0.3,81
3.15,-0.15,124
3.15,0.0,161
3.15,0.15,162
3.15,0.3,113
3.15,0.45,140
3.15,0.6,87
3.15,0.75,87
3.15,0.9,109
3.15,1.05,120
3.15,1.2,120
3.15,1.35,120
3.15,1.5,114
3.3,-1.5,0
3.3,-1.35,1
3.3,-1.2,1
3.3,-1.05,20
3.3,-0.9,26
3.3,-0.75,32
3.3,-0.6,63
3.3,-0.45,86
3.3,-0.3,92
3.3,-0.15,172
3.3,0.0,177
3.3,0.15,199
3.3,0.3,204
3.3,0.45,150
3.3,0.6,119
3.3,0.75,119
3.3,0.9,142
3.3,1.05,120
3.3,1.2,120
3.3,1.35,115
3.3,1.5,115
3.45,-1.5,0
3.45,-1.35,0
3.45,-1.2,0
3.45,-1.05,6
3.45,-0.9,11
3.45,-0.75,12
3.45,-0.6,33
3.45,-0.45,70
3.45,-0.3,86
3.45,-0.15,114
3.45,0.0,129
3.45,0.15,156
3.45,0.3,167
3.45,0.45,167
3.45,0.6,172
3.45,0.75,173
3.45,0.9,129
3.45,1.05,135
3.45,1.2,135
3.45,1.35,135
3.45,1.5,135
3.6,-1.5,6
3.6,-1.35,1
3.6,-1.2,1
3.6,-1.05,1
3.6,-0.9,1
3.6,-0.75,1
3.6,-0.6,6
3.6,-0.45,64
3.6,-0.3,76
3.6,-0.15,76
3.6,0.0,81
3.6,0.15,124
3.6,0.3,124
3.6,0.45,135
3.6,0.6,178
3.6,0.75,171
3.6,0.9,166
3.6,1.05,130
3.6,1.2,145
3.6,1.35,145
3.6,1.5,136
3.75,-1.5,6
3.75,-1.35,6
3.75,-1.2,6
3.75,-1.05,6
3.75,-0.9,1
3.75,-0.75,1
3.75,-0.6,22
3.75,-0.45,43
3.75,-0.3,113
3.75,-0.15,87
3.75,0.0,87
3.75,0.15,161
3.75,0.3,178
3.75,0.45,163
3.75,0.6,200
3.75,0.75,183
3.75,0.9,173
3.75,1.05,172
3.75,1.2,195
3.75,1.35,187
3.75,1.5,163
3.9,-1.5,19
3.9,-1.35,19
3.9,-1.2,20
3.9,-1.05,21
3.9,-0.9,1
3.9,-0.75,21
3.9,-0.6,22
3.9,-0.45,38
3.9,-0.3,119
3.9,-0.15,119
3.9,0.0,71
3.9,0.15,172
3.9,0.3,231
3.9,0.45,246
3.9,0.6,236
3.9,0.75,235
3.9,0.9,255
3.9,1.05,255
3.9,1.2,255
3.9,1.35,234
3.9,1.5,202
4.05,-1.5,19
4.05,-1.35,19
4.05,-1.2,39
4.05,-1.05,40
4.05,-0.9,42
4.05,-0.75,43
4.05,-0.6,44
4.05,-0.45,23
4.05,-0.3,86
4.05,-0.15,124
4.05,0.0,113
4.05,0.15,236
4.05,0.3,193
4.05,0.45,255
4.05,0.6,237
4.05,0.75,255
4.05,0.9,255
4.05,1.05,255
4.05,1.2,255
4.05,1.35,255
4.05,1.5,255
4.2,-1.5,24
4.2,-1.35,24
4.2,-1.2,39
4.2,-1.05,40
4.2,-0.9,42
4.2,-0.75,76
4.2,-0.6,77
4.2,-0.45,81
4.2,-0.3,87
4.2,-0.15,119
4.2,0.0,130
4.2,0.15,220
4.2,0.3,241
4.2,0.45,242
4.2,0.6,255
4.2,0.75,255
4.2,0.9,246
4.2,1.05,240
4.2,1.2,220
4.2,1.35,218
4.2,1.5,211
4.35,-1.5,36
4.35,-1.35,39
4.35,-1.2,44
4.35,-1.05,45
4.35,-0.9,46
4.35,-0.75,77
4.35,-0.6,80
4.35,-0.45,103
4.35,-0.3,130
4.35,-0.15,87
4.35,0.0,151
4.35,0.15,209
4.35,0.3,188
4.35,0.45,215
4.35,0.6,216
4.35,0.75,255
4.35,0.9,238
4.35,1.05,209
4.35,1.2,206
4.35,1.35,181
4.35,1.5,160
4.5,-1.5,23
4.5,-1.35,52
4.5,-1.2,53
4.5,-1.05,74
4.5,-0.9,82
4.5,-0.75,114
4.5,-0.6,116
4.5,-0.45,129
4.5,-0.3,108
4.5,-0.15,145
4.5,0.0,113
4.5,0.15,119
4.5,0.3,135
4.5,0.45,108
4.5,0.6,183
4.5,0.75,215
4.5,0.9,213
4.5,1.05,210
4.5,1.2,187
4.5,1.35,178
4.5,1.5,175
4.65,-1.5,39
4.65,-1.35,44
4.65,-1.2,59
4.65,-1.05,71
4.65,-0.9,66
4.65,-0.75,66
4.65,-0.6,90
4.65,-0.45,69
4.65,-0.3,108
4.65,-0.15,103
4.65,0.0,161
4.65,0.15,44
4.65,0.3,156
4.65,0.45,108
4.65,0.6,167
4.65,0.75,172
4.65,0.9,170
4.65,1.05,156
4.65,1.2,153
4.65,1.35,152
4.65,1.5,133
4.8,-1.5,59
4.8,-1.35,64
4.8,-1.2,65
4.8,-1.05,66
4.8,-0.9,67
4.8,-0.75,68
4.8,-0.6,69
4.8,-0.45,92
4.8,-0.3,92
4.8,-0.15,49
4.8,0.0,114
4.8,0.15,151
4.8,0.3,156
4.8,0.45,177
4.8,0.6,102
4.8,0.75,101
4.8,0.9,106
4.8,1.05,113
4.8,1.2,132
4.8,1.35,117
4.8,1.5,93
4.95,-1.5,49
4.95,-1.35,49
4.95,-1.2,49
4.95,-1.05,49
4.95,-0.9,66
4.95,-0.75,63
4.95,-0.6,74
4.95,-0.45,97
4.95,-0.3,135
4.95,-0.15,103
4.95,0.0,49
4.95,0.15,156
4.95,0.3,156
4.95,0.45,124
4.95,0.6,149
4.95,0.75,127
4.95,0.9,57
4.95,1.05,57
4.95,1.2,90
4.95,1.35,89
4.95,1.5,88
5.1,-1.5,49
5.1,-1.35,49
5.1,-1.2,55
5.1,-1.05,56
5.1,-0.9,57
5.1,-0.75,58
5.1,-0.6,90
5.1,-0.45,92
5.1,-0.3,82
5.1,-0.15,97
5.1,0.0,92
5.1,0.15,151
5.1,0.3,65
5.1,0.45,140
5.1,0.6,119
5.1,0.75,92
5.1,0.9,59
5.1,1.05,58
5.1,1.2,87
5.1,1.35,85
5.1,1.5,84
5.25,-1.5,43
5.25,-1.35,43
5.25,-1.2,49
5.25,-1.05,56
5.25,-0.9,57
5.25,-0.75,59
5.25,-0.6,59
5.25,-0.45,91
5.25,-0.3,124
5.25,-0.15,113
5.25,0.0,65
5.25,0.15,39
5.25,0.3,39
5.25,0.45,114
5.25,0.6,140
5.25,0.75,140
5.25,0.9,92
5.25,1.05,91
5.25,1.2,89
5.25,1.35,87
5.25,1.5,80
5.4,-1.5,37
5.4,-1.35,44
5.4,-1.2,45
5.4,-1.05,45
5.4,-0.9,48
5.4,-0.75,27
5.4,-0.6,22
5.4,-0.45,33
5.4,-0.3,71
5.4,-0.15,92
5.4,0.0,76
5.4,0.15,60
5.4,0.3,33
5.4,0.45,77
5.4,0.6,140
5.4,0.75,135
5.4,0.9,91
5.4,1.05,90
5.4,1.2,106
5.4,1.35,106
5.4,1.5,73
5.55,-1.5,0
5.55,-1.35,0
5.55,-1.2,15
5.55,-1.05,15
5.55,-0.9,16
5.55,-0.75,22
5.55,-0.6,22
5.55,-0.45,33
5.55,-0.3,17
5.55,-0.15,23
5.55,0.0,33
5.55,0.15,49
5.55,0.3,81
5.55,0.45,119
5.55,0.6,103
5.55,0.75,130
5.55,0.9,129
5.55,1.05,76
5.55,1.2,76
5.55,1.35,76
5.55,1.5,76
5.7,-1.5,0
5.7,-1.35,0
5.7,-1.2,1
5.7,-1.05,1
5.7,-0.9,1
5.7,-0.75,1
5.7,-0.6,1
5.7,-0.45,1
5.7,-0.3,12
5.7,-0.15,23
5.7,0.0,129
5.7,0.15,55
5.7,0.3,92
5.7,0.45,108
5.7,0.6,125
5.7,0.75,156
5.7,0.9,155
5.7,1.05,97
5.7,1.2,76
5.7,1.35,76
5.7,1.5,97
5.85,-1.5,7
5.85,-1.35,7
5.85,-1.2,1
5.85,-1.05,1
5.85,-0.9,1
5.85,-0.75,1
5.85,-0.6,1
5.85,-0.45,12
5.85,-0.3,17
5.85,-0.15,97
5.85,0.0,209
5.85,0.15,39
5.85,0.3,39
5.85,0.45,92
5.85,0.6,135
5.85,0.75,129
5.85,0.9,160
5.85,1.05,129
5.85,1.2,149
5.85,1.35,142
5.85,1.5,98
6.0,-1.5,7
6.0,-1.35,7
6.0,-1.2,7
6.0,-1.05,7
6.0,-0.9,6
6.0,-0.75,7
6.0,-0.6,1
6.0,-0.45,7
6.0,-0.3,7
6.0,-0.15,71
6.0,0.0,39
6.0,0.15,39
6.0,0.3,33
6.0,0.45,60
6.0,0.6,118
6.0,0.75,135
6.0,0.9,109
6.0,1.05,109
6.0,1.2,149
6.0,1.35,149
6.0,1.5,149
6.15,-1.5,17
6.15,-1.35,17
6.15,-1.2,17
6.15,-1.05,26
6.15,-0.9,26
6.15,-0.75,27
6.15,-0.6,22
6.15,-0.45,22
6.15,-0.3,17
6.15,-0.15,49
6.15,0.0,129
6.15,0.15,28
6.15,0.3,2
6.15,0.45,60
6.15,0.6,71
6.15,0.75,87
6.15,0.9,135
6.15,1.05,131
6.15,1.2,131
6.15,1.35,125
6.15,1.5,124
6.3,-1.5,17
6.3,-1.35,18
6.3,-1.2,18
6.3,-1.05,18
6.3,-0.9,33
6.3,-0.75,27
6.3,-0.6,33
6.3,-0.45,28
6.3,-0.3,28
6.3,-0.15,7
6.3,0.0,92
6.3,0.15,23
6.3,0.3,17
6.3,0.45,66
6.3,0.6,76
6.3,0.75,110
6.3,0.9,121
6.3,1.05,116
6.3,1.2,101
6.3,1.35,124
6.3,1.5,99
6.45,-1.5,26
6.45,-1.35,26
6.45,-1.2,27
6.45,-1.05,28
6.45,-0.9,33
6.45,-0.75,33
6.45,-0.6,33
6.45,-0.45,44
6.45,-0.3,44
6.45,-0.15,18
6.45,0.0,119
6.45,0.15,87
6.45,0.3,60
6.45,0.45,60
6.45,0.6,97
6.45,0.75,110
6.45,0.9,110
6.45,1.05,105
6.45,1.2,106
6.45,1.35,101
6.45,1.5,99
6.6,-1.5,25
6.6,-1.35,32
6.6,-1.2,33
6.6,-1.05,33
6.6,-0.9,33
6.6,-0.75,34
6.6,-0.6,34
6.6,-0.45,39
6.6,-0.3,44
6.6,-0.15,82
6.6,0.0,145
6.6,0.15,87
6.6,0.3,71
6.6,0.45,71
6.6,0.6,76
6.6,0.75,67
6.6,0.9,90
6.6,1.05,95
6.6,1.2,105
6.6,1.35,99
6.6,1.5,101
6.75,-1.5,22
6.75,-1.35,22
6.75,-1.2,27
6.75,-1.05,33
6.75,-0.9,33
6.75,-0.75,39
6.75,-0.6,39
6.75,-0.45,39
6.75,-0.3,23
6.75,-0.15,130
6.75,0.0,81
6.75,0.15,28
6.75,0.3,28
6.75,0.45,44
6.75,0.6,44
6.75,0.75,67
6.75,0.9,89
6.75,1.05,91
6.75,1.2,90
6.75,1.35,88
6.75,1.5,101
6.9,-1.5,22
6.9,-1.35,22
6.9,-1.2,22
6.9,-1.05,43
6.9,-0.9,48
6.9,-0.75,49
6.9,-0.6,54
6.9,-0.45,60
6.9,-0.3,44
6.9,-0.15,17
6.9,0.0,97
6.9,0.15,60
6.9,0.3,44
6.9,0.45,28
6.9,0.6,39
6.9,0.75,66
6.9,0.9,62
6.9,1.05,83
6.9,1.2,84
6.9,1.35,81
6.9,1.5,82
7.05,-1.5,22
7.05,-1.35,22
7.05,-1.2,22
7.05,-1.05,22
7.05,-0.9,23
7.05,-0.75,58
7.05,-0.6,86
7.05,-0.45,76
7.05,-0.3,108
7.05,-0.15,39
7.05,0.0,76
7.05,0.15,23
7.05,0.3,28
7.05,0.45,23
7.05,0.6,23
7.05,0.75,23
7.05,0.9,36
7.05,1.05,56
7.05,1.2,67
7.05,1.35,84
7.05,1.5,84
7.2,-1.5,12
7.2,-1.35,7
7.2,-1.2,7
7.2,-1.05,12
7.2,-0.9,31
7.2,-0.75,63
7.2,-0.6,64
7.2,-0.45,86
7.2,-0.3,108
7.2,-0.15,76
7.2,0.0,7
7.2,0.15,7
7.2,0.3,23
7.2,0.45,54
7.2,0.6,59
7.2,0.75,28
7.2,0.9,28
7.2,1.05,52
7.2,1.2,72
7.2,1.35,72
7.2,1.5,71
7.35,-1.5,0
7.35,-1.35,1
7.35,-1.2,6
7.35,-1.05,6
7.35,-0.9,6
7.35,-0.75,6
7.35,-0.6,43
7.35,-0.45,44
7.35,-0.3,28
7.35,-0.15,49
7.35,0.0,12
7.35,0.15,44
7.35,0.3,49
7.35,0.45,66
7.35,0.6,55
7.35,0.75,75
7.35,0.9,49
7.35,1.05,48
7.35,1.2,48
7.35,1.35,71
7.35,1.5,71
7.5,-1.5,5
7.5,-1.35,5
7.5,-1.2,6
7.5,-1.05,25
7.5,-0.9,27
7.5,-0.75,38
7.5,-0.6,39
7.5,-0.45,44
7.5,-0.3,71
7.5,-0.15,55
7.5,0.0,71
7.5,0.15,71
7.5,0.3,55
7.5,0.45,76
7.5,0.6,76
7.5,0.75,54
7.5,0.9,54
7.5,1.05,54
7.5,1.2,48
7.5,1.35,47
7.5,1.5,47
7.65,-1.5,23
7.65,-1.35,24
7.65,-1.2,25
7.65,-1.05,25
7.65,-0.9,31
7.65,-0.75,28
7.65,-0.6,28
7.65,-0.45,23
7.65,-0.3,7
7.65,-0.15,23
7.65,0.0,124
7.65,0.15,39
7.65,0.3,87
7.65,0.45,71
7.65,0.6,44
7.65,0.75,39
7.65,0.9,48
7.65,1.05,47
7.65,1.2,47
7.65,1.35,47
7.65,1.5,47
7.8,-1.5,23
7.8,-1.35,24
7.8,-1.2,24
7.8,-1.05,25
7.8,-0.9,26
7.8,-0.75,22
7.8,-0.6,23
7.8,-0.45,34
7.8,-0.3,34
7.8,-0.15,17
7.8,0.0,34
7.8,0.15,60
7.8,0.3,71
7.8,0.45,97
7.8,0.6,55
7.8,0.75,59
7.8,0.9,38
7.8,1.05,37
7.8,1.2,42
7.8,1.35,42
7.8,1.5,42
7.95,-1.5,38
7.95,-1.35,39
7.95,-1.2,40
7.95,-1.05,40
7.95,-0.9,21
7.95,-0.75,51
7.95,-0.6,58
7.95,-0.45,60
7.95,-0.3,50
7.95,-0.15,7
7.95,0.0,33
7.95,0.15,103
7.95,0.3,103
7.95,0.45,108
7.95,0.6,101
7.95,0.75,90
7.95,0.9,88
7.95,1.05,87
7.95,1.2,87
7.95,1.35,86
7.95,1.5,58
8.1,-1.5,15
8.1,-1.35,19
8.1,-1.2,20
8.1,-1.05,20
8.1,-0.9,21
8.1,-0.75,53
8.1,-0.6,54
8.1,-0.45,60
8.1,-0.3,28
8.1,-0.15,7
8.1,0.0,49
8.1,0.15,50
8.1,0.3,113
8.1,0.45,103
8.1,0.6,76
8.1,0.75,91
8.1,0.9,90
8.1,1.05,69
8.1,1.2,68
8.1,1.35,68
8.1,1.5,86
8.25,-1.5,30
8.25,-1.35,30
8.25,-1.2,31
8.25,-1.05,26
8.25,-0.9,27
8.25,-0.75,27
8.25,-0.6,27
8.25,-0.45,33
8.25,-0.3,7
8.25,-0.15,18
8.25,0.0,49
8.25,0.15,55
8.25,0.3,66
8.25,0.45,76
8.25,0.6,81
8.25,0.75,81
8.25,0.9,91
8.25,1.05,74
8.25,1.2,74
8.25,1.35,73
8.25,1.5,72
8.4,-1.5,30
8.4,-1.35,30
8.4,-1.2,37
8.4,-1.05,37
8.4,-0.9,38
8.4,-0.75,27
8.4,-0.6,33
8.4,-0.45,39
8.4,-0.3,28
8.4,-0.15,34
8.4,0.0,81
8.4,0.15,92
8.4,0.3,49
8.4,0.45,55
8.4,0.6,50
8.4,0.75,50
8.4,0.9,45
8.4,1.05,44
8.4,1.2,44
8.4,1.35,44
8.4,1.5,44
8.55,-1.5,30
8.55,-1.35,30
8.55,-1.2,32
8.55,-1.05,33
8.55,-0.9,33
8.55,-0.75,39
8.55,-0.6,33
8.55,-0.45,39
8.55,-0.3,49
8.55,-0.15,81
8.55,0.0,92
8.55,0.15,87
8.55,0.3,44
8.55,0.45,29
8.55,0.6,24
8.55,0.75,29
8.55,0.9,44
8.55,1.05,44
8.55,1.2,77
8.55,1.35,77
8.55,1.5,77
8.7,-1.5,52
8.7,-1.35,53
8.7,-1.2,33
8.7,-1.05,33
8.7,-0.9,39
8.7,-0.75,59
8.7,-0.6,49
8.7,-0.45,28
8.7,-0.3,23
8.7,-0.15,7
8.7,0.0,55
8.7,0.15,71
8.7,0.3,60
8.7,0.45,60
8.7,0.6,44
8.7,0.75,78
8.7,0.9,82
8.7,1.05,81
8.7,1.2,80
8.7,1.35,80
8.7,1.5,80
8.85,-1.5,52
8.85,-1.35,57
8.85,-1.2,74
8.85,-1.05,74
8.85,-0.9,75
8.85,-0.75,76
8.85,-0.6,92
8.85,-0.45,66
8.85,-0.3,39
8.85,-0.15,28
8.85,0.0,44
8.85,0.15,65
8.85,0.3,66
8.85,0.45,81
8.85,0.6,102
8.85,0.75,82
8.85,0.9,78
8.85,1.05,82
8.85,1.2,82
8.85,1.35,82
8.85,1.5,82
9.0,-1.5,69
9.0,-1.35,69
9.0,-1.2,69
9.0,-1.05,70
9.0,-0.9,85
9.0,-0.75,86
9.0,-0.6,87
9.0,-0.45,97
9.0,-0.3,44
9.0,-0.15,65
9.0,0.0,55
9.0,0.15,23
9.0,0.3,76
9.0,0.45,125
9.0,0.6,97
9.0,0.75,91
9.0,0.9,83
9.0,1.05,79
9.0,1.2,77
9.0,1.35,77
9.0,1.5,81
9.15,-1.5,89
9.15,-1.35,88
9.15,-1.2,74
9.15,-1.05,60
9.15,-0.9,60
9.15,-0.75,91
9.15,-0.6,76
9.15,-0.45,44
9.15,-0.3,33
9.15,-0.15,23
9.15,0.0,23
9.15,0.15,60
9.15,0.3,55
9.15,0.45,71
9.15,0.6,61
9.15,0.75,61
9.15,0.9,62
9.15,1.05,78
9.15,1.2,78
9.15,1.35,78
9.15,1.5,71
9.3,-1.5,95
9.3,-1.35,95
9.3,-1.2,95
9.3,-1.05,95
9.3,-0.9,94
9.3,-0.75,71
9.3,-0.6,71
9.3,-0.45,76
9.3,-0.3,82
9.3,-0.15,44
9.3,0.0,1
9.3,0.15,49
9.3,0.3,60
9.3,0.45,86
9.3,0.6,66
9.3,0.75,55
9.3,0.9,55
9.3,1.05,55
9.3,1.2,55
9.3,1.35,71
9.3,1.5,71
9.45,-1.5,103
9.45,-1.35,112
9.45,-1.2,112
9.45,-1.05,100
9.45,-0.9,99
9.45,-0.75,83
9.45,-0.6,55
9.45,-0.45,65
9.45,-0.3,92
9.45,-0.15,103
9.45,0.0,87
9.45,0.15,45
9.45,0.3,33
9.45,0.45,17
9.45,0.6,44
9.45,0.75,60
9.45,0.9,59
9.45,1.05,55
9.45,1.2,48
9.45,1.35,48
9.45,1.5,48
9.6,-1.5,109
9.6,-1.35,108
9.6,-1.2,108
9.6,-1.05,116
9.6,-0.9,112
9.6,-0.75,116
9.6,-0.6,109
9.6,-0.45,55
9.6,-0.3,49
9.6,-0.15,103
9.6,0.0,151
9.6,0.15,107
9.6,0.3,44
9.6,0.45,12
9.6,0.6,28
9.6,0.75,39
9.6,0.9,40
9.6,1.05,40
9.6,1.2,40
9.6,1.35,53
9.6,1.5,48
9.75,-1.5,123
9.75,-1.35,123
9.75,-1.2,123
9.75,-1.05,122
9.75,-0.9,117
9.75,-0.75,136
9.75,-0.6,131
9.75,-0.45,109
9.75,-0.3,28
9.75,-0.15,87
9.75,0.0,172
9.75,0.15,128
9.75,0.3,71
9.75,0.45,28
9.75,0.6,28
9.75,0.75,28
9.75,0.9,28
9.75,1.05,59
9.75,1.2,59
9.75,1.35,59
9.75,1.5,52
9.9,-1.5,152
9.9,-1.35,152
9.9,-1.2,152
9.9,-1.05,122
9.9,-0.9,142
9.9,-0.75,142
9.9,-0.6,142
9.9,-0.45,135
9.9,-0.3,71
9.9,-0.15,124
9.9,0.0,140
9.9,0.15,81
9.9,0.3,39
9.9,0.45,39
9.9,0.6,38
9.9,0.75,32
9.9,0.9,28
9.9,1.05,39
9.9,1.2,45
9.9,1.35,48
9.9,1.5,77
10.05,-1.5,152
10.05,-1.35,151
10.05,-1.2,151
10.05,-1.05,150
10.05,-0.9,149
10.05,-0.75,166
10.05,-0.6,116
10.05,-0.45,72
10.05,-0.3,71
10.05,-0.15,82
10.05,0.0,140
10.05,0.15,118
10.05,0.3,60
10.05,0.45,39
10.05,0.6,38
10.05,0.75,55
10.05,0.9,55
10.05,1.05,55
10.05,1.2,54
10.05,1.35,53
10.05,1.5,50
10.2,-1.5,179
10.2,-1.35,180
10.2,-1.2,180
10.2,-1.05,180
10.2,-0.9,194
10.2,-0.75,150
10.2,-0.6,116
10.2,-0.45,44
10.2,-0.3,55
10.2,-0.15,103
10.2,0.0,97
10.2,0.15,65
10.2,0.3,60
10.2,0.45,61
10.2,0.6,66
10.2,0.75,60
10.2,0.9,60
10.2,1.05,59
10.2,1.2,58
10.2,1.35,57
10.2,1.5,57
10.35,-1.5,159
10.35,-1.35,141
10.35,-1.2,141
10.35,-1.05,140
10.35,-0.9,127
10.35,-0.75,123
10.35,-0.6,111
10.35,-0.45,109
10.35,-0.3,92
10.35,-0.15,119
10.35,0.0,145
10.35,0.15,86
10.35,0.3,44
10.35,0.45,55
10.35,0.6,76
10.35,0.75,76
10.35,0.9,80
10.35,1.05,59
10.35,1.2,59
10.35,1.35,48
10.35,1.5,48
10.5,-1.5,141
10.5,-1.35,159
10.5,-1.2,159
10.5,-1.05,138
10.5,-0.9,137
10.5,-0.75,115
10.5,-0.6,111
10.5,-0.45,109
10.5,-0.3,113
10.5,-0.15,135
10.5,0.0,145
10.5,0.15,97
10.5,0.3,97
10.5,0.45,66
10.5,0.6,61
10.5,0.75,59
10.5,0.9,54
10.5,1.05,54
10.5,1.2,53
10.5,1.35,53
10.5,1.5,58
10.65,-1.5,132
10.65,-1.35,132
10.65,-1.2,132
10.65,-1.05,115
10.65,-0.9,115
10.65,-0.75,120
10.65,-0.6,115
10.65,-0.45,119
10.65,-0.3,81
10.65,-0.15,140
10.65,0.0,123
10.65,0.15,98
10.65,0.3,87
10.65,0.45,60
10.65,0.6,60
10.65,0.75,60
10.65,0.9,60
10.65,1.05,59
10.65,1.2,58
10.65,1.35,60
10.65,1.5,60
10.8,-1.5,114
10.8,-1.35,113
10.8,-1.2,141
10.8,-1.05,120
10.8,-0.9,120
10.8,-0.75,149
10.8,-0.6,139
10.8,-0.45,139
10.8,-0.3,113
10.8,-0.15,97
10.8,0.0,81
10.8,0.15,65
10.8,0.3,76
10.8,0.45,81
10.8,0.6,81
10.8,0.75,81
10.8,0.9,81
10.8,1.05,81
10.8,1.2,82
10.8,1.35,82
10.8,1.5,81
10.95,-1.5,100
10.95,-1.35,104
10.95,-1.2,110
10.95,-1.05,84
10.95,-0.9,114
10.95,-0.75,114
10.95,-0.6,123
10.95,-0.45,92
10.95,-0.3,76
10.95,-0.15,108
10.95,0.0,96
10.95,0.15,44
10.95,0.3,81
10.95,0.45,97
10.95,0.6,97
10.95,0.75,98
10.95,0.9,81
10.95,1.05,81
10.95,1.2,110
10.95,1.35,111
10.95,1.5,111
11.1,-1.5,104
11.1,-1.35,99
11.1,-1.2,74
11.1,-1.05,68
11.1,-0.9,67
11.1,-0.75,81
11.1,-0.6,87
11.1,-0.45,87
11.1,-0.3,130
11.1,-0.15,71
11.1,0.0,71
11.1,0.15,76
11.1,0.3,87
11.1,0.45,91
11.1,0.6,92
11.1,0.75,93
11.1,0.9,111
11.1,1.05,111
11.1,1.2,111
11.1,1.35,111
11.1,1.5,112
11.25,-1.5,66
11.25,-1.35,66
11.25,-1.2,66
11.25,-1.05,61
11.25,-0.9,30
11.25,-0.75,44
11.25,-0.6,44
11.25,-0.45,44
11.25,-0.3,92
11.25,-0.15,114
11.25,0.0,92
11.25,0.15,98
11.25,0.3,114
11.25,0.45,93
11.25,0.6,93
11.25,0.75,94
11.25,0.9,94
11.25,1.05,95
11.25,1.2,95
11.25,1.35,95
11.25,1.5,116
11.4,-1.5,61
11.4,-1.35,61
11.4,-1.2,61
11.4,-1.05,61
11.4,-0.9,56
11.4,-0.75,56
11.4,-0.6,44
11.4,-0.45,55
11.4,-0.3,60
11.4,-0.15,87
11.4,0.0,66
11.4,0.15,77
11.4,0.3,140
11.4,0.45,130
11.4,0.6,130
11.4,0.75,127
11.4,0.9,127
11.4,1.05,127
11.4,1.2,127
11.4,1.35,127
11.4,1.5,127
11.55,-1.5,61
11.55,-1.35,61
11.55,-1.2,61
11.55,-1.05,56
11.55,-0.9,56
11.55,-0.75,103
11.55,-0.6,103
11.55,-0.45,103
11.55,-0.3,65
11.55,-0.15,71
11.55,0.0,61
11.55,0.15,66
11.55,0.3,125
11.55,0.45,120
11.55,0.6,126
11.55,0.75,126
11.55,0.9,127
11.55,1.05,127
11.55,1.2,127
11.55,1.35,122
11.55,1.5,122
11.7,-1.5,61
11.7,-1.35,61
11.7,-1.2,61
11.7,-1.05,61
11.7,-0.9,61
11.7,-0.75,39
11.7,-0.6,92
11.7,-0.45,92
11.7,-0.3,119
11.7,-0.15,76
11.7,0.0,61
11.7,0.15,98
11.7,0.3,104
11.7,0.45,115
11.7,0.6,125
11.7,0.75,125
11.7,0.9,126
11.7,1.05,126
11.7,1.2,123
11.7,1.35,123
11.7,1.5,102
11.85,-1.5,44
11.85,-1.35,45
11.85,-1.2,45
11.85,-1.05,45
11.85,-0.9,45
11.85,-0.75,45
11.85,-0.6,39
11.85,-0.45,92
11.85,-0.3,92
11.85,-0.15,61
11.85,0.0,61
11.85,0.15,92
11.85,0.3,91
11.85,0.45,92
11.85,0.6,102
11.85,0.75,83
11.85,0.9,83
11.85,1.05,82
11.85,1.2,110
11.85,1.35,123
11.85,1.5,101
12.0,-1.5,37
12.0,-1.35,44
12.0,-1.2,63
12.0,-1.05,64
12.0,-0.9,70
12.0,-0.75,66
12.0,-0.6,33
12.0,-0.45,28
12.0,-0.3,33
12.0,-0.15,92
12.0,0.0,88
12.0,0.15,118
12.0,0.3,91
12.0,0.45,78
12.0,0.6,109
12.0,0.75,109
12.0,0.9,109
12.0,1.05,109
12.0,1.2,109
12.0,1.35,99
12.0,1.5,98
12.15,-1.5,11
12.15,-1.35,30
12.15,-1.2,32
12.15,-1.05,32
12.15,-0.9,33
12.15,-0.75,33
12.15,-0.6,28
12.15,-0.45,33
12.15,-0.3,28
12.15,-0.15,45
12.15,0.0,45
12.15,0.15,50
12.15,0.3,104
12.15,0.45,102
12.15,0.6,72
12.15,0.75,103
12.15,0.9,103
12.15,1.05,104
12.15,1.2,99
12.15,1.35,98
12.15,1.5,97
12.3,-1.5,11
12.3,-1.35,11
12.3,-1.2,21
12.3,-1.05,23
12.3,-0.9,23
12.3,-0.75,23
12.3,-0.6,39
12.3,-0.45,39
12.3,-0.3,50
12.3,-0.15,76
12.3,0.0,38
12.3,0.15,44
12.3,0.3,71
12.3,0.45,70
12.3,0.6,71
12.3,0.75,71
12.3,0.9,71
12.3,1.05,68
12.3,1.2,67
12.3,1.35,69
12.3,1.5,68
12.45,-1.5,11
12.45,-1.35,16
12.45,-1.2,16
12.45,-1.05,28
12.45,-0.9,28
12.45,-0.75,28
12.45,-0.6,70
12.45,-0.45,65
12.45,-0.3,55
12.45,-0.15,44
12.45,0.0,70
12.45,0.15,38
12.45,0.3,65
12.45,0.45,70
12.45,0.6,69
12.45,0.75,71
12.45,0.9,68
12.45,1.05,67
12.45,1.2,67
12.45,1.35,65
12.45,1.5,67
12.6,-1.5,24
12.6,-1.35,25
12.6,-1.2,26
12.6,-1.05,26
12.6,-0.9,38
12.6,-0.75,63
12.6,-0.6,64
12.6,-0.45,65
12.6,-0.3,65
12.6,-0.15,49
12.6,0.0,42
12.6,0.15,7
12.6,0.3,30
12.6,0.45,40
12.6,0.6,42
12.6,0.75,40
12.6,0.9,40
12.6,1.05,40
12.6,1.2,40
12.6,1.35,65
12.6,1.5,64
12.75,-1.5,24
12.75,-1.35,25
12.75,-1.2,30
12.75,-1.05,30
12.75,-0.9,32
12.75,-0.75,33
12.75,-0.6,33
12.75,-0.45,59
12.75,-0.3,49
12.75,-0.15,43
12.75,0.0,6
12.75,0.15,36
12.75,0.3,30
12.75,0.45,36
12.75,0.6,42
12.75,0.75,41
12.75,0.9,40
12.75,1.05,40
12.75,1.2,40
12.75,1.35,39
12.75,1.5,39
12.9,-1.5,28
12.9,-1.35,29
12.9,-1.2,29
12.9,-1.05,25
12.9,-0.9,26
12.9,-0.75,32
12.9,-0.6,32
12.9,-0.45,27
12.9,-0.3,47
12.9,-0.15,17
12.9,0.0,6
12.9,0.15,35
12.9,0.3,30
12.9,0.45,31
12.9,0.6,37
12.9,0.75,40
12.9,0.9,40
12.9,1.05,40
12.9,1.2,39
12.9,1.35,39
12.9,1.5,39
13.05,-1.5,28
13.05,-1.35,24
13.05,-1.2,24
13.05,-1.05,24
13.05,-0.9,20
13.05,-0.75,31
13.05,-0.6,26
13.05,-0.45,17
13.05,-0.3,16
13.05,-0.15,16
13.05,0.0,6
13.05,0.15,35
13.05,0.3,30
13.05,0.45,32
13.05,0.6,31
13.05,0.75,35
13.05,0.9,39
13.05,1.05,39
13.05,1.2,39
13.05,1.35,39
13.05,1.5,39
