-3.0,-1.5,153
-3.0,-1.35,153
-3.0,-1.2,158
-3.0,-1.05,158
-3.0,-0.9,137
-3.0,-0.75,137
-3.0,-0.6,137
-3.0,-0.45,159
-3.0,-0.3,159
-3.0,-0.15,163
-3.0,0.0,162
-3.0,0.15,162
-3.0,0.3,153
-3.0,0.45,152
-3.0,0.6,167
-3.0,0.75,167
-3.0,0.9,188
-3.0,1.05,188
-3.0,1.2,188
-3.0,1.35,152
-3.0,1.5,152
-2.85,-1.5,153
-2.85,-1.35,153
-2.85,-1.2,153
-2.85,-1.05,159
-2.85,-0.9,159
-2.85,-0.75,138
-2.85,-0.6,138
-2.85,-0.45,137
-2.85,-0.3,160
-2.85,-0.15,163
-2.85,0.0,162
-2.85,0.15,162
-2.85,0.3,199
-2.85,0.45,199
-2.85,0.6,167
-2.85,0.75,189
-2.85,0.9,189
-2.85,1.05,152
-2.85,1.2,152
-2.85,1.35,153
-2.85,1.5,152
-2.7,-1.5,153
-2.7,-1.35,153
-2.7,-1.2,153
-2.7,-1.05,160
-2.7,-0.9,160
-2.7,-0.75,160
-2.7,-0.6,138
-2.7,-0.45,138
-2.7,-0.3,170
-2.7,-0.15,170
-2.7,0.0,162
-2.7,0.15,162
-2.7,0.3,185
-2.7,0.45,199
-2.7,0.6,200
-2.7,0.75,153
-2.7,0.9,153
-2.7,1.05,153
-2.7,1.2,153
-2.7,1.35,153
-2.7,1.5,153
-2.55,-1.5,153
-2.55,-1.35,153
-2.55,-1.2,153
-2.55,-1.05,153
-2.55,-0.9,160
-2.55,-0.75,161
-2.55,-0.6,161
-2.55,-0.45,171
-2.55,-0.3,141
-2.55,-0.15,141
-2.55,0.0,141
-2.55,0.15,162
-2.55,0.3,185
-2.55,0.45,200
-2.55,0.6,200
-2.55,0.75,153
-2.55,0.9,154
-2.55,1.05,154
-2.55,1.2,153
-2.55,1.35,154
-2.55,1.5,154
-2.4,-1.5,153
-2.4,-1.35,153
-2.4,-1.2,153
-2.4,-1.05,153
-2.4,-0.9,153
-2.4,-0.75,161
-2.4,-0.6,161
-2.4,-0.45,171
-2.4,-0.3,171
-2.4,-0.15,141
-2.4,0.0,141
-2.4,0.15,162
-2.4,0.3,185
-2.4,0.45,200
-2.4,0.6,201
-2.4,0.75,201
-2.4,0.9,155
-2.4,1.05,154
-2.4,1.2,154
-2.4,1.35,154
-2.4,1.5,154
-2.25,-1.5,153
-2.25,-1.35,153
-2.25,-1.2,154
-2.25,-1.05,154
-2.25,-0.9,169
-2.25,-0.75,169
-2.25,-0.6,171
-2.25,-0.45,171
-2.25,-0.3,171
-2.25,-0.15,171
-2.25,0.0,171
-2.25,0.15,170
-2.25,0.3,209
-2.25,0.45,209
-2.25,0.6,209
-2.25,0.75,171
-2.25,0.9,162
-2.25,1.05,162
-2.25,1.2,162
-2.25,1.35,155
-2.25,1.5,155
-2.1,-1.5,153
-2.1,-1.35,154
-2.1,-1.2,154
-2.1,-1.05,161
-2.1,-0.9,169
-2.1,-0.75,169
-2.1,-0.6,172
-2.1,-0.45,172
-2.1,-0.3,171
-2.1,-0.15,194
-2.1,0.0,171
-2.1,0.15,170
-2.1,0.3,186
-2.1,0.45,171
-2.1,0.6,171
-2.1,0.75,171
-2.1,0.9,172
-2.1,1.05,163
-2.1,1.2,163
-2.1,1.35,185
-2.1,1.5,183
-1.95,-1.5,153
-1.95,-1.35,153
-1.95,-1.2,154
-1.95,-1.05,154
-1.95,-0.9,154
-1.95,-0.75,172
-1.95,-0.6,179
-1.95,-0.45,179
-1.95,-0.3,201
-1.95,-0.15,186
-1.95,0.0,193
-1.95,0.15,209
-1.95,0.3,186
-1.95,0.45,171
-1.95,0.6,171
-1.95,0.75,171
-1.95,0.9,172
-1.95,1.05,195
-1.95,1.2,185
-1.95,1.35,184
-1.95,1.5,184
-1.8,-1.5,145
-1.8,-1.35,145
-1.8,-1.2,153
-1.8,-1.05,157
-1.8,-0.9,157
-1.8,-0.75,157
-1.8,-0.6,171
-1.8,-0.45,209
-1.8,-0.3,209
-1.8,-0.15,232
-1.8,0.0,185
-1.8,0.15,224
-1.8,0.3,178
-1.8,0.45,171
-1.8,0.6,171
-1.8,0.75,210
-1.8,0.9,187
-1.8,1.05,187
-1.8,1.2,187
-1.8,1.35,185
-1.8,1.5,184
-1.65,-1.5,144
-1.65,-1.35,145
-1.65,-1.2,156
-1.65,-1.05,156
-1.65,-0.9,156
-1.65,-0.75,156
-1.65,-0.6,156
-1.65,-0.45,201
-1.65,-0.3,209
-1.65,-0.15,209
-1.65,0.0,163
-1.65,0.15,170
-1.65,0.3,193
-1.65,0.45,171
-1.65,0.6,194
-1.65,0.75,217
-1.65,0.9,217
-1.65,1.05,216
-1.65,1.2,216
-1.65,1.35,216
-1.65,1.5,169
-1.5,-1.5,144
-1.5,-1.35,155
-1.5,-1.2,155
-1.5,-1.05,155
-1.5,-0.9,155
-1.5,-0.75,193
-1.5,-0.6,193
-1.5,-0.45,193
-1.5,-0.3,193
-1.5,-0.15,162
-1.5,0.0,178
-1.5,0.15,170
-1.5,0.3,232
-1.5,0.45,232
-1.5,0.6,232
-1.5,0.75,232
-1.5,0.9,231
-1.5,1.05,216
-1.5,1.2,216
-1.5,1.35,216
-1.5,1.5,178
-1.35,-1.5,143
-1.35,-1.35,155
-1.35,-1.2,192
-1.35,-1.05,192
-1.35,-0.9,192
-1.35,-0.75,192
-1.35,-0.6,193
-1.35,-0.45,162
-1.35,-0.3,185
-1.35,-0.15,185
-1.35,0.0,186
-1.35,0.15,193
-1.35,0.3,224
-1.35,0.45,232
-1.35,0.6,255
-1.35,0.75,232
-1.35,0.9,232
-1.35,1.05,232
-1.35,1.2,200
-1.35,1.35,156
-1.35,1.5,171
-1.2,-1.5,178
-1.2,-1.35,191
-1.2,-1.2,191
-1.2,-1.05,192
-1.2,-0.9,192
-1.2,-0.75,192
-1.2,-0.6,192
-1.2,-0.45,162
-1.2,-0.3,185
-1.2,-0.15,162
-1.2,0.0,162
-1.2,0.15,186
-1.2,0.3,201
-1.2,0.45,240
-1.2,0.6,232
-1.2,0.75,224
-1.2,0.9,223
-1.2,1.05,185
-1.2,1.2,148
-1.2,1.35,148
-1.2,1.5,148
-1.05,-1.5,178
-1.05,-1.35,192
-1.05,-1.2,192
-1.05,-1.05,168
-1.05,-0.9,168
-1.05,-0.75,191
-1.05,-0.6,185
-1.05,-0.45,185
-1.05,-0.3,162
-1.05,-0.15,162
-1.05,0.0,186
-1.05,0.15,194
-1.05,0.3,171
-1.05,0.45,170
-1.05,0.6,193
-1.05,0.75,193
-1.05,0.9,192
-1.05,1.05,208
-1.05,1.2,193
-1.05,1.35,178
-1.05,1.5,147
-0.9,-1.5,155
-0.9,-1.35,192
-0.9,-1.2,192
-0.9,-1.05,192
-0.9,-0.9,192
-0.9,-0.75,192
-0.9,-0.6,161
-0.9,-0.45,161
-0.9,-0.3,162
-0.9,-0.15,162
-0.9,0.0,170
-0.9,0.15,170
-0.9,0.3,170
-0.9,0.45,170
-0.9,0.6,170
-0.9,0.75,207
-0.9,0.9,207
-0.9,1.05,206
-0.9,1.2,205
-0.9,1.35,192
-0.9,1.5,192
-0.75,-1.5,155
-0.75,-1.35,191
-0.75,-1.2,192
-0.75,-1.05,192
-0.75,-0.9,192
-0.75,-0.75,169
-0.75,-0.6,192
-0.75,-0.45,169
-0.75,-0.3,138
-0.75,-0.15,139
-0.75,0.0,147
-0.75,0.15,170
-0.75,0.3,170
-0.75,0.45,207
-0.75,0.6,207
-0.75,0.75,207
-0.75,0.9,207
-0.75,1.05,206
-0.75,1.2,205
-0.75,1.35,204
-0.75,1.5,204
-0.6,-1.5,134
-0.6,-1.35,110
-0.6,-1.2,117
-0.6,-1.05,131
-0.6,-0.9,132
-0.6,-0.75,132
-0.6,-0.6,131
-0.6,-0.45,131
-0.6,-0.3,131
-0.6,-0.15,139
-0.6,0.0,108
-0.6,0.15,101
-0.6,0.3,170
-0.6,0.45,170
-0.6,0.6,170
-0.6,0.75,169
-0.6,0.9,169
-0.6,1.05,168
-0.6,1.2,168
-0.6,1.35,167
-0.6,1.5,190
-0.45,-1.5,133
-0.45,-1.35,133
-0.45,-1.2,109
-0.45,-1.05,85
-0.45,-0.9,94
-0.45,-0.75,93
-0.45,-0.6,116
-0.45,-0.45,139
-0.45,-0.3,154
-0.45,-0.15,154
-0.45,0.0,177
-0.45,0.15,201
-0.45,0.3,201
-0.45,0.45,162
-0.45,0.6,162
-0.45,0.75,162
-0.45,0.9,162
-0.45,1.05,131
-0.45,1.2,154
-0.45,1.35,154
-0.45,1.5,152
-0.3,-1.5,99
-0.3,-1.35,109
-0.3,-1.2,109
-0.3,-1.05,108
-0.3,-0.9,109
-0.3,-0.75,85
-0.3,-0.6,108
-0.3,-0.45,139
-0.3,-0.3,139
-0.3,-0.15,162
-0.3,0.0,185
-0.3,0.15,185
-0.3,0.3,162
-0.3,0.45,162
-0.3,0.6,162
-0.3,0.75,162
-0.3,0.9,162
-0.3,1.05,154
-0.3,1.2,154
-0.3,1.35,146
-0.3,1.5,146
-0.15,-1.5,123
-0.15,-1.35,123
-0.15,-1.2,132
-0.15,-1.05,109
-0.15,-0.9,109
-0.15,-0.75,109
-0.15,-0.6,85
-0.15,-0.45,116
-0.15,-0.3,147
-0.15,-0.15,185
-0.15,0.0,224
-0.15,0.15,209
-0.15,0.3,170
-0.15,0.45,131
-0.15,0.6,139
-0.15,0.75,131
-0.15,0.9,154
-0.15,1.05,146
-0.15,1.2,146
-0.15,1.35,146
-0.15,1.5,146
0.0,-1.5,200
0.0,-1.35,177
0.0,-1.2,177
0.0,-1.05,146
0.0,-0.9,132
0.0,-0.75,155
0.0,-0.6,178
0.0,-0.45,178
0.0,-0.3,178
0.0,-0.15,178
0.0,0.0,185
0.0,0.15,201
0.0,0.3,201
0.0,0.45,193
0.0,0.6,154
0.0,0.75,177
0.0,0.9,131
0.0,1.05,131
0.0,1.2,131
0.0,1.35,130
0.0,1.5,114
0.15,-1.5,200
0.15,-1.35,200
0.15,-1.2,200
0.15,-1.05,200
0.15,-0.9,186
0.15,-0.75,201
0.15,-0.6,186
0.15,-0.45,201
0.15,-0.3,201
0.15,-0.15,178
0.15,0.0,162
0.15,0.15,162
0.15,0.3,217
0.15,0.45,193
0.15,0.6,216
0.15,0.75,170
0.15,0.9,169
0.15,1.05,139
0.15,1.2,146
0.15,1.35,138
0.15,1.5,137
0.3,-1.5,171
0.3,-1.35,170
0.3,-1.2,201
0.3,-1.05,201
0.3,-0.9,178
0.3,-0.75,194
0.3,-0.6,171
0.3,-0.45,193
0.3,-0.3,193
0.3,-0.15,193
0.3,0.0,147
0.3,0.15,163
0.3,0.3,186
0.3,0.45,224
0.3,0.6,208
0.3,0.75,185
0.3,0.9,170
0.3,1.05,147
0.3,1.2,146
0.3,1.35,130
0.3,1.5,130
0.45,-1.5,163
0.45,-1.35,170
0.45,-1.2,170
0.45,-1.05,178
0.45,-0.9,178
0.45,-0.75,187
0.45,-0.6,186
0.45,-0.45,186
0.45,-0.3,193
0.45,-0.15,147
0.45,0.0,147
0.45,0.15,147
0.45,0.3,170
0.45,0.45,163
0.45,0.6,170
0.45,0.75,185
0.45,0.9,108
0.45,1.05,100
0.45,1.2,115
0.45,1.35,115
0.45,1.5,108
0.6,-1.5,163
0.6,-1.35,163
0.6,-1.2,163
0.6,-1.05,170
0.6,-0.9,178
0.6,-0.75,178
0.6,-0.6,171
0.6,-0.45,171
0.6,-0.3,139
0.6,-0.15,170
0.6,0.0,147
0.6,0.15,139
0.6,0.3,131
0.6,0.45,162
0.6,0.6,116
0.6,0.75,116
0.6,0.9,108
0.6,1.05,115
0.6,1.2,115
0.6,1.35,108
0.6,1.5,108
0.75,-1.5,162
0.75,-1.35,162
0.75,-1.2,163
0.75,-1.05,163
0.75,-0.9,171
0.75,-0.75,186
0.75,-0.6,179
0.75,-0.45,155
0.75,-0.3,139
0.75,-0.15,132
0.75,0.0,93
0.75,0.15,101
0.75,0.3,101
0.75,0.45,101
0.75,0.6,108
0.75,0.75,101
0.75,0.9,101
0.75,1.05,101
0.75,1.2,101
0.75,1.35,101
0.75,1.5,101
0.9,-1.5,147
0.9,-1.35,147
0.9,-1.2,147
0.9,-1.05,147
0.9,-0.9,148
0.9,-0.75,155
0.9,-0.6,155
0.9,-0.45,178
0.9,-0.3,178
0.9,-0.15,162
0.9,0.0,108
0.9,0.15,85
0.9,0.3,62
0.9,0.45,62
0.9,0.6,93
0.9,0.75,101
0.9,0.9,116
0.9,1.05,116
0.9,1.2,116
0.9,1.35,116
0.9,1.5,100
1.05,-1.5,146
1.05,-1.35,146
1.05,-1.2,147
1.05,-1.05,147
1.05,-0.9,147
1.05,-0.75,147
1.05,-0.6,163
1.05,-0.45,194
1.05,-0.3,170
1.05,-0.15,155
1.05,0.0,93
1.05,0.15,93
1.05,0.3,70
1.05,0.45,62
1.05,0.6,70
1.05,0.75,85
1.05,0.9,93
1.05,1.05,85
1.05,1.2,85
1.05,1.35,70
1.05,1.5,70
1.2,-1.5,145
1.2,-1.35,146
1.2,-1.2,123
1.2,-1.05,123
1.2,-0.9,124
1.2,-0.75,124
1.2,-0.6,139
1.2,-0.45,139
1.2,-0.3,124
1.2,-0.15,85
1.2,0.0,70
1.2,0.15,54
1.2,0.3,23
1.2,0.45,39
1.2,0.6,62
1.2,0.75,54
1.2,0.9,47
1.2,1.05,78
1.2,1.2,62
1.2,1.35,62
1.2,1.5,70
1.35,-1.5,130
1.35,-1.35,131
1.35,-1.2,131
1.35,-1.05,123
1.35,-0.9,123
1.35,-0.75,123
1.35,-0.6,116
1.35,-0.45,116
1.35,-0.3,77
1.35,-0.15,70
1.35,0.0,54
1.35,0.15,39
1.35,0.3,8
1.35,0.45,31
1.35,0.6,31
1.35,0.75,39
1.35,0.9,39
1.35,1.05,39
1.35,1.2,47
1.35,1.35,70
1.35,1.5,70
1.5,-1.5,108
1.5,-1.35,130
1.5,-1.2,108
1.5,-1.05,108
1.5,-0.9,108
1.5,-0.75,100
1.5,-0.6,131
1.5,-0.45,108
1.5,-0.3,54
1.5,-0.15,70
1.5,0.0,70
1.5,0.15,54
1.5,0.3,16
1.5,0.45,0
1.5,0.6,0
1.5,0.75,8
1.5,0.9,39
1.5,1.05,47
1.5,1.2,47
1.5,1.35,46
1.5,1.5,46
1.65,-1.5,100
1.65,-1.35,100
1.65,-1.2,100
1.65,-1.05,108
1.65,-0.9,108
1.65,-0.75,108
1.65,-0.6,123
1.65,-0.45,85
1.65,-0.3,85
1.65,-0.15,70
1.65,0.0,70
1.65,0.15,39
1.65,0.3,23
1.65,0.45,39
1.65,0.6,8
1.65,0.75,0
1.65,0.9,0
1.65,1.05,0
1.65,1.2,24
1.65,1.35,39
1.65,1.5,39
1.8,-1.5,99
1.8,-1.35,85
1.8,-1.2,85
1.8,-1.05,85
1.8,-0.9,69
1.8,-0.75,78
1.8,-0.6,85
1.8,-0.45,93
1.8,-0.3,116
1.8,-0.15,116
1.8,0.0,124
1.8,0.15,62
1.8,0.3,62
1.8,0.45,47
1.8,0.6,16
1.8,0.75,31
1.8,0.9,0
1.8,1.05,0
1.8,1.2,8
1.8,1.35,8
1.8,1.5,39
1.95,-1.5,54
1.95,-1.35,54
1.95,-1.2,54
1.95,-1.05,54
1.95,-0.9,46
1.95,-0.75,39
1.95,-0.6,39
1.95,-0.45,70
1.95,-0.3,116
1.95,-0.15,101
1.95,0.0,70
1.95,0.15,62
1.95,0.3,54
1.95,0.45,23
1.95,0.6,31
1.95,0.75,31
1.95,0.9,8
1.95,1.05,38
1.95,1.2,46
1.95,1.35,38
1.95,1.5,8
2.1,-1.5,54
2.1,-1.35,31
2.1,-1.2,39
2.1,-1.05,39
2.1,-0.9,39
2.1,-0.75,47
2.1,-0.6,47
2.1,-0.45,47
2.1,-0.3,47
2.1,-0.15,70
2.1,0.0,39
2.1,0.15,23
2.1,0.3,39
2.1,0.45,62
2.1,0.6,62
2.1,0.75,70
2.1,0.9,69
2.1,1.05,38
2.1,1.2,38
2.1,1.35,31
2.1,1.5,30
2.25,-1.5,31
2.25,-1.35,31
2.25,-1.2,23
2.25,-1.05,31
2.25,-0.9,31
2.25,-0.75,31
2.25,-0.6,47
2.25,-0.45,47
2.25,-0.3,31
2.25,-0.15,31
2.25,0.0,16
2.25,0.15,0
2.25,0.3,16
2.25,0.45,77
2.25,0.6,62
2.25,0.75,47
2.25,0.9,39
2.25,1.05,39
2.25,1.2,38
2.25,1.35,38
2.25,1.5,38
2.4,-1.5,31
2.4,-1.35,31
2.4,-1.2,31
2.4,-1.05,31
2.4,-0.9,31
2.4,-0.75,31
2.4,-0.6,31
2.4,-0.45,31
2.4,-0.3,23
2.4,-0.15,54
2.4,0.0,8
2.4,0.15,0
2.4,0.3,8
2.4,0.45,85
2.4,0.6,77
2.4,0.75,77
2.4,0.9,77
2.4,1.05,69
2.4,1.2,69
2.4,1.35,69
2.4,1.5,68
2.55,-1.5,31
2.55,-1.35,31
2.55,-1.2,31
2.55,-1.05,31
2.55,-0.9,16
2.55,-0.75,16
2.55,-0.6,0
2.55,-0.45,0
2.55,-0.3,39
2.55,-0.15,54
2.55,0.0,8
2.55,0.15,16
2.55,0.3,23
2.55,0.45,93
2.55,0.6,77
2.55,0.75,62
2.55,0.9,70
2.55,1.05,69
2.55,1.2,69
2.55,1.35,69
2.55,1.5,69
2.7,-1.5,24
2.7,-1.35,16
2.7,-1.2,16
2.7,-1.05,16
2.7,-0.9,16
2.7,-0.75,16
2.7,-0.6,31
2.7,-0.45,39
2.7,-0.3,54
2.7,-0.15,85
2.7,0.0,23
2.7,0.15,23
2.7,0.3,23
2.7,0.45,39
2.7,0.6,39
2.7,0.75,62
2.7,0.9,62
2.7,1.05,70
2.7,1.2,69
2.7,1.35,68
2.7,1.5,68
2.85,-1.5,32
2.85,-1.35,24
2.85,-1.2,24
2.85,-1.05,16
2.85,-0.9,8
2.85,-0.75,31
2.85,-0.6,70
2.85,-0.45,62
2.85,-0.3,93
2.85,-0.15,101
2.85,0.0,62
2.85,0.15,70
2.85,0.3,31
2.85,0.45,62
2.85,0.6,31
2.85,0.75,31
2.85,0.9,62
2.85,1.05,62
2.85,1.2,62
2.85,1.35,54
2.85,1.5,69
3.0,-1.5,24
3.0,-1.35,24
3.0,-1.2,39
3.0,-1.05,31
3.0,-0.9,54
3.0,-0.75,62
3.0,-0.6,62
3.0,-0.45,100
3.0,-0.3,124
3.0,-0.15,101
3.0,0.0,77
3.0,0.15,155
3.0,0.3,101
3.0,0.45,70
3.0,0.6,78
3.0,0.75,132
3.0,0.9,131
3.0,1.05,131
3.0,1.2,93
3.0,1.35,84
3.0,1.5,84
3.15,-1.5,46
3.15,-1.35,46
3.15,-1.2,46
3.15,-1.05,46
3.15,-0.9,69
3.15,-0.75,69
3.15,-0.6,93
3.15,-0.45,93
3.15,-0.3,147
3.15,-0.15,77
3.15,0.0,93
3.15,0.15,162
3.15,0.3,155
3.15,0.45,101
3.15,0.6,124
3.15,0.75,108
3.15,0.9,100
3.15,1.05,100
3.15,1.2,131
3.15,1.35,123
3.15,1.5,85
3.3,-1.5,101
3.3,-1.35,69
3.3,-1.2,69
3.3,-1.05,77
3.3,-0.9,77
3.3,-0.75,77
3.3,-0.6,70
3.3,-0.45,70
3.3,-0.3,124
3.3,-0.15,108
3.3,0.0,108
3.3,0.15,139
3.3,0.3,93
3.3,0.45,147
3.3,0.6,116
3.3,0.75,108
3.3,0.9,108
3.3,1.05,100
3.3,1.2,100
3.3,1.35,100
3.3,1.5,100
3.45,-1.5,101
3.45,-1.35,101
3.45,-1.2,100
3.45,-1.05,100
3.45,-0.9,85
3.45,-0.75,85
3.45,-0.6,85
3.45,-0.45,77
3.45,-0.3,39
3.45,-0.15,85
3.45,0.0,93
3.45,0.15,132
3.45,0.3,155
3.45,0.45,170
3.45,0.6,155
3.45,0.75,139
3.45,0.9,93
3.45,1.05,93
3.45,1.2,100
3.45,1.35,86
3.45,1.5,86
3.6,-1.5,132
3.6,-1.35,108
3.6,-1.2,132
3.6,-1.05,132
3.6,-0.9,101
3.6,-0.75,100
3.6,-0.6,100
3.6,-0.45,101
3.6,-0.3,131
3.6,-0.15,54
3.6,0.0,139
3.6,0.15,147
3.6,0.3,186
3.6,0.45,131
3.6,0.6,124
3.6,0.75,93
3.6,0.9,62
3.6,1.05,62
3.6,1.2,94
3.6,1.35,94
3.6,1.5,94
3.75,-1.5,132
3.75,-1.35,132
3.75,-1.2,132
3.75,-1.05,109
3.75,-0.9,100
3.75,-0.75,132
3.75,-0.6,131
3.75,-0.45,131
3.75,-0.3,124
3.75,-0.15,101
3.75,0.0,132
3.75,0.15,201
3.75,0.3,85
3.75,0.45,116
3.75,0.6,31
3.75,0.75,62
3.75,0.9,62
3.75,1.05,94
3.75,1.2,94
3.75,1.35,101
3.75,1.5,94
3.9,-1.5,156
3.9,-1.35,155
3.9,-1.2,125
3.9,-1.05,155
3.9,-0.9,155
3.9,-0.75,186
3.9,-0.6,185
3.9,-0.45,178
3.9,-0.3,124
3.9,-0.15,124
3.9,0.0,132
3.9,0.15,147
3.9,0.3,139
3.9,0.45,54
3.9,0.6,62
3.9,0.75,54
3.9,0.9,70
3.9,1.05,70
3.9,1.2,101
3.9,1.35,101
3.9,1.5,93
4.05,-1.5,171
4.05,-1.35,171
4.05,-1.2,171
4.05,-1.05,179
4.05,-0.9,178
4.05,-0.75,178
4.05,-0.6,163
4.05,-0.45,132
4.05,-0.3,155
4.05,-0.15,116
4.05,0.0,70
4.05,0.15,16
4.05,0.3,162
4.05,0.45,155
4.05,0.6,116
4.05,0.75,70
4.05,0.9,78
4.05,1.05,108
4.05,1.2,100
4.05,1.35,70
4.05,1.5,70
4.2,-1.5,225
4.2,-1.35,225
4.2,-1.2,202
4.2,-1.05,201
4.2,-0.9,201
4.2,-0.75,201
4.2,-0.6,217
4.2,-0.45,217
4.2,-0.3,170
4.2,-0.15,108
4.2,0.0,47
4.2,0.15,101
4.2,0.3,108
4.2,0.45,170
4.2,0.6,131
4.2,0.75,108
4.2,0.9,108
4.2,1.05,108
4.2,1.2,100
4.2,1.35,100
4.2,1.5,70
4.35,-1.5,210
4.35,-1.35,210
4.35,-1.2,210
4.35,-1.05,209
4.35,-0.9,186
4.35,-0.75,194
4.35,-0.6,232
4.35,-0.45,232
4.35,-0.3,201
4.35,-0.15,108
4.35,0.0,47
4.35,0.15,139
4.35,0.3,116
4.35,0.45,54
4.35,0.6,124
4.35,0.75,108
4.35,0.9,108
4.35,1.05,108
4.35,1.2,108
4.35,1.35,100
4.35,1.5,100
4.5,-1.5,172
4.5,-1.35,164
4.5,-1.2,164
4.5,-1.05,164
4.5,-0.9,164
4.5,-0.75,163
4.5,-0.6,93
4.5,-0.45,93
4.5,-0.3,85
4.5,-0.15,77
4.5,0.0,116
4.5,0.15,77
4.5,0.3,162
4.5,0.45,162
4.5,0.6,100
4.5,0.75,108
4.5,0.9,108
4.5,1.05,78
4.5,1.2,78
4.5,1.35,78
4.5,1.5,78
4.65,-1.5,149
4.65,-1.35,171
4.65,-1.2,171
4.65,-1.05,171
4.65,-0.9,124
4.65,-0.75,124
4.65,-0.6,109
4.65,-0.45,47
4.65,-0.3,31
4.65,-0.15,85
4.65,0.0,31
4.65,0.15,70
4.65,0.3,232
4.65,0.45,232
4.65,0.6,116
4.65,0.75,100
4.65,0.9,85
4.65,1.05,85
4.65,1.2,77
4.65,1.35,77
4.65,1.5,32
4.8,-1.5,118
4.8,-1.35,118
4.8,-1.2,79
4.8,-1.05,109
4.8,-0.9,94
4.8,-0.75,93
4.8,-0.6,101
4.8,-0.45,78
4.8,-0.3,54
4.8,-0.15,132
4.8,0.0,70
4.8,0.15,70
4.8,0.3,93
4.8,0.45,178
4.8,0.6,154
4.8,0.75,108
4.8,0.9,131
4.8,1.05,85
4.8,1.2,77
4.8,1.35,32
4.8,1.5,32
4.95,-1.5,63
4.95,-1.35,63
4.95,-1.2,63
4.95,-1.05,63
4.95,-0.9,63
4.95,-0.75,32
4.95,-0.6,47
4.95,-0.45,54
4.95,-0.3,70
4.95,-0.15,162
4.95,0.0,85
4.95,0.15,93
4.95,0.3,124
4.95,0.45,155
4.95,0.6,70
4.95,0.75,54
4.95,0.9,54
4.95,1.05,85
4.95,1.2,85
4.95,1.35,39
4.95,1.5,32
5.1,-1.5,79
5.1,-1.35,79
5.1,-1.2,47
5.1,-1.05,47
5.1,-0.9,24
5.1,-0.75,24
5.1,-0.6,31
5.1,-0.45,39
5.1,-0.3,54
5.1,-0.15,54
5.1,0.0,85
5.1,0.15,39
5.1,0.3,132
5.1,0.45,101
5.1,0.6,54
5.1,0.75,100
5.1,0.9,31
5.1,1.05,23
5.1,1.2,23
5.1,1.35,54
5.1,1.5,24
5.25,-1.5,116
5.25,-1.35,116
5.25,-1.2,124
5.25,-1.05,93
5.25,-0.9,124
5.25,-0.75,124
5.25,-0.6,162
5.25,-0.45,101
5.25,-0.3,47
5.25,-0.15,101
5.25,0.0,178
5.25,0.15,93
5.25,0.3,62
5.25,0.45,93
5.25,0.6,39
5.25,0.75,31
5.25,0.9,23
5.25,1.05,0
5.25,1.2,0
5.25,1.35,0
5.25,1.5,31
5.4,-1.5,117
5.4,-1.35,124
5.4,-1.2,117
5.4,-1.05,116
5.4,-0.9,116
5.4,-0.75,116
5.4,-0.6,131
5.4,-0.45,170
5.4,-0.3,93
5.4,-0.15,101
5.4,0.0,77
5.4,0.15,0
5.4,0.3,62
5.4,0.45,39
5.4,0.6,39
5.4,0.75,8
5.4,0.9,8
5.4,1.05,0
5.4,1.2,0
5.4,1.35,0
5.4,1.5,0
5.55,-1.5,116
5.55,-1.35,116
5.55,-1.2,116
5.55,-1.05,116
5.55,-0.9,123
5.55,-0.75,131
5.55,-0.6,139
5.55,-0.45,147
5.55,-0.3,247
5.55,-0.15,116
5.55,0.0,85
5.55,0.15,70
5.55,0.3,101
5.55,0.45,47
5.55,0.6,62
5.55,0.75,31
5.55,0.9,23
5.55,1.05,15
5.55,1.2,15
5.55,1.35,0
5.55,1.5,0
5.7,-1.5,116
5.7,-1.35,101
5.7,-1.2,101
5.7,-1.05,101
5.7,-0.9,101
5.7,-0.75,101
5.7,-0.6,108
5.7,-0.45,108
5.7,-0.3,39
5.7,-0.15,23
5.7,0.0,116
5.7,0.15,101
5.7,0.3,39
5.7,0.45,47
5.7,0.6,16
5.7,0.75,0
5.7,0.9,16
5.7,1.05,16
5.7,1.2,0
5.7,1.35,0
5.7,1.5,0
5.85,-1.5,115
5.85,-1.35,115
5.85,-1.2,115
5.85,-1.05,115
5.85,-0.9,116
5.85,-0.75,124
5.85,-0.6,93
5.85,-0.45,93
5.85,-0.3,23
5.85,-0.15,0
5.85,0.0,85
5.85,0.15,54
5.85,0.3,31
5.85,0.45,62
5.85,0.6,54
5.85,0.75,39
5.85,0.9,0
5.85,1.05,0
5.85,1.2,0
5.85,1.35,23
5.85,1.5,8
6.0,-1.5,77
6.0,-1.35,77
6.0,-1.2,77
6.0,-1.05,77
6.0,-0.9,77
6.0,-0.75,77
6.0,-0.6,77
6.0,-0.45,54
6.0,-0.3,39
6.0,-0.15,54
6.0,0.0,62
6.0,0.15,23
6.0,0.3,93
6.0,0.45,108
6.0,0.6,77
6.0,0.75,47
6.0,0.9,39
6.0,1.05,31
6.0,1.2,31
6.0,1.35,38
6.0,1.5,38
6.15,-1.5,115
6.15,-1.35,115
6.15,-1.2,116
6.15,-1.05,116
6.15,-0.9,100
6.15,-0.75,70
6.15,-0.6,54
6.15,-0.45,70
6.15,-0.3,77
6.15,-0.15,70
6.15,0.0,23
6.15,0.15,47
6.15,0.3,186
6.15,0.45,132
6.15,0.6,93
6.15,0.75,62
6.15,0.9,31
6.15,1.05,54
6.15,1.2,54
6.15,1.35,54
6.15,1.5,54
6.3,-1.5,38
6.3,-1.35,85
6.3,-1.2,85
6.3,-1.05,85
6.3,-0.9,100
6.3,-0.75,100
6.3,-0.6,93
6.3,-0.45,116
6.3,-0.3,70
6.3,-0.15,39
6.3,0.0,16
6.3,0.15,116
6.3,0.3,54
6.3,0.45,139
6.3,0.6,77
6.3,0.75,101
6.3,0.9,77
6.3,1.05,93
6.3,1.2,92
6.3,1.35,92
6.3,1.5,92
6.45,-1.5,62
6.45,-1.35,62
6.45,-1.2,39
6.45,-1.05,69
6.45,-0.9,70
6.45,-0.75,47
6.45,-0.6,62
6.45,-0.45,62
6.45,-0.3,47
6.45,-0.15,85
6.45,0.0,62
6.45,0.15,155
6.45,0.3,93
6.45,0.45,116
6.45,0.6,93
6.45,0.75,124
6.45,0.9,124
6.45,1.05,124
6.45,1.2,85
6.45,1.35,85
6.45,1.5,84
6.6,-1.5,62
6.6,-1.35,62
6.6,-1.2,62
6.6,-1.05,62
6.6,-0.9,54
6.6,-0.75,54
6.6,-0.6,77
6.6,-0.45,77
6.6,-0.3,155
6.6,-0.15,147
6.6,0.0,155
6.6,0.15,108
6.6,0.3,108
6.6,0.45,178
6.6,0.6,186
6.6,0.75,147
6.6,0.9,162
6.6,1.05,147
6.6,1.2,147
6.6,1.35,147
6.6,1.5,146
6.75,-1.5,69
6.75,-1.35,69
6.75,-1.2,69
6.75,-1.05,70
6.75,-0.9,70
6.75,-0.75,62
6.75,-0.6,62
6.75,-0.45,31
6.75,-0.3,85
6.75,-0.15,77
6.75,0.0,47
6.75,0.15,77
6.75,0.3,108
6.75,0.45,93
6.75,0.6,147
6.75,0.75,132
6.75,0.9,162
6.75,1.05,162
6.75,1.2,155
6.75,1.35,155
6.75,1.5,147
6.9,-1.5,46
6.9,-1.35,47
6.9,-1.2,47
6.9,-1.05,47
6.9,-0.9,47
6.9,-0.75,47
6.9,-0.6,70
6.9,-0.45,77
6.9,-0.3,108
6.9,-0.15,132
6.9,0.0,147
6.9,0.15,85
6.9,0.3,124
6.9,0.45,93
6.9,0.6,116
6.9,0.75,186
6.9,0.9,155
6.9,1.05,147
6.9,1.2,147
6.9,1.35,147
6.9,1.5,147
7.05,-1.5,92
7.05,-1.35,92
7.05,-1.2,77
7.05,-1.05,85
7.05,-0.9,77
7.05,-0.75,77
7.05,-0.6,77
7.05,-0.45,108
7.05,-0.3,70
7.05,-0.15,85
7.05,0.0,124
7.05,0.15,132
7.05,0.3,108
7.05,0.45,77
7.05,0.6,116
7.05,0.75,139
7.05,0.9,116
7.05,1.05,116
7.05,1.2,147
7.05,1.35,147
7.05,1.5,147
7.2,-1.5,77
7.2,-1.35,77
7.2,-1.2,108
7.2,-1.05,154
7.2,-0.9,139
7.2,-0.75,139
7.2,-0.6,101
7.2,-0.45,108
7.2,-0.3,132
7.2,-0.15,31
7.2,0.0,54
7.2,0.15,62
7.2,0.3,77
7.2,0.45,54
7.2,0.6,77
7.2,0.75,116
7.2,0.9,132
7.2,1.05,132
7.2,1.2,139
7.2,1.35,139
7.2,1.5,139
7.35,-1.5,69
7.35,-1.35,85
7.35,-1.2,85
7.35,-1.05,93
7.35,-0.9,93
7.35,-0.75,93
7.35,-0.6,101
7.35,-0.45,101
7.35,-0.3,116
7.35,-0.15,132
7.35,0.0,54
7.35,0.15,0
7.35,0.3,8
7.35,0.45,116
7.35,0.6,139
7.35,0.75,93
7.35,0.9,108
7.35,1.05,77
7.35,1.2,77
7.35,1.35,123
7.35,1.5,131
7.5,-1.5,46
7.5,-1.35,46
7.5,-1.2,54
7.5,-1.05,54
7.5,-0.9,85
7.5,-0.75,70
7.5,-0.6,70
7.5,-0.45,85
7.5,-0.3,47
7.5,-0.15,77
7.5,0.0,147
7.5,0.15,23
7.5,0.3,108
7.5,0.45,70
7.5,0.6,116
7.5,0.75,116
7.5,0.9,85
7.5,1.05,85
7.5,1.2,85
7.5,1.35,85
7.5,1.5,85
7.65,-1.5,31
7.65,-1.35,31
7.65,-1.2,39
7.65,-1.05,39
7.65,-0.9,39
7.65,-0.75,39
7.65,-0.6,31
7.65,-0.45,77
7.65,-0.3,62
7.65,-0.15,47
7.65,0.0,77
7.65,0.15,70
7.65,0.3,108
7.65,0.45,47
7.65,0.6,70
7.65,0.75,85
7.65,0.9,93
7.65,1.05,93
7.65,1.2,93
7.65,1.35,93
7.65,1.5,93
7.8,-1.5,23
7.8,-1.35,24
7.8,-1.2,24
7.8,-1.05,24
7.8,-0.9,47
7.8,-0.75,16
7.8,-0.6,0
7.8,-0.45,0
7.8,-0.3,47
7.8,-0.15,0
7.8,0.0,93
7.8,0.15,85
7.8,0.3,85
7.8,0.45,85
7.8,0.6,101
7.8,0.75,85
7.8,0.9,70
7.8,1.05,70
7.8,1.2,70
7.8,1.35,70
7.8,1.5,70
7.95,-1.5,15
7.95,-1.35,23
7.95,-1.2,23
7.95,-1.05,23
7.95,-0.9,16
7.95,-0.75,16
7.95,-0.6,8
7.95,-0.45,93
7.95,-0.3,147
7.95,-0.15,31
7.95,0.0,0
7.95,0.15,31
7.95,0.3,31
7.95,0.45,77
7.95,0.6,70
7.95,0.75,39
7.95,0.9,39
7.95,1.05,70
7.95,1.2,101
7.95,1.35,101
7.95,1.5,101
8.1,-1.5,15
8.1,-1.35,15
8.1,-1.2,23
8.1,-1.05,23
8.1,-0.9,23
8.1,-0.75,31
8.1,-0.6,31
8.1,-0.45,139
8.1,-0.3,170
8.1,-0.15,77
8.1,0.0,39
8.1,0.15,0
8.1,0.3,31
8.1,0.45,85
8.1,0.6,39
8.1,0.75,39
8.1,0.9,46
8.1,1.05,55
8.1,1.2,55
8.1,1.35,70
8.1,1.5,70
8.25,-1.5,38
8.25,-1.35,38
8.25,-1.2,38
8.25,-1.05,39
8.25,-0.9,39
8.25,-0.75,70
8.25,-0.6,70
8.25,-0.45,62
8.25,-0.3,93
8.25,-0.15,54
8.25,0.0,116
8.25,0.15,54
8.25,0.3,70
8.25,0.45,108
8.25,0.6,54
8.25,0.75,54
8.25,0.9,47
8.25,1.05,47
8.25,1.2,70
8.25,1.35,70
8.25,1.5,109
8.4,-1.5,8
8.4,-1.35,8
8.4,-1.2,16
8.4,-1.05,16
8.4,-0.9,16
8.4,-0.75,31
8.4,-0.6,31
8.4,-0.45,77
8.4,-0.3,54
8.4,-0.15,101
8.4,0.0,162
8.4,0.15,70
8.4,0.3,77
8.4,0.45,54
8.4,0.6,54
8.4,0.75,78
8.4,0.9,86
8.4,1.05,102
8.4,1.2,94
8.4,1.35,94
8.4,1.5,94
8.55,-1.5,8
8.55,-1.35,8
8.55,-1.2,8
8.55,-1.05,8
8.55,-0.9,8
8.55,-0.75,8
8.55,-0.6,77
8.55,-0.45,85
8.55,-0.3,62
8.55,-0.15,108
8.55,0.0,124
8.55,0.15,108
8.55,0.3,70
8.55,0.45,39
8.55,0.6,62
8.55,0.75,116
8.55,0.9,124
8.55,1.05,124
8.55,1.2,139
8.55,1.35,140
8.55,1.5,140
8.7,-1.5,39
8.7,-1.35,39
8.7,-1.2,39
8.7,-1.05,39
8.7,-0.9,39
8.7,-0.75,31
8.7,-0.6,62
8.7,-0.45,39
8.7,-0.3,39
8.7,-0.15,216
8.7,0.0,54
8.7,0.15,108
8.7,0.3,216
8.7,0.45,132
8.7,0.6,139
8.7,0.75,124
8.7,0.9,155
8.7,1.05,201
8.7,1.2,178
8.7,1.35,178
8.7,1.5,178
8.85,-1.5,100
8.85,-1.35,100
8.85,-1.2,100
8.85,-1.05,100
8.85,-0.9,100
8.85,-0.75,100
8.85,-0.6,100
8.85,-0.45,77
8.85,-0.3,54
8.85,-0.15,186
8.85,0.0,108
8.85,0.15,85
8.85,0.3,193
8.85,0.45,193
8.85,0.6,108
8.85,0.75,132
8.85,0.9,163
8.85,1.05,178
8.85,1.2,178
8.85,1.35,178
8.85,1.5,178
9.0,-1.5,101
9.0,-1.35,101
9.0,-1.2,124
9.0,-1.05,124
9.0,-0.9,147
9.0,-0.75,147
9.0,-0.6,178
9.0,-0.45,193
9.0,-0.3,186
9.0,-0.15,93
9.0,0.0,39
9.0,0.15,70
9.0,0.3,116
9.0,0.45,178
9.0,0.6,108
9.0,0.75,124
9.0,0.9,163
9.0,1.05,163
9.0,1.2,163
9.0,1.35,163
9.0,1.5,163
9.15,-1.5,154
9.15,-1.35,154
9.15,-1.2,162
9.15,-1.05,162
9.15,-0.9,162
9.15,-0.75,178
9.15,-0.6,186
9.15,-0.45,201
9.15,-0.3,147
9.15,-0.15,147
9.15,0.0,124
9.15,0.15,77
9.15,0.3,77
9.15,0.45,93
9.15,0.6,77
9.15,0.75,116
9.15,0.9,116
9.15,1.05,116
9.15,1.2,178
9.15,1.35,178
9.15,1.5,179
9.3,-1.5,169
9.3,-1.35,169
9.3,-1.2,169
9.3,-1.05,200
9.3,-0.9,200
9.3,-0.75,186
9.3,-0.6,162
9.3,-0.45,139
9.3,-0.3,108
9.3,-0.15,131
9.3,0.0,124
9.3,0.15,132
9.3,0.3,70
9.3,0.45,23
9.3,0.6,70
9.3,0.75,108
9.3,0.9,101
9.3,1.05,147
9.3,1.2,147
9.3,1.35,147
9.3,1.5,147
9.45,-1.5,169
9.45,-1.35,169
9.45,-1.2,200
9.45,-1.05,200
9.45,-0.9,178
9.45,-0.75,178
9.45,-0.6,201
9.45,-0.45,193
9.45,-0.3,178
9.45,-0.15,186
9.45,0.0,209
9.45,0.15,139
9.45,0.3,93
9.45,0.45,39
9.45,0.6,47
9.45,0.75,78
9.45,0.9,124
9.45,1.05,132
9.45,1.2,163
9.45,1.35,163
9.45,1.5,163
9.6,-1.5,169
9.6,-1.35,185
9.6,-1.2,200
9.6,-1.05,193
9.6,-0.9,193
9.6,-0.75,185
9.6,-0.6,185
9.6,-0.45,186
9.6,-0.3,170
9.6,-0.15,139
9.6,0.0,178
9.6,0.15,101
9.6,0.3,85
9.6,0.45,139
9.6,0.6,139
9.6,0.75,132
9.6,0.9,132
9.6,1.05,155
9.6,1.2,147
9.6,1.35,162
9.6,1.5,186
9.75,-1.5,208
9.75,-1.35,192
9.75,-1.2,192
9.75,-1.05,224
9.75,-0.9,208
9.75,-0.75,193
9.75,-0.6,162
9.75,-0.45,178
9.75,-0.3,124
9.75,-0.15,77
9.75,0.0,108
9.75,0.15,93
9.75,0.3,147
9.75,0.45,147
9.75,0.6,139
9.75,0.75,170
9.75,0.9,170
9.75,1.05,155
9.75,1.2,155
9.75,1.35,139
9.75,1.5,108
9.9,-1.5,231
9.9,-1.35,208
9.9,-1.2,208
9.9,-1.05,193
9.9,-0.9,131
9.9,-0.75,178
9.9,-0.6,178
9.9,-0.45,93
9.9,-0.3,147
9.9,-0.15,77
9.9,0.0,54
9.9,0.15,70
9.9,0.3,131
9.9,0.45,185
9.9,0.6,178
9.9,0.75,186
9.9,0.9,178
9.9,1.05,178
9.9,1.2,147
9.9,1.35,147
9.9,1.5,138
10.05,-1.5,231
10.05,-1.35,231
10.05,-1.2,231
10.05,-1.05,231
10.05,-0.9,201
10.05,-0.75,155
10.05,-0.6,155
10.05,-0.45,186
10.05,-0.3,139
10.05,-0.15,139
10.05,0.0,116
10.05,0.15,70
10.05,0.3,108
10.05,0.45,193
10.05,0.6,209
10.05,0.75,201
10.05,0.9,177
10.05,1.05,177
10.05,1.2,146
10.05,1.35,146
10.05,1.5,146
10.2,-1.5,209
10.2,-1.35,232
10.2,-1.2,232
10.2,-1.05,232
10.2,-0.9,232
10.2,-0.75,232
10.2,-0.6,163
10.2,-0.45,240
10.2,-0.3,155
10.2,-0.15,186
10.2,0.0,139
10.2,0.15,93
10.2,0.3,77
10.2,0.45,124
10.2,0.6,108
10.2,0.75,147
10.2,0.9,169
10.2,1.05,169
10.2,1.2,169
10.2,1.35,154
10.2,1.5,145
10.35,-1.5,201
10.35,-1.35,201
10.35,-1.2,201
10.35,-1.05,194
10.35,-0.9,217
10.35,-0.75,247
10.35,-0.6,193
10.35,-0.45,209
10.35,-0.3,224
10.35,-0.15,170
10.35,0.0,124
10.35,0.15,108
10.35,0.3,77
10.35,0.45,116
10.35,0.6,116
10.35,0.75,100
10.35,0.9,100
10.35,1.05,169
10.35,1.2,123
10.35,1.35,122
10.35,1.5,122
10.5,-1.5,201
10.5,-1.35,239
10.5,-1.2,239
10.5,-1.05,239
10.5,-0.9,240
10.5,-0.75,240
10.5,-0.6,240
10.5,-0.45,178
10.5,-0.3,216
10.5,-0.15,216
10.5,0.0,178
10.5,0.15,93
10.5,0.3,77
10.5,0.45,85
10.5,0.6,116
10.5,0.75,115
10.5,0.9,92
10.5,1.05,54
10.5,1.2,54
10.5,1.35,76
10.5,1.5,121
10.65,-1.5,239
10.65,-1.35,239
10.65,-1.2,239
10.65,-1.05,239
10.65,-0.9,239
10.65,-0.75,239
10.65,-0.6,232
10.65,-0.45,147
10.65,-0.3,186
10.65,-0.15,132
10.65,0.0,116
10.65,0.15,77
10.65,0.3,54
10.65,0.45,54
10.65,0.6,46
10.65,0.75,77
10.65,0.9,70
10.65,1.05,101
10.65,1.2,94
10.65,1.35,124
10.65,1.5,124
10.8,-1.5,186
10.8,-1.35,163
10.8,-1.2,163
10.8,-1.05,193
10.8,-0.9,193
10.8,-0.75,163
10.8,-0.6,193
10.8,-0.45,124
10.8,-0.3,108
10.8,-0.15,93
10.8,0.0,85
10.8,0.15,77
10.8,0.3,23
10.8,0.45,47
10.8,0.6,31
10.8,0.75,70
10.8,0.9,108
10.8,1.05,116
10.8,1.2,147
10.8,1.35,101
10.8,1.5,101
10.95,-1.5,163
10.95,-1.35,156
10.95,-1.2,155
10.95,-1.05,178
10.95,-0.9,178
10.95,-0.75,162
10.95,-0.6,139
10.95,-0.45,124
10.95,-0.3,131
10.95,-0.15,147
10.95,0.0,93
10.95,0.15,100
10.95,0.3,123
10.95,0.45,169
10.95,0.6,116
10.95,0.75,116
10.95,0.9,108
10.95,1.05,115
10.95,1.2,115
10.95,1.35,115
10.95,1.5,115
11.1,-1.5,156
11.1,-1.35,155
11.1,-1.2,155
11.1,-1.05,170
11.1,-0.9,139
11.1,-0.75,147
11.1,-0.6,108
11.1,-0.45,147
11.1,-0.3,124
11.1,-0.15,147
11.1,0.0,116
11.1,0.15,186
11.1,0.3,185
11.1,0.45,162
11.1,0.6,124
11.1,0.75,124
11.1,0.9,124
11.1,1.05,116
11.1,1.2,116
11.1,1.35,115
11.1,1.5,115
11.25,-1.5,187
11.25,-1.35,187
11.25,-1.2,187
11.25,-1.05,210
11.25,-0.9,210
11.25,-0.75,178
11.25,-0.6,170
11.25,-0.45,155
11.25,-0.3,124
11.25,-0.15,155
11.25,0.0,139
11.25,0.15,155
11.25,0.3,155
11.25,0.45,170
11.25,0.6,170
11.25,0.75,162
11.25,0.9,162
11.25,1.05,116
11.25,1.2,116
11.25,1.35,116
11.25,1.5,116
11.4,-1.5,218
11.4,-1.35,218
11.4,-1.2,249
11.4,-1.05,226
11.4,-0.9,255
11.4,-0.75,255
11.4,-0.6,216
11.4,-0.45,216
11.4,-0.3,162
11.4,-0.15,185
11.4,0.0,209
11.4,0.15,139
11.4,0.3,147
11.4,0.45,162
11.4,0.6,162
11.4,0.75,162
11.4,0.9,116
11.4,1.05,116
11.4,1.2,116
11.4,1.35,116
11.4,1.5,116
11.55,-1.5,240
11.55,-1.35,248
11.55,-1.2,255
11.55,-1.05,255
11.55,-0.9,255
11.55,-0.75,255
11.55,-0.6,255
11.55,-0.45,255
11.55,-0.3,224
11.55,-0.15,247
11.55,0.0,240
11.55,0.15,147
11.55,0.3,178
11.55,0.45,139
11.55,0.6,232
11.55,0.75,186
11.55,0.9,186
11.55,1.05,139
11.55,1.2,116
11.55,1.35,116
11.55,1.5,147
11.7,-1.5,216
11.7,-1.35,215
11.7,-1.2,215
11.7,-1.05,238
11.7,-0.9,239
11.7,-0.75,255
11.7,-0.6,255
11.7,-0.45,255
11.7,-0.3,255
11.7,-0.15,255
11.7,0.0,208
11.7,0.15,193
11.7,0.3,193
11.7,0.45,116
11.7,0.6,162
11.7,0.75,163
11.7,0.9,209
11.7,1.05,193
11.7,1.2,193
11.7,1.35,162
11.7,1.5,162
11.85,-1.5,189
11.85,-1.35,190
11.85,-1.2,238
11.85,-1.05,238
11.85,-0.9,254
11.85,-0.75,254
11.85,-0.6,247
11.85,-0.45,255
11.85,-0.3,232
11.85,-0.15,255
11.85,0.0,208
11.85,0.15,201
11.85,0.3,147
11.85,0.45,116
11.85,0.6,116
11.85,0.75,163
11.85,0.9,163
11.85,1.05,163
11.85,1.2,163
11.85,1.35,193
11.85,1.5,160
12.0,-1.5,167
12.0,-1.35,168
12.0,-1.2,168
12.0,-1.05,200
12.0,-0.9,201
12.0,-0.75,178
12.0,-0.6,178
12.0,-0.45,178
12.0,-0.3,240
12.0,-0.15,239
12.0,0.0,224
12.0,0.15,170
12.0,0.3,139
12.0,0.45,140
12.0,0.6,117
12.0,0.75,163
12.0,0.9,163
12.0,1.05,163
12.0,1.2,163
12.0,1.35,160
12.0,1.5,160
12.15,-1.5,152
12.15,-1.35,130
12.15,-1.2,130
12.15,-1.05,131
12.15,-0.9,162
12.15,-0.75,162
12.15,-0.6,162
12.15,-0.45,147
12.15,-0.3,147
12.15,-0.15,147
12.15,0.0,178
12.15,0.15,201
12.15,0.3,170
12.15,0.45,139
12.15,0.6,139
12.15,0.75,139
12.15,0.9,116
12.15,1.05,116
12.15,1.2,153
12.15,1.35,159
12.15,1.5,159
12.3,-1.5,128
12.3,-1.35,129
12.3,-1.2,129
12.3,-1.05,130
12.3,-0.9,162
12.3,-0.75,162
12.3,-0.6,146
12.3,-0.45,147
12.3,-0.3,147
12.3,-0.15,147
12.3,0.0,101
12.3,0.15,201
12.3,0.3,201
12.3,0.45,170
12.3,0.6,169
12.3,0.75,146
12.3,0.9,116
12.3,1.05,107
12.3,1.2,106
12.3,1.35,151
12.3,1.5,151
12.45,-1.5,157
12.45,-1.35,113
12.45,-1.2,113
12.45,-1.05,114
12.45,-0.9,114
12.45,-0.75,123
12.45,-0.6,108
12.45,-0.45,108
12.45,-0.3,108
12.45,-0.15,101
12.45,0.0,101
12.45,0.15,155
12.45,0.3,201
12.45,0.45,177
12.45,0.6,177
12.45,0.75,169
12.45,0.9,137
12.45,1.05,106
12.45,1.2,106
12.45,1.35,106
12.45,1.5,150
12.6,-1.5,112
12.6,-1.35,112
12.6,-1.2,113
12.6,-1.05,75
12.6,-0.9,76
12.6,-0.75,107
12.6,-0.6,108
12.6,-0.45,108
12.6,-0.3,100
12.6,-0.15,100
12.6,0.0,101
12.6,0.15,132
12.6,0.3,138
12.6,0.45,201
12.6,0.6,177
12.6,0.75,167
12.6,0.9,166
12.6,1.05,136
12.6,1.2,135
12.6,1.35,105
12.6,1.5,105
12.75,-1.5,111
12.75,-1.35,74
12.75,-1.2,75
12.75,-1.05,75
12.75,-0.9,76
12.75,-0.75,76
12.75,-0.6,107
12.75,-0.45,100
12.75,-0.3,100
12.75,-0.15,100
12.75,0.0,100
12.75,0.15,108
12.75,0.3,138
12.75,0.45,183
12.75,0.6,182
12.75,0.75,174
12.75,0.9,166
12.75,1.05,165
12.75,1.2,135
12.75,1.35,134
12.75,1.5,105
12.9,-1.5,74
12.9,-1.35,74
12.9,-1.2,75
12.9,-1.05,75
12.9,-0.9,76
12.9,-0.75,98
12.9,-0.6,99
12.9,-0.45,100
12.9,-0.3,100
12.9,-0.15,100
12.9,0.0,107
12.9,0.15,107
12.9,0.3,138
12.9,0.45,107
12.9,0.6,180
12.9,0.75,180
12.9,0.9,172
12.9,1.05,164
12.9,1.2,163
12.9,1.35,162
12.9,1.5,133
13.05,-1.5,74
13.05,-1.35,74
13.05,-1.2,75
13.05,-1.05,75
13.05,-0.9,75
13.05,-0.75,98
13.05,-0.6,69
13.05,-0.45,100
13.05,-0.3,100
13.05,-0.15,100
13.05,0.0,107
13.05,0.15,107
13.05,0.3,137
13.05,0.45,75
13.05,0.6,135
13.05,0.75,179
13.05,0.9,171
13.05,1.05,170
13.05,1.2,169
13.05,1.35,162
13.05,1.5,161
