-3.0,-1.5,205
-3.0,-1.35,205
-3.0,-1.2,205
-3.0,-1.05,205
-3.0,-0.9,205
-3.0,-0.75,206
-3.0,-0.6,206
-3.0,-0.45,206
-3.0,-0.3,206
-3.0,-0.15,206
-3.0,0.0,231
-3.0,0.15,232
-3.0,0.3,232
-3.0,0.45,243
-3.0,0.6,243
-3.0,0.75,243
-3.0,0.9,242
-3.0,1.05,242
-3.0,1.2,242
-3.0,1.35,241
-3.0,1.5,207
-2.85,-1.5,205
-2.85,-1.35,205
-2.85,-1.2,205
-2.85,-1.05,205
-2.85,-0.9,205
-2.85,-0.75,206
-2.85,-0.6,207
-2.85,-0.45,239
-2.85,-0.3,206
-2.85,-0.15,206
-2.85,0.0,233
-2.85,0.15,233
-2.85,0.3,244
-2.85,0.45,244
-2.85,0.6,244
-2.85,0.75,243
-2.85,0.9,243
-2.85,1.05,243
-2.85,1.2,242
-2.85,1.35,242
-2.85,1.5,207
-2.7,-1.5,205
-2.7,-1.35,205
-2.7,-1.2,205
-2.7,-1.05,205
-2.7,-0.9,206
-2.7,-0.75,207
-2.7,-0.6,208
-2.7,-0.45,209
-2.7,-0.3,241
-2.7,-0.15,242
-2.7,0.0,206
-2.7,0.15,245
-2.7,0.3,245
-2.7,0.45,245
-2.7,0.6,244
-2.7,0.75,244
-2.7,0.9,244
-2.7,1.05,244
-2.7,1.2,243
-2.7,1.35,207
-2.7,1.5,207
-2.55,-1.5,205
-2.55,-1.35,205
-2.55,-1.2,205
-2.55,-1.05,205
-2.55,-0.9,206
-2.55,-0.75,207
-2.55,-0.6,208
-2.55,-0.45,209
-2.55,-0.3,242
-2.55,-0.15,243
-2.55,0.0,244
-2.55,0.15,246
-2.55,0.3,246
-2.55,0.45,245
-2.55,0.6,245
-2.55,0.75,245
-2.55,0.9,245
-2.55,1.05,244
-2.55,1.2,244
-2.55,1.35,207
-2.55,1.5,207
-2.4,-1.5,205
-2.4,-1.35,205
-2.4,-1.2,205
-2.4,-1.05,206
-2.4,-0.9,206
-2.4,-0.75,207
-2.4,-0.6,208
-2.4,-0.45,209
-2.4,-0.3,243
-2.4,-0.15,244
-2.4,0.0,255
-2.4,0.15,247
-2.4,0.3,247
-2.4,0.45,246
-2.4,0.6,246
-2.4,0.75,246
-2.4,0.9,245
-2.4,1.05,245
-2.4,1.2,207
-2.4,1.35,207
-2.4,1.5,207
-2.25,-1.5,205
-2.25,-1.35,205
-2.25,-1.2,205
-2.25,-1.05,206
-2.25,-0.9,207
-2.25,-0.75,208
-2.25,-0.6,209
-2.25,-0.45,210
-2.25,-0.3,254
-2.25,-0.15,255
-2.25,0.0,255
-2.25,0.15,255
-2.25,0.3,247
-2.25,0.45,247
-2.25,0.6,247
-2.25,0.75,246
-2.25,0.9,246
-2.25,1.05,207
-2.25,1.2,207
-2.25,1.35,207
-2.25,1.5,207
-2.1,-1.5,205
-2.1,-1.35,206
-2.1,-1.2,206
-2.1,-1.05,181
-2.1,-0.9,207
-2.1,-0.75,208
-2.1,-0.6,209
-2.1,-0.45,210
-2.1,-0.3,254
-2.1,-0.15,255
-2.1,0.0,255
-2.1,0.15,255
-2.1,0.3,249
-2.1,0.45,249
-2.1,0.6,249
-2.1,0.75,247
-2.1,0.9,247
-2.1,1.05,207
-2.1,1.2,207
-2.1,1.35,207
-2.1,1.5,207
-1.95,-1.5,181
-1.95,-1.35,181
-1.95,-1.2,181
-1.95,-1.05,207
-1.95,-0.9,181
-1.95,-0.75,208
-1.95,-0.6,209
-1.95,-0.45,254
-1.95,-0.3,254
-1.95,-0.15,255
-1.95,0.0,255
-1.95,0.15,255
-1.95,0.3,249
-1.95,0.45,249
-1.95,0.6,249
-1.95,0.75,249
-1.95,0.9,249
-1.95,1.05,207
-1.95,1.2,207
-1.95,1.35,207
-1.95,1.5,207
-1.8,-1.5,180
-1.8,-1.35,180
-1.8,-1.2,182
-1.8,-1.05,183
-1.8,-0.9,183
-1.8,-0.75,182
-1.8,-0.6,227
-1.8,-0.45,227
-1.8,-0.3,227
-1.8,-0.15,227
-1.8,0.0,255
-1.8,0.15,255
-1.8,0.3,249
-1.8,0.45,249
-1.8,0.6,249
-1.8,0.75,249
-1.8,0.9,249
-1.8,1.05,249
-1.8,1.2,207
-1.8,1.35,207
-1.8,1.5,199
-1.65,-1.5,173
-1.65,-1.35,174
-1.65,-1.2,181
-1.65,-1.05,182
-1.65,-0.9,216
-1.65,-0.75,249
-1.65,-0.6,249
-1.65,-0.45,227
-1.65,-0.3,227
-1.65,-0.15,227
-1.65,0.0,221
-1.65,0.15,221
-1.65,0.3,221
-1.65,0.45,249
-1.65,0.6,249
-1.65,0.75,249
-1.65,0.9,249
-1.65,1.05,208
-1.65,1.2,243
-1.65,1.35,243
-1.65,1.5,214
-1.5,-1.5,141
-1.5,-1.35,174
-1.5,-1.2,174
-1.5,-1.05,175
-1.5,-0.9,187
-1.5,-0.75,249
-1.5,-0.6,249
-1.5,-0.45,249
-1.5,-0.3,221
-1.5,-0.15,221
-1.5,0.0,221
-1.5,0.15,221
-1.5,0.3,221
-1.5,0.45,221
-1.5,0.6,215
-1.5,0.75,215
-1.5,0.9,215
-1.5,1.05,243
-1.5,1.2,243
-1.5,1.35,243
-1.5,1.5,243
-1.35,-1.5,141
-1.35,-1.35,142
-1.35,-1.2,142
-1.35,-1.05,187
-1.35,-0.9,187
-1.35,-0.75,187
-1.35,-0.6,181
-1.35,-0.45,215
-1.35,-0.3,249
-1.35,-0.15,215
-1.35,0.0,215
-1.35,0.15,215
-1.35,0.3,215
-1.35,0.45,215
-1.35,0.6,215
-1.35,0.75,249
-1.35,0.9,215
-1.35,1.05,229
-1.35,1.2,229
-1.35,1.35,215
-1.35,1.5,243
-1.2,-1.5,135
-1.2,-1.35,153
-1.2,-1.2,153
-1.2,-1.05,153
-1.2,-0.9,173
-1.2,-0.75,173
-1.2,-0.6,187
-1.2,-0.45,181
-1.2,-0.3,249
-1.2,-0.15,249
-1.2,0.0,249
-1.2,0.15,249
-1.2,0.3,249
-1.2,0.45,249
-1.2,0.6,249
-1.2,0.75,235
-1.2,0.9,236
-1.2,1.05,236
-1.2,1.2,236
-1.2,1.35,215
-1.2,1.5,216
-1.05,-1.5,155
-1.05,-1.35,155
-1.05,-1.2,155
-1.05,-1.05,187
-1.05,-0.9,187
-1.05,-0.75,187
-1.05,-0.6,181
-1.05,-0.45,181
-1.05,-0.3,174
-1.05,-0.15,181
-1.05,0.0,249
-1.05,0.15,249
-1.05,0.3,249
-1.05,0.45,235
-1.05,0.6,255
-1.05,0.75,255
-1.05,0.9,250
-1.05,1.05,250
-1.05,1.2,250
-1.05,1.35,250
-1.05,1.5,250
-0.9,-1.5,148
-0.9,-1.35,148
-0.9,-1.2,154
-0.9,-1.05,154
-0.9,-0.9,187
-0.9,-0.75,187
-0.9,-0.6,187
-0.9,-0.45,187
-0.9,-0.3,181
-0.9,-0.15,160
-0.9,0.0,180
-0.9,0.15,214
-0.9,0.3,214
-0.9,0.45,180
-0.9,0.6,201
-0.9,0.75,215
-0.9,0.9,215
-0.9,1.05,250
-0.9,1.2,250
-0.9,1.35,223
-0.9,1.5,216
-0.75,-1.5,121
-0.75,-1.35,141
-0.75,-1.2,127
-0.75,-1.05,127
-0.75,-0.9,167
-0.75,-0.75,167
-0.75,-0.6,166
-0.75,-0.45,167
-0.75,-0.3,160
-0.75,-0.15,160
-0.75,0.0,180
-0.75,0.15,159
-0.75,0.3,179
-0.75,0.45,214
-0.75,0.6,214
-0.75,0.75,214
-0.75,0.9,215
-0.75,1.05,201
-0.75,1.2,187
-0.75,1.35,188
-0.75,1.5,209
-0.6,-1.5,120
-0.6,-1.35,120
-0.6,-1.2,120
-0.6,-1.05,120
-0.6,-0.9,120
-0.6,-0.75,126
-0.6,-0.6,167
-0.6,-0.45,167
-0.6,-0.3,167
-0.6,-0.15,145
-0.6,0.0,145
-0.6,0.15,124
-0.6,0.3,187
-0.6,0.45,186
-0.6,0.6,186
-0.6,0.75,207
-0.6,0.9,215
-0.6,1.05,215
-0.6,1.2,208
-0.6,1.35,208
-0.6,1.5,222
-0.45,-1.5,119
-0.45,-1.35,84
-0.45,-1.2,84
-0.45,-1.05,84
-0.45,-0.9,84
-0.45,-0.75,84
-0.45,-0.6,84
-0.45,-0.45,131
-0.45,-0.3,131
-0.45,-0.15,132
-0.45,0.0,152
-0.45,0.15,159
-0.45,0.3,228
-0.45,0.45,186
-0.45,0.6,187
-0.45,0.75,207
-0.45,0.9,200
-0.45,1.05,200
-0.45,1.2,187
-0.45,1.35,187
-0.45,1.5,222
-0.3,-1.5,76
-0.3,-1.35,84
-0.3,-1.2,84
-0.3,-1.05,84
-0.3,-0.9,84
-0.3,-0.75,84
-0.3,-0.6,84
-0.3,-0.45,84
-0.3,-0.3,118
-0.3,-0.15,125
-0.3,0.0,146
-0.3,0.15,166
-0.3,0.3,159
-0.3,0.45,207
-0.3,0.6,214
-0.3,0.75,208
-0.3,0.9,200
-0.3,1.05,187
-0.3,1.2,187
-0.3,1.35,187
-0.3,1.5,187
-0.15,-1.5,76
-0.15,-1.35,76
-0.15,-1.2,76
-0.15,-1.05,83
-0.15,-0.9,118
-0.15,-0.75,118
-0.15,-0.6,90
-0.15,-0.45,90
-0.15,-0.3,90
-0.15,-0.15,83
-0.15,0.0,97
-0.15,0.15,166
-0.15,0.3,180
-0.15,0.45,249
-0.15,0.6,249
-0.15,0.75,235
-0.15,0.9,194
-0.15,1.05,194
-0.15,1.2,194
-0.15,1.35,180
-0.15,1.5,180
0.0,-1.5,110
0.0,-1.35,110
0.0,-1.2,110
0.0,-1.05,110
0.0,-0.9,118
0.0,-0.75,118
0.0,-0.6,118
0.0,-0.45,118
0.0,-0.3,90
0.0,-0.15,55
0.0,0.0,55
0.0,0.15,90
0.0,0.3,145
0.0,0.45,194
0.0,0.6,235
0.0,0.75,235
0.0,0.9,235
0.0,1.05,228
0.0,1.2,215
0.0,1.35,215
0.0,1.5,187
0.15,-1.5,102
0.15,-1.35,102
0.15,-1.2,110
0.15,-1.05,110
0.15,-0.9,110
0.15,-0.75,117
0.15,-0.6,83
0.15,-0.45,83
0.15,-0.3,90
0.15,-0.15,90
0.15,0.0,90
0.15,0.15,104
0.15,0.3,118
0.15,0.45,194
0.15,0.6,214
0.15,0.75,207
0.15,0.9,228
0.15,1.05,214
0.15,1.2,214
0.15,1.35,214
0.15,1.5,201
0.3,-1.5,48
0.3,-1.35,48
0.3,-1.2,75
0.3,-1.05,75
0.3,-0.9,82
0.3,-0.75,82
0.3,-0.6,83
0.3,-0.45,90
0.3,-0.3,90
0.3,-0.15,90
0.3,0.0,104
0.3,0.15,138
0.3,0.3,131
0.3,0.45,173
0.3,0.6,180
0.3,0.75,214
0.3,0.9,214
0.3,1.05,200
0.3,1.2,200
0.3,1.35,200
0.3,1.5,200
0.45,-1.5,48
0.45,-1.35,48
0.45,-1.2,82
0.45,-1.05,82
0.45,-0.9,82
0.45,-0.75,75
0.45,-0.6,83
0.45,-0.45,83
0.45,-0.3,76
0.45,-0.15,83
0.45,0.0,131
0.45,0.15,138
0.45,0.3,138
0.45,0.45,125
0.45,0.6,152
0.45,0.75,152
0.45,0.9,159
0.45,1.05,145
0.45,1.2,139
0.45,1.35,139
0.45,1.5,152
0.6,-1.5,14
0.6,-1.35,14
0.6,-1.2,20
0.6,-1.05,61
0.6,-0.9,61
0.6,-0.75,55
0.6,-0.6,55
0.6,-0.45,69
0.6,-0.3,69
0.6,-0.15,97
0.6,0.0,124
0.6,0.15,104
0.6,0.3,118
0.6,0.45,117
0.6,0.6,152
0.6,0.75,104
0.6,0.9,104
0.6,1.05,97
0.6,1.2,97
0.6,1.35,111
0.6,1.5,111
0.75,-1.5,14
0.75,-1.35,14
0.75,-1.2,14
0.75,-1.05,48
0.75,-0.9,48
0.75,-0.75,48
0.75,-0.6,117
0.75,-0.45,124
0.75,-0.3,124
0.75,-0.15,159
0.75,0.0,159
0.75,0.15,124
0.75,0.3,97
0.75,0.45,97
0.75,0.6,97
0.75,0.75,97
0.75,0.9,76
0.75,1.05,83
0.75,1.2,83
0.75,1.35,83
0.75,1.5,83
0.9,-1.5,13
0.9,-1.35,13
0.9,-1.2,20
0.9,-1.05,41
0.9,-0.9,41
0.9,-0.75,68
0.9,-0.6,69
0.9,-0.45,69
0.9,-0.3,83
0.9,-0.15,97
0.9,0.0,124
0.9,0.15,138
0.9,0.3,90
0.9,0.45,97
0.9,0.6,69
0.9,0.75,69
0.9,0.9,76
0.9,1.05,76
0.9,1.2,69
0.9,1.35,70
0.9,1.5,70
1.05,-1.5,13
1.05,-1.35,13
1.05,-1.2,13
1.05,-1.05,13
1.05,-0.9,14
1.05,-0.75,68
1.05,-0.6,69
1.05,-0.45,69
1.05,-0.3,76
1.05,-0.15,90
1.05,0.0,118
1.05,0.15,104
1.05,0.3,104
1.05,0.45,69
1.05,0.6,83
1.05,0.75,69
1.05,0.9,69
1.05,1.05,69
1.05,1.2,76
1.05,1.35,69
1.05,1.5,69
1.2,-1.5,13
1.2,-1.35,6
1.2,-1.2,6
1.2,-1.05,7
1.2,-0.9,7
1.2,-0.75,7
1.2,-0.6,41
1.2,-0.45,41
1.2,-0.3,83
1.2,-0.15,83
1.2,0.0,90
1.2,0.15,118
1.2,0.3,103
1.2,0.45,48
1.2,0.6,48
1.2,0.75,69
1.2,0.9,62
1.2,1.05,62
1.2,1.2,42
1.2,1.35,42
1.2,1.5,62
1.35,-1.5,6
1.35,-1.35,6
1.35,-1.2,6
1.35,-1.05,7
1.35,-0.9,7
1.35,-0.75,7
1.35,-0.6,7
1.35,-0.45,21
1.35,-0.3,48
1.35,-0.15,97
1.35,0.0,104
1.35,0.15,104
1.35,0.3,28
1.35,0.45,28
1.35,0.6,42
1.35,0.75,21
1.35,0.9,21
1.35,1.05,42
1.35,1.2,49
1.35,1.35,42
1.35,1.5,42
1.5,-1.5,0
1.5,-1.35,6
1.5,-1.2,7
1.5,-1.05,7
1.5,-0.9,7
1.5,-0.75,7
1.5,-0.6,7
1.5,-0.45,14
1.5,-0.3,28
1.5,-0.15,41
1.5,0.0,55
1.5,0.15,48
1.5,0.3,35
1.5,0.45,28
1.5,0.6,14
1.5,0.75,21
1.5,0.9,42
1.5,1.05,42
1.5,1.2,49
1.5,1.35,49
1.5,1.5,49
1.65,-1.5,0
1.65,-1.35,0
1.65,-1.2,13
1.65,-1.05,14
1.65,-0.9,14
1.65,-0.75,7
1.65,-0.6,21
1.65,-0.45,21
1.65,-0.3,28
1.65,-0.15,35
1.65,0.0,55
1.65,0.15,42
1.65,0.3,35
1.65,0.45,21
1.65,0.6,35
1.65,0.75,35
1.65,0.9,35
1.65,1.05,42
1.65,1.2,35
1.65,1.35,35
1.65,1.5,35
1.8,-1.5,0
1.8,-1.35,0
1.8,-1.2,0
1.8,-1.05,20
1.8,-0.9,20
1.8,-0.75,20
1.8,-0.6,34
1.8,-0.45,35
1.8,-0.3,35
1.8,-0.15,48
1.8,0.0,55
1.8,0.15,41
1.8,0.3,35
1.8,0.45,48
1.8,0.6,35
1.8,0.75,42
1.8,0.9,35
1.8,1.05,35
1.8,1.2,35
1.8,1.35,35
1.8,1.5,35
1.95,-1.5,13
1.95,-1.35,20
1.95,-1.2,20
1.95,-1.05,20
1.95,-0.9,20
1.95,-0.75,27
1.95,-0.6,28
1.95,-0.45,34
1.95,-0.3,48
1.95,-0.15,48
1.95,0.0,48
1.95,0.15,21
1.95,0.3,55
1.95,0.45,62
1.95,0.6,55
1.95,0.75,55
1.95,0.9,41
1.95,1.05,55
1.95,1.2,21
1.95,1.35,21
1.95,1.5,35
2.1,-1.5,20
2.1,-1.35,20
2.1,-1.2,20
2.1,-1.05,27
2.1,-0.9,27
2.1,-0.75,27
2.1,-0.6,28
2.1,-0.45,28
2.1,-0.3,28
2.1,-0.15,35
2.1,0.0,35
2.1,0.15,35
2.1,0.3,48
2.1,0.45,69
2.1,0.6,55
2.1,0.75,55
2.1,0.9,48
2.1,1.05,48
2.1,1.2,75
2.1,1.35,75
2.1,1.5,75
2.25,-1.5,20
2.25,-1.35,20
2.25,-1.2,20
2.25,-1.05,20
2.25,-0.9,20
2.25,-0.75,21
2.25,-0.6,21
2.25,-0.45,21
2.25,-0.3,28
2.25,-0.15,35
2.25,0.0,7
2.25,0.15,7
2.25,0.3,69
2.25,0.45,131
2.25,0.6,152
2.25,0.75,110
2.25,0.9,103
2.25,1.05,103
2.25,1.2,89
2.25,1.35,102
2.25,1.5,102
2.4,-1.5,20
2.4,-1.35,27
2.4,-1.2,27
2.4,-1.05,27
2.4,-0.9,27
2.4,-0.75,27
2.4,-0.6,27
2.4,-0.45,28
2.4,-0.3,28
2.4,-0.15,7
2.4,0.0,0
2.4,0.15,7
2.4,0.3,97
2.4,0.45,118
2.4,0.6,117
2.4,0.75,131
2.4,0.9,103
2.4,1.05,103
2.4,1.2,102
2.4,1.35,61
2.4,1.5,69
2.55,-1.5,6
2.55,-1.35,13
2.55,-1.2,33
2.55,-1.05,48
2.55,-0.9,48
2.55,-0.75,27
2.55,-0.6,14
2.55,-0.45,14
2.55,-0.3,14
2.55,-0.15,7
2.55,0.0,7
2.55,0.15,35
2.55,0.3,90
2.55,0.45,111
2.55,0.6,111
2.55,0.75,76
2.55,0.9,76
2.55,1.05,103
2.55,1.2,62
2.55,1.35,96
2.55,1.5,69
2.7,-1.5,33
2.7,-1.35,33
2.7,-1.2,34
2.7,-1.05,47
2.7,-0.9,48
2.7,-0.75,41
2.7,-0.6,34
2.7,-0.45,35
2.7,-0.3,34
2.7,-0.15,35
2.7,0.0,21
2.7,0.15,28
2.7,0.3,83
2.7,0.45,111
2.7,0.6,104
2.7,0.75,69
2.7,0.9,69
2.7,1.05,76
2.7,1.2,76
2.7,1.35,76
2.7,1.5,96
2.85,-1.5,20
2.85,-1.35,40
2.85,-1.2,41
2.85,-1.05,47
2.85,-0.9,48
2.85,-0.75,48
2.85,-0.6,55
2.85,-0.45,41
2.85,-0.3,55
2.85,-0.15,55
2.85,0.0,55
2.85,0.15,21
2.85,0.3,35
2.85,0.45,90
2.85,0.6,48
2.85,0.75,34
2.85,0.9,76
2.85,1.05,76
2.85,1.2,76
2.85,1.35,76
2.85,1.5,76
3.0,-1.5,20
3.0,-1.35,27
3.0,-1.2,27
3.0,-1.05,27
3.0,-0.9,48
3.0,-0.75,48
3.0,-0.6,48
3.0,-0.45,55
3.0,-0.3,62
3.0,-0.15,62
3.0,0.0,76
3.0,0.15,48
3.0,0.3,41
3.0,0.45,48
3.0,0.6,48
3.0,0.75,83
3.0,0.9,76
3.0,1.05,76
3.0,1.2,83
3.0,1.35,83
3.0,1.5,83
3.15,-1.5,20
3.15,-1.35,27
3.15,-1.2,27
3.15,-1.05,27
3.15,-0.9,41
3.15,-0.75,48
3.15,-0.6,55
3.15,-0.45,55
3.15,-0.3,76
3.15,-0.15,76
3.15,0.0,55
3.15,0.15,41
3.15,0.3,76
3.15,0.45,62
3.15,0.6,111
3.15,0.75,111
3.15,0.9,111
3.15,1.05,111
3.15,1.2,110
3.15,1.35,110
3.15,1.5,110
3.3,-1.5,13
3.3,-1.35,20
3.3,-1.2,27
3.3,-1.05,27
3.3,-0.9,27
3.3,-0.75,28
3.3,-0.6,48
3.3,-0.45,48
3.3,-0.3,62
3.3,-0.15,69
3.3,0.0,90
3.3,0.15,124
3.3,0.3,111
3.3,0.45,83
3.3,0.6,111
3.3,0.75,111
3.3,0.9,111
3.3,1.05,110
3.3,1.2,110
3.3,1.35,97
3.3,1.5,96
3.45,-1.5,6
3.45,-1.35,6
3.45,-1.2,20
3.45,-1.05,27
3.45,-0.9,34
3.45,-0.75,34
3.45,-0.6,34
3.45,-0.45,48
3.45,-0.3,76
3.45,-0.15,69
3.45,0.0,90
3.45,0.15,118
3.45,0.3,111
3.45,0.45,111
3.45,0.6,111
3.45,0.75,97
3.45,0.9,83
3.45,1.05,83
3.45,1.2,83
3.45,1.35,76
3.45,1.5,82
3.6,-1.5,13
3.6,-1.35,13
3.6,-1.2,13
3.6,-1.05,13
3.6,-0.9,14
3.6,-0.75,21
3.6,-0.6,34
3.6,-0.45,69
3.6,-0.3,117
3.6,-0.15,76
3.6,0.0,14
3.6,0.15,55
3.6,0.3,97
3.6,0.45,83
3.6,0.6,62
3.6,0.75,83
3.6,0.9,83
3.6,1.05,83
3.6,1.2,76
3.6,1.35,76
3.6,1.5,83
3.75,-1.5,13
3.75,-1.35,13
3.75,-1.2,13
3.75,-1.05,20
3.75,-0.9,62
3.75,-0.75,62
3.75,-0.6,96
3.75,-0.45,97
3.75,-0.3,124
3.75,-0.15,124
3.75,0.0,83
3.75,0.15,83
3.75,0.3,48
3.75,0.45,35
3.75,0.6,35
3.75,0.75,69
3.75,0.9,90
3.75,1.05,104
3.75,1.2,97
3.75,1.35,97
3.75,1.5,70
3.9,-1.5,41
3.9,-1.35,48
3.9,-1.2,48
3.9,-1.05,89
3.9,-0.9,89
3.9,-0.75,89
3.9,-0.6,83
3.9,-0.45,90
3.9,-0.3,90
3.9,-0.15,138
3.9,0.0,166
3.9,0.15,124
3.9,0.3,124
3.9,0.45,69
3.9,0.6,96
3.9,0.75,76
3.9,0.9,76
3.9,1.05,125
3.9,1.2,56
3.9,1.35,56
3.9,1.5,56
4.05,-1.5,48
4.05,-1.35,48
4.05,-1.2,62
4.05,-1.05,89
4.05,-0.9,97
4.05,-0.75,62
4.05,-0.6,62
4.05,-0.45,83
4.05,-0.3,83
4.05,-0.15,131
4.05,0.0,104
4.05,0.15,76
4.05,0.3,131
4.05,0.45,117
4.05,0.6,131
4.05,0.75,145
4.05,0.9,96
4.05,1.05,82
4.05,1.2,82
4.05,1.35,98
4.05,1.5,98
4.2,-1.5,55
4.2,-1.35,55
4.2,-1.2,55
4.2,-1.05,62
4.2,-0.9,62
4.2,-0.75,103
4.2,-0.6,104
4.2,-0.45,111
4.2,-0.3,118
4.2,-0.15,214
4.2,0.0,194
4.2,0.15,97
4.2,0.3,214
4.2,0.45,166
4.2,0.6,152
4.2,0.75,138
4.2,0.9,131
4.2,1.05,131
4.2,1.2,130
4.2,1.35,96
4.2,1.5,96
4.35,-1.5,55
4.35,-1.35,55
4.35,-1.2,55
4.35,-1.05,55
4.35,-0.9,55
4.35,-0.75,62
4.35,-0.6,90
4.35,-0.45,132
4.35,-0.3,76
4.35,-0.15,90
4.35,0.0,173
4.35,0.15,145
4.35,0.3,97
4.35,0.45,118
4.35,0.6,145
4.35,0.75,138
4.35,0.9,124
4.35,1.05,124
4.35,1.2,124
4.35,1.35,124
4.35,1.5,124
4.5,-1.5,55
4.5,-1.35,55
4.5,-1.2,55
4.5,-1.05,55
4.5,-0.9,62
4.5,-0.75,62
4.5,-0.6,83
4.5,-0.45,76
4.5,-0.3,35
4.5,-0.15,21
4.5,0.0,97
4.5,0.15,124
4.5,0.3,35
4.5,0.45,104
4.5,0.6,131
4.5,0.75,131
4.5,0.9,124
4.5,1.05,124
4.5,1.2,131
4.5,1.35,124
4.5,1.5,124
4.65,-1.5,41
4.65,-1.35,42
4.65,-1.2,55
4.65,-1.05,62
4.65,-0.9,55
4.65,-0.75,62
4.65,-0.6,83
4.65,-0.45,83
4.65,-0.3,42
4.65,-0.15,28
4.65,0.0,69
4.65,0.15,166
4.65,0.3,104
4.65,0.45,118
4.65,0.6,166
4.65,0.75,152
4.65,0.9,124
4.65,1.05,138
4.65,1.2,138
4.65,1.35,138
4.65,1.5,137
4.8,-1.5,55
4.8,-1.35,62
4.8,-1.2,62
4.8,-1.05,62
4.8,-0.9,62
4.8,-0.75,62
4.8,-0.6,83
4.8,-0.45,83
4.8,-0.3,62
4.8,-0.15,48
4.8,0.0,97
4.8,0.15,145
4.8,0.3,118
4.8,0.45,159
4.8,0.6,152
4.8,0.75,124
4.8,0.9,117
4.8,1.05,117
4.8,1.2,131
4.8,1.35,131
4.8,1.5,117
4.95,-1.5,55
4.95,-1.35,55
4.95,-1.2,55
4.95,-1.05,62
4.95,-0.9,76
4.95,-0.75,76
4.95,-0.6,76
4.95,-0.45,48
4.95,-0.3,48
4.95,-0.15,41
4.95,0.0,41
4.95,0.15,83
4.95,0.3,111
4.95,0.45,97
4.95,0.6,104
4.95,0.75,124
4.95,0.9,131
4.95,1.05,131
4.95,1.2,117
4.95,1.35,117
4.95,1.5,117
5.1,-1.5,68
5.1,-1.35,68
5.1,-1.2,76
5.1,-1.05,76
5.1,-0.9,110
5.1,-0.75,110
5.1,-0.6,90
5.1,-0.45,83
5.1,-0.3,69
5.1,-0.15,76
5.1,0.0,14
5.1,0.15,28
5.1,0.3,55
5.1,0.45,28
5.1,0.6,69
5.1,0.75,35
5.1,0.9,34
5.1,1.05,34
5.1,1.2,34
5.1,1.35,103
5.1,1.5,89
5.25,-1.5,81
5.25,-1.35,89
5.25,-1.2,89
5.25,-1.05,103
5.25,-0.9,75
5.25,-0.75,89
5.25,-0.6,110
5.25,-0.45,152
5.25,-0.3,166
5.25,-0.15,97
5.25,0.0,48
5.25,0.15,111
5.25,0.3,90
5.25,0.45,21
5.25,0.6,21
5.25,0.75,21
5.25,0.9,35
5.25,1.05,34
5.25,1.2,34
5.25,1.35,34
5.25,1.5,34
5.4,-1.5,122
5.4,-1.35,89
5.4,-1.2,89
5.4,-1.05,96
5.4,-0.9,68
5.4,-0.75,82
5.4,-0.6,117
5.4,-0.45,138
5.4,-0.3,124
5.4,-0.15,76
5.4,0.0,21
5.4,0.15,173
5.4,0.3,124
5.4,0.45,14
5.4,0.6,41
5.4,0.75,21
5.4,0.9,21
5.4,1.05,21
5.4,1.2,21
5.4,1.35,21
5.4,1.5,21
5.55,-1.5,95
5.55,-1.35,122
5.55,-1.2,123
5.55,-1.05,123
5.55,-0.9,123
5.55,-0.75,138
5.55,-0.6,138
5.55,-0.45,138
5.55,-0.3,152
5.55,-0.15,42
5.55,0.0,0
5.55,0.15,62
5.55,0.3,62
5.55,0.45,35
5.55,0.6,41
5.55,0.75,48
5.55,0.9,48
5.55,1.05,69
5.55,1.2,69
5.55,1.35,83
5.55,1.5,76
5.7,-1.5,74
5.7,-1.35,75
5.7,-1.2,102
5.7,-1.05,103
5.7,-0.9,110
5.7,-0.75,110
5.7,-0.6,110
5.7,-0.45,152
5.7,-0.3,131
5.7,-0.15,83
5.7,0.0,21
5.7,0.15,62
5.7,0.3,62
5.7,0.45,104
5.7,0.6,76
5.7,0.75,55
5.7,0.9,55
5.7,1.05,62
5.7,1.2,62
5.7,1.35,62
5.7,1.5,62
5.85,-1.5,74
5.85,-1.35,75
5.85,-1.2,116
5.85,-1.05,116
5.85,-0.9,144
5.85,-0.75,145
5.85,-0.6,145
5.85,-0.45,152
5.85,-0.3,145
5.85,-0.15,62
5.85,0.0,69
5.85,0.15,42
5.85,0.3,55
5.85,0.45,76
5.85,0.6,55
5.85,0.75,69
5.85,0.9,69
5.85,1.05,62
5.85,1.2,55
5.85,1.35,55
5.85,1.5,55
6.0,-1.5,82
6.0,-1.35,82
6.0,-1.2,82
6.0,-1.05,82
6.0,-0.9,96
6.0,-0.75,137
6.0,-0.6,145
6.0,-0.45,180
6.0,-0.3,118
6.0,-0.15,69
6.0,0.0,42
6.0,0.15,55
6.0,0.3,62
6.0,0.45,104
6.0,0.6,104
6.0,0.75,55
6.0,0.9,55
6.0,1.05,62
6.0,1.2,55
6.0,1.35,55
6.0,1.5,55
6.15,-1.5,75
6.15,-1.35,55
6.15,-1.2,68
6.15,-1.05,68
6.15,-0.9,55
6.15,-0.75,48
6.15,-0.6,96
6.15,-0.45,76
6.15,-0.3,42
6.15,-0.15,0
6.15,0.0,7
6.15,0.15,35
6.15,0.3,69
6.15,0.45,28
6.15,0.6,42
6.15,0.75,55
6.15,0.9,55
6.15,1.05,49
6.15,1.2,48
6.15,1.35,48
6.15,1.5,48
6.3,-1.5,42
6.3,-1.35,42
6.3,-1.2,42
6.3,-1.05,42
6.3,-0.9,21
6.3,-0.75,28
6.3,-0.6,41
6.3,-0.45,41
6.3,-0.3,41
6.3,-0.15,28
6.3,0.0,35
6.3,0.15,62
6.3,0.3,62
6.3,0.45,0
6.3,0.6,14
6.3,0.75,14
6.3,0.9,14
6.3,1.05,14
6.3,1.2,35
6.3,1.35,42
6.3,1.5,42
6.45,-1.5,42
6.45,-1.35,42
6.45,-1.2,42
6.45,-1.05,42
6.45,-0.9,49
6.45,-0.75,76
6.45,-0.6,34
6.45,-0.45,76
6.45,-0.3,83
6.45,-0.15,69
6.45,0.0,104
6.45,0.15,138
6.45,0.3,104
6.45,0.45,41
6.45,0.6,21
6.45,0.75,14
6.45,0.9,14
6.45,1.05,28
6.45,1.2,21
6.45,1.35,21
6.45,1.5,28
6.6,-1.5,21
6.6,-1.35,34
6.6,-1.2,48
6.6,-1.05,49
6.6,-0.9,76
6.6,-0.75,76
6.6,-0.6,76
6.6,-0.45,76
6.6,-0.3,90
6.6,-0.15,90
6.6,0.0,55
6.6,0.15,55
6.6,0.3,55
6.6,0.45,48
6.6,0.6,14
6.6,0.75,14
6.6,0.9,28
6.6,1.05,21
6.6,1.2,21
6.6,1.35,21
6.6,1.5,21
6.75,-1.5,48
6.75,-1.35,48
6.75,-1.2,48
6.75,-1.05,49
6.75,-0.9,55
6.75,-0.75,76
6.75,-0.6,76
6.75,-0.45,69
6.75,-0.3,48
6.75,-0.15,83
6.75,0.0,90
6.75,0.15,35
6.75,0.3,21
6.75,0.45,35
6.75,0.6,28
6.75,0.75,21
6.75,0.9,21
6.75,1.05,21
6.75,1.2,27
6.75,1.35,27
6.75,1.5,27
6.9,-1.5,42
6.9,-1.35,42
6.9,-1.2,42
6.9,-1.05,48
6.9,-0.9,55
6.9,-0.75,62
6.9,-0.6,69
6.9,-0.45,83
6.9,-0.3,83
6.9,-0.15,62
6.9,0.0,118
6.9,0.15,83
6.9,0.3,48
6.9,0.45,21
6.9,0.6,21
6.9,0.75,35
6.9,0.9,21
6.9,1.05,21
6.9,1.2,21
6.9,1.35,27
6.9,1.5,27
7.05,-1.5,42
7.05,-1.35,42
7.05,-1.2,42
7.05,-1.05,42
7.05,-0.9,42
7.05,-0.75,56
7.05,-0.6,69
7.05,-0.45,55
7.05,-0.3,69
7.05,-0.15,14
7.05,0.0,76
7.05,0.15,97
7.05,0.3,131
7.05,0.45,104
7.05,0.6,35
7.05,0.75,28
7.05,0.9,28
7.05,1.05,28
7.05,1.2,27
7.05,1.35,21
7.05,1.5,21
7.2,-1.5,42
7.2,-1.35,42
7.2,-1.2,42
7.2,-1.05,49
7.2,-0.9,49
7.2,-0.75,49
7.2,-0.6,49
7.2,-0.45,35
7.2,-0.3,69
7.2,-0.15,111
7.2,0.0,90
7.2,0.15,41
7.2,0.3,90
7.2,0.45,111
7.2,0.6,41
7.2,0.75,21
7.2,0.9,21
7.2,1.05,21
7.2,1.2,27
7.2,1.35,34
7.2,1.5,27
7.35,-1.5,42
7.35,-1.35,42
7.35,-1.2,42
7.35,-1.05,35
7.35,-0.9,42
7.35,-0.75,42
7.35,-0.6,21
7.35,-0.45,35
7.35,-0.3,35
7.35,-0.15,104
7.35,0.0,118
7.35,0.15,21
7.35,0.3,7
7.35,0.45,28
7.35,0.6,62
7.35,0.75,21
7.35,0.9,21
7.35,1.05,21
7.35,1.2,42
7.35,1.35,35
7.35,1.5,35
7.5,-1.5,21
7.5,-1.35,21
7.5,-1.2,21
7.5,-1.05,21
7.5,-0.9,21
7.5,-0.75,21
7.5,-0.6,21
7.5,-0.45,21
7.5,-0.3,28
7.5,-0.15,76
7.5,0.0,55
7.5,0.15,55
7.5,0.3,0
7.5,0.45,14
7.5,0.6,21
7.5,0.75,21
7.5,0.9,49
7.5,1.05,49
7.5,1.2,49
7.5,1.35,49
7.5,1.5,49
7.65,-1.5,21
7.65,-1.35,21
7.65,-1.2,21
7.65,-1.05,21
7.65,-0.9,21
7.65,-0.75,28
7.65,-0.6,28
7.65,-0.45,28
7.65,-0.3,28
7.65,-0.15,55
7.65,0.0,48
7.65,0.15,69
7.65,0.3,55
7.65,0.45,42
7.65,0.6,41
7.65,0.75,42
7.65,0.9,83
7.65,1.05,84
7.65,1.2,84
7.65,1.35,91
7.65,1.5,91
7.8,-1.5,21
7.8,-1.35,21
7.8,-1.2,21
7.8,-1.05,21
7.8,-0.9,21
7.8,-0.75,28
7.8,-0.6,14
7.8,-0.45,14
7.8,-0.3,28
7.8,-0.15,76
7.8,0.0,97
7.8,0.15,48
7.8,0.3,48
7.8,0.45,41
7.8,0.6,97
7.8,0.75,77
7.8,0.9,76
7.8,1.05,84
7.8,1.2,90
7.8,1.35,97
7.8,1.5,97
7.95,-1.5,21
7.95,-1.35,21
7.95,-1.2,34
7.95,-1.05,28
7.95,-0.9,21
7.95,-0.75,14
7.95,-0.6,28
7.95,-0.45,21
7.95,-0.3,21
7.95,-0.15,90
7.95,0.0,76
7.95,0.15,48
7.95,0.3,48
7.95,0.45,104
7.95,0.6,104
7.95,0.75,104
7.95,0.9,104
7.95,1.05,117
7.95,1.2,117
7.95,1.35,97
7.95,1.5,97
8.1,-1.5,0
8.1,-1.35,0
8.1,-1.2,7
8.1,-1.05,7
8.1,-0.9,7
8.1,-0.75,7
8.1,-0.6,7
8.1,-0.45,14
8.1,-0.3,28
8.1,-0.15,21
8.1,0.0,62
8.1,0.15,62
8.1,0.3,55
8.1,0.45,90
8.1,0.6,97
8.1,0.75,97
8.1,0.9,111
8.1,1.05,111
8.1,1.2,111
8.1,1.35,111
8.1,1.5,110
8.25,-1.5,0
8.25,-1.35,0
8.25,-1.2,0
8.25,-1.05,0
8.25,-0.9,7
8.25,-0.75,7
8.25,-0.6,0
8.25,-0.45,55
8.25,-0.3,55
8.25,-0.15,48
8.25,0.0,48
8.25,0.15,21
8.25,0.3,35
8.25,0.45,76
8.25,0.6,97
8.25,0.75,97
8.25,0.9,97
8.25,1.05,97
8.25,1.2,97
8.25,1.35,98
8.25,1.5,98
8.4,-1.5,0
8.4,-1.35,0
8.4,-1.2,0
8.4,-1.05,0
8.4,-0.9,0
8.4,-0.75,0
8.4,-0.6,0
8.4,-0.45,35
8.4,-0.3,76
8.4,-0.15,83
8.4,0.0,7
8.4,0.15,7
8.4,0.3,21
8.4,0.45,28
8.4,0.6,69
8.4,0.75,90
8.4,0.9,83
8.4,1.05,98
8.4,1.2,98
8.4,1.35,98
8.4,1.5,98
8.55,-1.5,41
8.55,-1.35,35
8.55,-1.2,35
8.55,-1.05,35
8.55,-0.9,7
8.55,-0.75,7
8.55,-0.6,0
8.55,-0.45,0
8.55,-0.3,0
8.55,-0.15,76
8.55,0.0,7
8.55,0.15,14
8.55,0.3,7
8.55,0.45,7
8.55,0.6,7
8.55,0.75,7
8.55,0.9,76
8.55,1.05,76
8.55,1.2,77
8.55,1.35,84
8.55,1.5,84
8.7,-1.5,48
8.7,-1.35,48
8.7,-1.2,48
8.7,-1.05,35
8.7,-0.9,48
8.7,-0.75,42
8.7,-0.6,42
8.7,-0.45,35
8.7,-0.3,28
8.7,-0.15,0
8.7,0.0,21
8.7,0.15,28
8.7,0.3,14
8.7,0.45,7
8.7,0.6,14
8.7,0.75,14
8.7,0.9,7
8.7,1.05,28
8.7,1.2,42
8.7,1.35,83
8.7,1.5,83
8.85,-1.5,55
8.85,-1.35,55
8.85,-1.2,55
8.85,-1.05,48
8.85,-0.9,55
8.85,-0.75,55
8.85,-0.6,55
8.85,-0.45,48
8.85,-0.3,48
8.85,-0.15,83
8.85,0.0,41
8.85,0.15,0
8.85,0.3,14
8.85,0.45,7
8.85,0.6,14
8.85,0.75,28
8.85,0.9,28
8.85,1.05,76
8.85,1.2,76
8.85,1.35,76
8.85,1.5,76
9.0,-1.5,55
9.0,-1.35,55
9.0,-1.2,55
9.0,-1.05,48
9.0,-0.9,48
9.0,-0.75,48
9.0,-0.6,55
9.0,-0.45,97
9.0,-0.3,97
9.0,-0.15,131
9.0,0.0,111
9.0,0.15,48
9.0,0.3,14
9.0,0.45,21
9.0,0.6,21
9.0,0.75,21
9.0,0.9,62
9.0,1.05,63
9.0,1.2,63
9.0,1.35,76
9.0,1.5,76
9.15,-1.5,55
9.15,-1.35,55
9.15,-1.2,55
9.15,-1.05,55
9.15,-0.9,55
9.15,-0.75,55
9.15,-0.6,111
9.15,-0.45,124
9.15,-0.3,124
9.15,-0.15,118
9.15,0.0,124
9.15,0.15,48
9.15,0.3,35
9.15,0.45,14
9.15,0.6,62
9.15,0.75,63
9.15,0.9,63
9.15,1.05,63
9.15,1.2,69
9.15,1.35,63
9.15,1.5,63
9.3,-1.5,41
9.3,-1.35,41
9.3,-1.2,55
9.3,-1.05,55
9.3,-0.9,62
9.3,-0.75,62
9.3,-0.6,62
9.3,-0.45,21
9.3,-0.3,76
9.3,-0.15,62
9.3,0.0,117
9.3,0.15,83
9.3,0.3,104
9.3,0.45,97
9.3,0.6,124
9.3,0.75,111
9.3,0.9,111
9.3,1.05,69
9.3,1.2,83
9.3,1.35,83
9.3,1.5,83
9.45,-1.5,0
9.45,-1.35,7
9.45,-1.2,7
9.45,-1.05,7
9.45,-0.9,7
9.45,-0.75,7
9.45,-0.6,7
9.45,-0.45,7
9.45,-0.3,14
9.45,-0.15,35
9.45,0.0,35
9.45,0.15,97
9.45,0.3,138
9.45,0.45,138
9.45,0.6,145
9.45,0.75,138
9.45,0.9,138
9.45,1.05,138
9.45,1.2,90
9.45,1.35,90
9.45,1.5,90
9.6,-1.5,0
9.6,-1.35,0
9.6,-1.2,0
9.6,-1.05,0
9.6,-0.9,21
9.6,-0.75,21
9.6,-0.6,21
9.6,-0.45,62
9.6,-0.3,41
9.6,-0.15,35
9.6,0.0,48
9.6,0.15,62
9.6,0.3,104
9.6,0.45,138
9.6,0.6,131
9.6,0.75,131
9.6,0.9,131
9.6,1.05,131
9.6,1.2,104
9.6,1.35,104
9.6,1.5,69
9.75,-1.5,0
9.75,-1.35,0
9.75,-1.2,0
9.75,-1.05,0
9.75,-0.9,28
9.75,-0.75,28
9.75,-0.6,28
9.75,-0.45,83
9.75,-0.3,83
9.75,-0.15,90
9.75,0.0,69
9.75,0.15,42
9.75,0.3,90
9.75,0.45,90
9.75,0.6,97
9.75,0.75,90
9.75,0.9,90
9.75,1.05,104
9.75,1.2,104
9.75,1.35,111
9.75,1.5,111
9.9,-1.5,15
9.9,-1.35,0
9.9,-1.2,0
9.9,-1.05,0
9.9,-0.9,14
9.9,-0.75,14
9.9,-0.6,14
9.9,-0.45,28
9.9,-0.3,69
9.9,-0.15,104
9.9,0.0,97
9.9,0.15,14
9.9,0.3,41
9.9,0.45,41
9.9,0.6,55
9.9,0.75,90
9.9,0.9,90
9.9,1.05,90
9.9,1.2,90
9.9,1.35,125
9.9,1.5,125
10.05,-1.5,15
10.05,-1.35,14
10.05,-1.2,14
10.05,-1.05,6
10.05,-0.9,7
10.05,-0.75,7
10.05,-0.6,7
10.05,-0.45,14
10.05,-0.3,28
10.05,-0.15,41
10.05,0.0,28
10.05,0.15,7
10.05,0.3,97
10.05,0.45,97
10.05,0.6,97
10.05,0.75,97
10.05,0.9,97
10.05,1.05,132
10.05,1.2,132
10.05,1.35,132
10.05,1.5,132
10.2,-1.5,21
10.2,-1.35,21
10.2,-1.2,55
10.2,-1.05,55
10.2,-0.9,21
10.2,-0.75,21
10.2,-0.6,21
10.2,-0.45,62
10.2,-0.3,62
10.2,-0.15,69
10.2,0.0,83
10.2,0.15,69
10.2,0.3,83
10.2,0.45,76
10.2,0.6,90
10.2,0.75,83
10.2,0.9,83
10.2,1.05,83
10.2,1.2,83
10.2,1.35,90
10.2,1.5,90
10.35,-1.5,35
10.35,-1.35,35
10.35,-1.2,75
10.35,-1.05,75
10.35,-0.9,62
10.35,-0.75,62
10.35,-0.6,41
10.35,-0.45,76
10.35,-0.3,76
10.35,-0.15,69
10.35,0.0,83
10.35,0.15,76
10.35,0.3,76
10.35,0.45,76
10.35,0.6,76
10.35,0.75,76
10.35,0.9,76
10.35,1.05,76
10.35,1.2,83
10.35,1.35,83
10.35,1.5,83
10.5,-1.5,42
10.5,-1.35,42
10.5,-1.2,42
10.5,-1.05,89
10.5,-0.9,90
10.5,-0.75,90
10.5,-0.6,90
10.5,-0.45,97
10.5,-0.3,97
10.5,-0.15,90
10.5,0.0,83
10.5,0.15,90
10.5,0.3,76
10.5,0.45,83
10.5,0.6,76
10.5,0.75,76
10.5,0.9,76
10.5,1.05,76
10.5,1.2,76
10.5,1.35,76
10.5,1.5,76
10.65,-1.5,55
10.65,-1.35,55
10.65,-1.2,69
10.65,-1.05,103
10.65,-0.9,103
10.65,-0.75,103
10.65,-0.6,104
10.65,-0.45,83
10.65,-0.3,111
10.65,-0.15,104
10.65,0.0,104
10.65,0.15,55
10.65,0.3,76
10.65,0.45,83
10.65,0.6,104
10.65,0.75,104
10.65,0.9,104
10.65,1.05,104
10.65,1.2,104
10.65,1.35,104
10.65,1.5,119
10.8,-1.5,96
10.8,-1.35,96
10.8,-1.2,97
10.8,-1.05,97
10.8,-0.9,97
10.8,-0.75,76
10.8,-0.6,76
10.8,-0.45,111
10.8,-0.3,90
10.8,-0.15,90
10.8,0.0,48
10.8,0.15,35
10.8,0.3,76
10.8,0.45,131
10.8,0.6,132
10.8,0.75,139
10.8,0.9,139
10.8,1.05,160
10.8,1.2,160
10.8,1.35,160
10.8,1.5,160
10.95,-1.5,97
10.95,-1.35,97
10.95,-1.2,97
10.95,-1.05,97
10.95,-0.9,97
10.95,-0.75,97
10.95,-0.6,97
10.95,-0.45,76
10.95,-0.3,48
10.95,-0.15,69
10.95,0.0,62
10.95,0.15,62
10.95,0.3,97
10.95,0.45,97
10.95,0.6,166
10.95,0.75,153
10.95,0.9,153
10.95,1.05,174
10.95,1.2,174
10.95,1.35,174
10.95,1.5,174
11.1,-1.5,83
11.1,-1.35,90
11.1,-1.2,90
11.1,-1.05,90
11.1,-0.9,90
11.1,-0.75,97
11.1,-0.6,97
11.1,-0.45,83
11.1,-0.3,55
11.1,-0.15,76
11.1,0.0,62
11.1,0.15,90
11.1,0.3,138
11.1,0.45,131
11.1,0.6,152
11.1,0.75,152
11.1,0.9,153
11.1,1.05,139
11.1,1.2,139
11.1,1.35,139
11.1,1.5,126
11.25,-1.5,63
11.25,-1.35,63
11.25,-1.2,70
11.25,-1.05,70
11.25,-0.9,84
11.25,-0.75,90
11.25,-0.6,90
11.25,-0.45,90
11.25,-0.3,83
11.25,-0.15,76
11.25,0.0,117
11.25,0.15,159
11.25,0.3,173
11.25,0.45,173
11.25,0.6,186
11.25,0.75,159
11.25,0.9,159
11.25,1.05,159
11.25,1.2,159
11.25,1.35,159
11.25,1.5,159
11.4,-1.5,63
11.4,-1.35,63
11.4,-1.2,63
11.4,-1.05,77
11.4,-0.9,77
11.4,-0.75,90
11.4,-0.6,69
11.4,-0.45,69
11.4,-0.3,90
11.4,-0.15,69
11.4,0.0,118
11.4,0.15,159
11.4,0.3,193
11.4,0.45,194
11.4,0.6,187
11.4,0.75,160
11.4,0.9,153
11.4,1.05,153
11.4,1.2,153
11.4,1.35,153
11.4,1.5,153
11.55,-1.5,63
11.55,-1.35,63
11.55,-1.2,63
11.55,-1.05,69
11.55,-0.9,42
11.55,-0.75,42
11.55,-0.6,69
11.55,-0.45,69
11.55,-0.3,69
11.55,-0.15,69
11.55,0.0,118
11.55,0.15,159
11.55,0.3,166
11.55,0.45,159
11.55,0.6,159
11.55,0.75,160
11.55,0.9,160
11.55,1.05,160
11.55,1.2,153
11.55,1.35,153
11.55,1.5,153
11.7,-1.5,83
11.7,-1.35,83
11.7,-1.2,83
11.7,-1.05,62
11.7,-0.9,62
11.7,-0.75,69
11.7,-0.6,90
11.7,-0.45,90
11.7,-0.3,76
11.7,-0.15,62
11.7,0.0,118
11.7,0.15,118
11.7,0.3,138
11.7,0.45,159
11.7,0.6,159
11.7,0.75,159
11.7,0.9,159
11.7,1.05,160
11.7,1.2,160
11.7,1.35,160
11.7,1.5,151
11.85,-1.5,55
11.85,-1.35,62
11.85,-1.2,62
11.85,-1.05,55
11.85,-0.9,55
11.85,-0.75,55
11.85,-0.6,62
11.85,-0.45,62
11.85,-0.3,62
11.85,-0.15,62
11.85,0.0,90
11.85,0.15,104
11.85,0.3,145
11.85,0.45,138
11.85,0.6,159
11.85,0.75,159
11.85,0.9,159
11.85,1.05,159
11.85,1.2,159
11.85,1.35,150
11.85,1.5,150
12.0,-1.5,55
12.0,-1.35,55
12.0,-1.2,55
12.0,-1.05,76
12.0,-0.9,69
12.0,-0.75,28
12.0,-0.6,41
12.0,-0.45,62
12.0,-0.3,62
12.0,-0.15,62
12.0,0.0,83
12.0,0.15,28
12.0,0.3,97
12.0,0.45,124
12.0,0.6,158
12.0,0.75,151
12.0,0.9,151
12.0,1.05,151
12.0,1.2,143
12.0,1.35,143
12.0,1.5,143
12.15,-1.5,68
12.15,-1.35,68
12.15,-1.2,68
12.15,-1.05,76
12.15,-0.9,76
12.15,-0.75,48
12.15,-0.6,62
12.15,-0.45,62
12.15,-0.3,62
12.15,-0.15,83
12.15,0.0,83
12.15,0.15,48
12.15,0.3,49
12.15,0.45,110
12.15,0.6,110
12.15,0.75,124
12.15,0.9,151
12.15,1.05,122
12.15,1.2,142
12.15,1.35,142
12.15,1.5,142
12.3,-1.5,94
12.3,-1.35,95
12.3,-1.2,95
12.3,-1.05,95
12.3,-0.9,96
12.3,-0.75,97
12.3,-0.6,97
12.3,-0.45,97
12.3,-0.3,104
12.3,-0.15,104
12.3,0.0,76
12.3,0.15,48
12.3,0.3,21
12.3,0.45,41
12.3,0.6,62
12.3,0.75,103
12.3,0.9,89
12.3,1.05,122
12.3,1.2,121
12.3,1.35,141
12.3,1.5,141
12.45,-1.5,94
12.45,-1.35,94
12.45,-1.2,95
12.45,-1.05,95
12.45,-0.9,96
12.45,-0.75,96
12.45,-0.6,69
12.45,-0.45,69
12.45,-0.3,69
12.45,-0.15,76
12.45,0.0,76
12.45,0.15,69
12.45,0.3,62
12.45,0.45,34
12.45,0.6,62
12.45,0.75,48
12.45,0.9,88
12.45,1.05,88
12.45,1.2,114
12.45,1.35,114
12.45,1.5,140
12.6,-1.5,94
12.6,-1.35,94
12.6,-1.2,95
12.6,-1.05,95
12.6,-0.9,69
12.6,-0.75,69
12.6,-0.6,69
12.6,-0.45,69
12.6,-0.3,69
12.6,-0.15,76
12.6,0.0,69
12.6,0.15,62
12.6,0.3,62
12.6,0.45,75
12.6,0.6,75
12.6,0.75,47
12.6,0.9,47
12.6,1.05,47
12.6,1.2,87
12.6,1.35,87
12.6,1.5,113
12.75,-1.5,94
12.75,-1.35,94
12.75,-1.2,94
12.75,-1.05,69
12.75,-0.9,69
12.75,-0.75,69
12.75,-0.6,69
12.75,-0.45,69
12.75,-0.3,69
12.75,-0.15,62
12.75,0.0,69
12.75,0.15,69
12.75,0.3,61
12.75,0.45,48
12.75,0.6,67
12.75,0.75,67
12.75,0.9,47
12.75,1.05,47
12.75,1.2,47
12.75,1.35,86
12.75,1.5,86
12.9,-1.5,93
12.9,-1.35,69
12.9,-1.2,69
12.9,-1.05,69
12.9,-0.9,69
12.9,-0.75,69
12.9,-0.6,69
12.9,-0.45,69
12.9,-0.3,69
12.9,-0.15,62
12.9,0.0,62
12.9,0.15,62
12.9,0.3,61
12.9,0.45,54
12.9,0.6,40
12.9,0.75,67
12.9,0.9,67
12.9,1.05,73
12.9,1.2,73
12.9,1.35,73
12.9,1.5,73
13.05,-1.5,69
13.05,-1.35,69
13.05,-1.2,69
13.05,-1.05,69
13.05,-0.9,69
13.05,-0.75,69
13.05,-0.6,69
13.05,-0.45,69
13.05,-0.3,62
13.05,-0.15,62
13.05,0.0,62
13.05,0.15,62
13.05,0.3,55
13.05,0.45,40
13.05,0.6,40
13.05,0.75,39
13.05,0.9,39
13.05,1.05,66
13.05,1.2,93
13.05,1.35,73
13.05,1.5,73
