-3.0,-1.5,196
-3.0,-1.35,196
-3.0,-1.2,197
-3.0,-1.05,238
-3.0,-0.9,238
-3.0,-0.75,238
-3.0,-0.6,225
-3.0,-0.45,225
-3.0,-0.3,225
-3.0,-0.15,234
-3.0,0.0,255
-3.0,0.15,255
-3.0,0.3,191
-3.0,0.45,211
-3.0,0.6,211
-3.0,0.75,210
-3.0,0.9,210
-3.0,1.05,176
-3.0,1.2,176
-3.0,1.35,175
-3.0,1.5,175
-2.85,-1.5,196
-2.85,-1.35,238
-2.85,-1.2,238
-2.85,-1.05,197
-2.85,-0.9,238
-2.85,-0.75,239
-2.85,-0.6,225
-2.85,-0.45,225
-2.85,-0.3,234
-2.85,-0.15,234
-2.85,0.0,255
-2.85,0.15,234
-2.85,0.3,212
-2.85,0.45,211
-2.85,0.6,211
-2.85,0.75,210
-2.85,0.9,176
-2.85,1.05,176
-2.85,1.2,176
-2.85,1.35,175
-2.85,1.5,175
-2.7,-1.5,196
-2.7,-1.35,238
-2.7,-1.2,238
-2.7,-1.05,239
-2.7,-0.9,239
-2.7,-0.75,239
-2.7,-0.6,239
-2.7,-0.45,226
-2.7,-0.3,235
-2.7,-0.15,234
-2.7,0.0,234
-2.7,0.15,234
-2.7,0.3,234
-2.7,0.45,212
-2.7,0.6,211
-2.7,0.75,211
-2.7,0.9,176
-2.7,1.05,176
-2.7,1.2,176
-2.7,1.35,175
-2.7,1.5,168
-2.55,-1.5,196
-2.55,-1.35,197
-2.55,-1.2,238
-2.55,-1.05,239
-2.55,-0.9,239
-2.55,-0.75,240
-2.55,-0.6,240
-2.55,-0.45,228
-2.55,-0.3,235
-2.55,-0.15,234
-2.55,0.0,234
-2.55,0.15,234
-2.55,0.3,234
-2.55,0.45,212
-2.55,0.6,211
-2.55,0.75,177
-2.55,0.9,176
-2.55,1.05,176
-2.55,1.2,176
-2.55,1.35,175
-2.55,1.5,168
-2.4,-1.5,196
-2.4,-1.35,197
-2.4,-1.2,205
-2.4,-1.05,239
-2.4,-0.9,240
-2.4,-0.75,240
-2.4,-0.6,255
-2.4,-0.45,255
-2.4,-0.3,228
-2.4,-0.15,234
-2.4,0.0,234
-2.4,0.15,213
-2.4,0.3,213
-2.4,0.45,213
-2.4,0.6,212
-2.4,0.75,177
-2.4,0.9,176
-2.4,1.05,176
-2.4,1.2,176
-2.4,1.35,148
-2.4,1.5,168
-2.25,-1.5,196
-2.25,-1.35,197
-2.25,-1.2,205
-2.25,-1.05,205
-2.25,-0.9,205
-2.25,-0.75,240
-2.25,-0.6,255
-2.25,-0.45,255
-2.25,-0.3,255
-2.25,-0.15,255
-2.25,0.0,227
-2.25,0.15,227
-2.25,0.3,213
-2.25,0.45,213
-2.25,0.6,213
-2.25,0.75,177
-2.25,0.9,176
-2.25,1.05,176
-2.25,1.2,169
-2.25,1.35,168
-2.25,1.5,168
-2.1,-1.5,162
-2.1,-1.35,162
-2.1,-1.2,205
-2.1,-1.05,205
-2.1,-0.9,205
-2.1,-0.75,214
-2.1,-0.6,255
-2.1,-0.45,255
-2.1,-0.3,255
-2.1,-0.15,255
-2.1,0.0,227
-2.1,0.15,227
-2.1,0.3,227
-2.1,0.45,178
-2.1,0.6,178
-2.1,0.75,177
-2.1,0.9,148
-2.1,1.05,169
-2.1,1.2,169
-2.1,1.35,168
-2.1,1.5,168
-1.95,-1.5,154
-1.95,-1.35,162
-1.95,-1.2,162
-1.95,-1.05,206
-1.95,-0.9,214
-1.95,-0.75,214
-1.95,-0.6,214
-1.95,-0.45,255
-1.95,-0.3,255
-1.95,-0.15,227
-1.95,0.0,227
-1.95,0.15,227
-1.95,0.3,227
-1.95,0.45,178
-1.95,0.6,178
-1.95,0.75,178
-1.95,0.9,177
-1.95,1.05,169
-1.95,1.2,168
-1.95,1.35,168
-1.95,1.5,168
-1.8,-1.5,154
-1.8,-1.35,163
-1.8,-1.2,171
-1.8,-1.05,171
-1.8,-0.9,213
-1.8,-0.75,213
-1.8,-0.6,213
-1.8,-0.45,213
-1.8,-0.3,220
-1.8,-0.15,192
-1.8,0.0,192
-1.8,0.15,191
-1.8,0.3,191
-1.8,0.45,191
-1.8,0.6,178
-1.8,0.75,170
-1.8,0.9,170
-1.8,1.05,170
-1.8,1.2,168
-1.8,1.35,168
-1.8,1.5,167
-1.65,-1.5,162
-1.65,-1.35,162
-1.65,-1.2,163
-1.65,-1.05,170
-1.65,-0.9,178
-1.65,-0.75,178
-1.65,-0.6,178
-1.65,-0.45,178
-1.65,-0.3,171
-1.65,-0.15,192
-1.65,0.0,192
-1.65,0.15,191
-1.65,0.3,156
-1.65,0.45,149
-1.65,0.6,149
-1.65,0.75,177
-1.65,0.9,169
-1.65,1.05,169
-1.65,1.2,127
-1.65,1.35,127
-1.65,1.5,127
-1.5,-1.5,162
-1.5,-1.35,163
-1.5,-1.2,141
-1.5,-1.05,170
-1.5,-0.9,170
-1.5,-0.75,178
-1.5,-0.6,156
-1.5,-0.45,135
-1.5,-0.3,135
-1.5,-0.15,149
-1.5,0.0,135
-1.5,0.15,156
-1.5,0.3,114
-1.5,0.45,114
-1.5,0.6,114
-1.5,0.75,100
-1.5,0.9,142
-1.5,1.05,169
-1.5,1.2,135
-1.5,1.35,127
-1.5,1.5,127
-1.35,-1.5,135
-1.35,-1.35,135
-1.35,-1.2,170
-1.35,-1.05,149
-1.35,-0.9,156
-1.35,-0.75,164
-1.35,-0.6,135
-1.35,-0.45,135
-1.35,-0.3,135
-1.35,-0.15,135
-1.35,0.0,114
-1.35,0.15,121
-1.35,0.3,78
-1.35,0.45,114
-1.35,0.6,79
-1.35,0.75,79
-1.35,0.9,107
-1.35,1.05,107
-1.35,1.2,142
-1.35,1.35,142
-1.35,1.5,133
-1.2,-1.5,99
-1.2,-1.35,121
-1.2,-1.2,121
-1.2,-1.05,92
-1.2,-0.9,93
-1.2,-0.75,107
-1.2,-0.6,100
-1.2,-0.45,135
-1.2,-0.3,114
-1.2,-0.15,114
-1.2,0.0,78
-1.2,0.15,71
-1.2,0.3,78
-1.2,0.45,113
-1.2,0.6,113
-1.2,0.75,121
-1.2,0.9,121
-1.2,1.05,142
-1.2,1.2,149
-1.2,1.35,184
-1.2,1.5,183
-1.05,-1.5,99
-1.05,-1.35,99
-1.05,-1.2,134
-1.05,-1.05,64
-1.05,-0.9,64
-1.05,-0.75,107
-1.05,-0.6,78
-1.05,-0.45,78
-1.05,-0.3,85
-1.05,-0.15,121
-1.05,0.0,107
-1.05,0.15,107
-1.05,0.3,128
-1.05,0.45,120
-1.05,0.6,120
-1.05,0.75,120
-1.05,0.9,127
-1.05,1.05,127
-1.05,1.2,183
-1.05,1.35,184
-1.05,1.5,170
-0.9,-1.5,99
-0.9,-1.35,99
-0.9,-1.2,99
-0.9,-1.05,99
-0.9,-0.9,78
-0.9,-0.75,78
-0.9,-0.6,99
-0.9,-0.45,85
-0.9,-0.3,127
-0.9,-0.15,128
-0.9,0.0,107
-0.9,0.15,107
-0.9,0.3,120
-0.9,0.45,120
-0.9,0.6,120
-0.9,0.75,120
-0.9,0.9,141
-0.9,1.05,141
-0.9,1.2,127
-0.9,1.35,154
-0.9,1.5,154
-0.75,-1.5,99
-0.75,-1.35,99
-0.75,-1.2,99
-0.75,-1.05,85
-0.75,-0.9,85
-0.75,-0.75,127
-0.75,-0.6,135
-0.75,-0.45,135
-0.75,-0.3,170
-0.75,-0.15,163
-0.75,0.0,149
-0.75,0.15,128
-0.75,0.3,121
-0.75,0.45,120
-0.75,0.6,141
-0.75,0.75,141
-0.75,0.9,134
-0.75,1.05,155
-0.75,1.2,155
-0.75,1.35,155
-0.75,1.5,154
-0.6,-1.5,105
-0.6,-1.35,112
-0.6,-1.2,113
-0.6,-1.05,85
-0.6,-0.9,85
-0.6,-0.75,135
-0.6,-0.6,135
-0.6,-0.45,170
-0.6,-0.3,192
-0.6,-0.15,170
-0.6,0.0,178
-0.6,0.15,170
-0.6,0.3,149
-0.6,0.45,149
-0.6,0.6,149
-0.6,0.75,142
-0.6,0.9,155
-0.6,1.05,155
-0.6,1.2,155
-0.6,1.35,190
-0.6,1.5,190
-0.45,-1.5,105
-0.45,-1.35,105
-0.45,-1.2,106
-0.45,-1.05,148
-0.45,-0.9,163
-0.45,-0.75,128
-0.45,-0.6,128
-0.45,-0.45,128
-0.45,-0.3,142
-0.45,-0.15,185
-0.45,0.0,185
-0.45,0.15,178
-0.45,0.3,142
-0.45,0.45,142
-0.45,0.6,135
-0.45,0.75,156
-0.45,0.9,155
-0.45,1.05,155
-0.45,1.2,191
-0.45,1.35,148
-0.45,1.5,120
-0.3,-1.5,105
-0.3,-1.35,105
-0.3,-1.2,106
-0.3,-1.05,163
-0.3,-0.9,163
-0.3,-0.75,163
-0.3,-0.6,128
-0.3,-0.45,128
-0.3,-0.3,135
-0.3,-0.15,156
-0.3,0.0,142
-0.3,0.15,135
-0.3,0.3,121
-0.3,0.45,135
-0.3,0.6,135
-0.3,0.75,156
-0.3,0.9,156
-0.3,1.05,191
-0.3,1.2,149
-0.3,1.35,120
-0.3,1.5,120
-0.15,-1.5,92
-0.15,-1.35,92
-0.15,-1.2,134
-0.15,-1.05,135
-0.15,-0.9,185
-0.15,-0.75,163
-0.15,-0.6,135
-0.15,-0.45,142
-0.15,-0.3,121
-0.15,-0.15,121
-0.15,0.0,149
-0.15,0.15,121
-0.15,0.3,142
-0.15,0.45,171
-0.15,0.6,171
-0.15,0.75,170
-0.15,0.9,205
-0.15,1.05,155
-0.15,1.2,155
-0.15,1.35,155
-0.15,1.5,155
0.0,-1.5,148
0.0,-1.35,121
0.0,-1.2,121
0.0,-1.05,163
0.0,-0.9,185
0.0,-0.75,241
0.0,-0.6,213
0.0,-0.45,178
0.0,-0.3,100
0.0,-0.15,85
0.0,0.0,92
0.0,0.15,100
0.0,0.3,171
0.0,0.45,171
0.0,0.6,171
0.0,0.75,171
0.0,0.9,156
0.0,1.05,155
0.0,1.2,155
0.0,1.35,155
0.0,1.5,155
0.15,-1.5,120
0.15,-1.35,120
0.15,-1.2,149
0.15,-1.05,142
0.15,-0.9,156
0.15,-0.75,185
0.15,-0.6,156
0.15,-0.45,128
0.15,-0.3,92
0.15,-0.15,71
0.15,0.0,107
0.15,0.15,107
0.15,0.3,135
0.15,0.45,135
0.15,0.6,163
0.15,0.75,163
0.15,0.9,163
0.15,1.05,163
0.15,1.2,155
0.15,1.35,134
0.15,1.5,134
0.3,-1.5,113
0.3,-1.35,114
0.3,-1.2,149
0.3,-1.05,142
0.3,-0.9,107
0.3,-0.75,163
0.3,-0.6,185
0.3,-0.45,178
0.3,-0.3,135
0.3,-0.15,114
0.3,0.0,121
0.3,0.15,149
0.3,0.3,107
0.3,0.45,135
0.3,0.6,135
0.3,0.75,135
0.3,0.9,135
0.3,1.05,142
0.3,1.2,135
0.3,1.35,135
0.3,1.5,121
0.45,-1.5,113
0.45,-1.35,114
0.45,-1.2,114
0.45,-1.05,135
0.45,-0.9,163
0.45,-0.75,156
0.45,-0.6,178
0.45,-0.45,170
0.45,-0.3,142
0.45,-0.15,178
0.45,0.0,149
0.45,0.15,149
0.45,0.3,92
0.45,0.45,107
0.45,0.6,107
0.45,0.75,107
0.45,0.9,121
0.45,1.05,121
0.45,1.2,121
0.45,1.35,121
0.45,1.5,120
0.6,-1.5,113
0.6,-1.35,114
0.6,-1.2,114
0.6,-1.05,135
0.6,-0.9,163
0.6,-0.75,170
0.6,-0.6,142
0.6,-0.45,163
0.6,-0.3,192
0.6,-0.15,170
0.6,0.0,142
0.6,0.15,128
0.6,0.3,100
0.6,0.45,114
0.6,0.6,114
0.6,0.75,135
0.6,0.9,114
0.6,1.05,107
0.6,1.2,93
0.6,1.35,99
0.6,1.5,99
0.75,-1.5,113
0.75,-1.35,113
0.75,-1.2,113
0.75,-1.05,99
0.75,-0.9,100
0.75,-0.75,100
0.75,-0.6,114
0.75,-0.45,163
0.75,-0.3,170
0.75,-0.15,156
0.75,0.0,107
0.75,0.15,107
0.75,0.3,93
0.75,0.45,114
0.75,0.6,114
0.75,0.75,114
0.75,0.9,114
0.75,1.05,114
0.75,1.2,113
0.75,1.35,113
0.75,1.5,113
0.9,-1.5,43
0.9,-1.35,43
0.9,-1.2,50
0.9,-1.05,50
0.9,-0.9,50
0.9,-0.75,71
0.9,-0.6,85
0.9,-0.45,163
0.9,-0.3,170
0.9,-0.15,142
0.9,0.0,107
0.9,0.15,85
0.9,0.3,43
0.9,0.45,21
0.9,0.6,86
0.9,0.75,50
0.9,0.9,50
0.9,1.05,93
0.9,1.2,78
0.9,1.35,78
0.9,1.5,78
1.05,-1.5,22
1.05,-1.35,22
1.05,-1.2,22
1.05,-1.05,22
1.05,-0.9,15
1.05,-0.75,50
1.05,-0.6,85
1.05,-0.45,135
1.05,-0.3,128
1.05,-0.15,121
1.05,0.0,78
1.05,0.15,36
1.05,0.3,36
1.05,0.45,29
1.05,0.6,43
1.05,0.75,43
1.05,0.9,50
1.05,1.05,78
1.05,1.2,78
1.05,1.35,78
1.05,1.5,78
1.2,-1.5,22
1.2,-1.35,22
1.2,-1.2,22
1.2,-1.05,22
1.2,-0.9,22
1.2,-0.75,14
1.2,-0.6,99
1.2,-0.45,85
1.2,-0.3,128
1.2,-0.15,100
1.2,0.0,36
1.2,0.15,36
1.2,0.3,50
1.2,0.45,43
1.2,0.6,36
1.2,0.75,78
1.2,0.9,78
1.2,1.05,78
1.2,1.2,78
1.2,1.35,78
1.2,1.5,78
1.35,-1.5,29
1.35,-1.35,29
1.35,-1.2,29
1.35,-1.05,29
1.35,-0.9,0
1.35,-0.75,22
1.35,-0.6,57
1.35,-0.45,57
1.35,-0.3,71
1.35,-0.15,71
1.35,0.0,36
1.35,0.15,50
1.35,0.3,57
1.35,0.45,50
1.35,0.6,50
1.35,0.75,36
1.35,0.9,78
1.35,1.05,57
1.35,1.2,57
1.35,1.35,57
1.35,1.5,57
1.5,-1.5,28
1.5,-1.35,29
1.5,-1.2,0
1.5,-1.05,0
1.5,-0.9,29
1.5,-0.75,22
1.5,-0.6,36
1.5,-0.45,36
1.5,-0.3,64
1.5,-0.15,64
1.5,0.0,57
1.5,0.15,85
1.5,0.3,85
1.5,0.45,57
1.5,0.6,29
1.5,0.75,29
1.5,0.9,21
1.5,1.05,21
1.5,1.2,57
1.5,1.35,57
1.5,1.5,57
1.65,-1.5,28
1.65,-1.35,21
1.65,-1.2,22
1.65,-1.05,22
1.65,-0.9,29
1.65,-0.75,14
1.65,-0.6,22
1.65,-0.45,29
1.65,-0.3,29
1.65,-0.15,43
1.65,0.0,43
1.65,0.15,85
1.65,0.3,85
1.65,0.45,64
1.65,0.6,64
1.65,0.75,64
1.65,0.9,57
1.65,1.05,28
1.65,1.2,28
1.65,1.35,28
1.65,1.5,57
1.8,-1.5,28
1.8,-1.35,28
1.8,-1.2,28
1.8,-1.05,36
1.8,-0.9,36
1.8,-0.75,36
1.8,-0.6,43
1.8,-0.45,36
1.8,-0.3,14
1.8,-0.15,14
1.8,0.0,43
1.8,0.15,50
1.8,0.3,85
1.8,0.45,64
1.8,0.6,57
1.8,0.75,50
1.8,0.9,50
1.8,1.05,49
1.8,1.2,35
1.8,1.35,35
1.8,1.5,28
1.95,-1.5,70
1.95,-1.35,78
1.95,-1.2,64
1.95,-1.05,57
1.95,-0.9,36
1.95,-0.75,43
1.95,-0.6,43
1.95,-0.45,36
1.95,-0.3,57
1.95,-0.15,36
1.95,0.0,14
1.95,0.15,64
1.95,0.3,36
1.95,0.45,114
1.95,0.6,99
1.95,0.75,57
1.95,0.9,49
1.95,1.05,49
1.95,1.2,49
1.95,1.35,49
1.95,1.5,49
2.1,-1.5,64
2.1,-1.35,71
2.1,-1.2,78
2.1,-1.05,78
2.1,-0.9,100
2.1,-0.75,71
2.1,-0.6,43
2.1,-0.45,64
2.1,-0.3,43
2.1,-0.15,43
2.1,0.0,57
2.1,0.15,100
2.1,0.3,85
2.1,0.45,92
2.1,0.6,85
2.1,0.75,99
2.1,0.9,99
2.1,1.05,71
2.1,1.2,70
2.1,1.35,77
2.1,1.5,77
2.25,-1.5,64
2.25,-1.35,64
2.25,-1.2,71
2.25,-1.05,71
2.25,-0.9,78
2.25,-0.75,93
2.25,-0.6,64
2.25,-0.45,43
2.25,-0.3,85
2.25,-0.15,64
2.25,0.0,100
2.25,0.15,92
2.25,0.3,114
2.25,0.45,114
2.25,0.6,92
2.25,0.75,92
2.25,0.9,92
2.25,1.05,78
2.25,1.2,77
2.25,1.35,77
2.25,1.5,77
2.4,-1.5,57
2.4,-1.35,57
2.4,-1.2,64
2.4,-1.05,92
2.4,-0.9,78
2.4,-0.75,71
2.4,-0.6,92
2.4,-0.45,71
2.4,-0.3,50
2.4,-0.15,71
2.4,0.0,92
2.4,0.15,121
2.4,0.3,135
2.4,0.45,121
2.4,0.6,121
2.4,0.75,113
2.4,0.9,85
2.4,1.05,92
2.4,1.2,50
2.4,1.35,43
2.4,1.5,43
2.55,-1.5,57
2.55,-1.35,57
2.55,-1.2,57
2.55,-1.05,85
2.55,-0.9,135
2.55,-0.75,135
2.55,-0.6,156
2.55,-0.45,156
2.55,-0.3,64
2.55,-0.15,71
2.55,0.0,85
2.55,0.15,85
2.55,0.3,135
2.55,0.45,121
2.55,0.6,121
2.55,0.75,85
2.55,0.9,57
2.55,1.05,57
2.55,1.2,57
2.55,1.35,49
2.55,1.5,49
2.7,-1.5,78
2.7,-1.35,78
2.7,-1.2,57
2.7,-1.05,85
2.7,-0.9,92
2.7,-0.75,92
2.7,-0.6,185
2.7,-0.45,192
2.7,-0.3,156
2.7,-0.15,57
2.7,0.0,100
2.7,0.15,100
2.7,0.3,114
2.7,0.45,85
2.7,0.6,85
2.7,0.75,85
2.7,0.9,57
2.7,1.05,50
2.7,1.2,50
2.7,1.35,50
2.7,1.5,49
2.85,-1.5,78
2.85,-1.35,78
2.85,-1.2,78
2.85,-1.05,107
2.85,-0.9,107
2.85,-0.75,128
2.85,-0.6,227
2.85,-0.45,248
2.85,-0.3,107
2.85,-0.15,43
2.85,0.0,128
2.85,0.15,85
2.85,0.3,114
2.85,0.45,107
2.85,0.6,106
2.85,0.75,85
2.85,0.9,85
2.85,1.05,85
2.85,1.2,85
2.85,1.35,77
2.85,1.5,77
3.0,-1.5,28
3.0,-1.35,36
3.0,-1.2,64
3.0,-1.05,64
3.0,-0.9,99
3.0,-0.75,135
3.0,-0.6,206
3.0,-0.45,163
3.0,-0.3,149
3.0,-0.15,64
3.0,0.0,114
3.0,0.15,85
3.0,0.3,50
3.0,0.45,71
3.0,0.6,99
3.0,0.75,99
3.0,0.9,92
3.0,1.05,92
3.0,1.2,92
3.0,1.35,91
3.0,1.5,63
3.15,-1.5,64
3.15,-1.35,71
3.15,-1.2,92
3.15,-1.05,100
3.15,-0.9,107
3.15,-0.75,107
3.15,-0.6,163
3.15,-0.45,156
3.15,-0.3,107
3.15,-0.15,92
3.15,0.0,92
3.15,0.15,64
3.15,0.3,85
3.15,0.45,85
3.15,0.6,71
3.15,0.75,57
3.15,0.9,57
3.15,1.05,29
3.15,1.2,56
3.15,1.35,56
3.15,1.5,56
3.3,-1.5,64
3.3,-1.35,64
3.3,-1.2,64
3.3,-1.05,64
3.3,-0.9,64
3.3,-0.75,135
3.3,-0.6,135
3.3,-0.45,64
3.3,-0.3,85
3.3,-0.15,92
3.3,0.0,107
3.3,0.15,85
3.3,0.3,57
3.3,0.45,29
3.3,0.6,21
3.3,0.75,64
3.3,0.9,21
3.3,1.05,21
3.3,1.2,21
3.3,1.35,21
3.3,1.5,21
3.45,-1.5,64
3.45,-1.35,64
3.45,-1.2,43
3.45,-1.05,43
3.45,-0.9,43
3.45,-0.75,100
3.45,-0.6,100
3.45,-0.45,135
3.45,-0.3,107
3.45,-0.15,107
3.45,0.0,114
3.45,0.15,85
3.45,0.3,78
3.45,0.45,43
3.45,0.6,43
3.45,0.75,35
3.45,0.9,35
3.45,1.05,35
3.45,1.2,35
3.45,1.35,42
3.45,1.5,70
3.6,-1.5,106
3.6,-1.35,120
3.6,-1.2,121
3.6,-1.05,121
3.6,-0.9,121
3.6,-0.75,142
3.6,-0.6,178
3.6,-0.45,170
3.6,-0.3,135
3.6,-0.15,156
3.6,0.0,100
3.6,0.15,135
3.6,0.3,85
3.6,0.45,78
3.6,0.6,50
3.6,0.75,50
3.6,0.9,50
3.6,1.05,49
3.6,1.2,49
3.6,1.35,49
3.6,1.5,49
3.75,-1.5,114
3.75,-1.35,142
3.75,-1.2,149
3.75,-1.05,142
3.75,-0.9,99
3.75,-0.75,107
3.75,-0.6,128
3.75,-0.45,142
3.75,-0.3,135
3.75,-0.15,71
3.75,0.0,50
3.75,0.15,85
3.75,0.3,64
3.75,0.45,71
3.75,0.6,64
3.75,0.75,64
3.75,0.9,78
3.75,1.05,78
3.75,1.2,78
3.75,1.35,78
3.75,1.5,78
3.9,-1.5,135
3.9,-1.35,191
3.9,-1.2,191
3.9,-1.05,149
3.9,-0.9,156
3.9,-0.75,156
3.9,-0.6,171
3.9,-0.45,128
3.9,-0.3,213
3.9,-0.15,177
3.9,0.0,100
3.9,0.15,100
3.9,0.3,36
3.9,0.45,36
3.9,0.6,85
3.9,0.75,85
3.9,0.9,85
3.9,1.05,85
3.9,1.2,85
3.9,1.35,120
3.9,1.5,120
4.05,-1.5,142
4.05,-1.35,142
4.05,-1.2,177
4.05,-1.05,149
4.05,-0.9,156
4.05,-0.75,199
4.05,-0.6,156
4.05,-0.45,177
4.05,-0.3,206
4.05,-0.15,163
4.05,0.0,107
4.05,0.15,107
4.05,0.3,57
4.05,0.45,64
4.05,0.6,71
4.05,0.75,71
4.05,0.9,106
4.05,1.05,106
4.05,1.2,106
4.05,1.35,99
4.05,1.5,99
4.2,-1.5,114
4.2,-1.35,106
4.2,-1.2,135
4.2,-1.05,163
4.2,-0.9,163
4.2,-0.75,163
4.2,-0.6,156
4.2,-0.45,199
4.2,-0.3,163
4.2,-0.15,92
4.2,0.0,107
4.2,0.15,100
4.2,0.3,107
4.2,0.45,99
4.2,0.6,71
4.2,0.75,71
4.2,0.9,71
4.2,1.05,71
4.2,1.2,71
4.2,1.35,71
4.2,1.5,71
4.35,-1.5,142
4.35,-1.35,149
4.35,-1.2,149
4.35,-1.05,121
4.35,-0.9,135
4.35,-0.75,149
4.35,-0.6,185
4.35,-0.45,135
4.35,-0.3,71
4.35,-0.15,7
4.35,0.0,78
4.35,0.15,85
4.35,0.3,121
4.35,0.45,142
4.35,0.6,114
4.35,0.75,107
4.35,0.9,71
4.35,1.05,71
4.35,1.2,71
4.35,1.35,71
4.35,1.5,71
4.5,-1.5,192
4.5,-1.35,121
4.5,-1.2,114
4.5,-1.05,114
4.5,-0.9,85
4.5,-0.75,50
4.5,-0.6,92
4.5,-0.45,92
4.5,-0.3,85
4.5,-0.15,0
4.5,0.0,22
4.5,0.15,64
4.5,0.3,121
4.5,0.45,135
4.5,0.6,121
4.5,0.75,121
4.5,0.9,114
4.5,1.05,107
4.5,1.2,79
4.5,1.35,79
4.5,1.5,72
4.65,-1.5,135
4.65,-1.35,170
4.65,-1.2,135
4.65,-1.05,135
4.65,-0.9,163
4.65,-0.75,170
4.65,-0.6,114
4.65,-0.45,107
4.65,-0.3,100
4.65,-0.15,36
4.65,0.0,22
4.65,0.15,50
4.65,0.3,121
4.65,0.45,100
4.65,0.6,107
4.65,0.75,114
4.65,0.9,114
4.65,1.05,114
4.65,1.2,107
4.65,1.35,107
4.65,1.5,72
4.8,-1.5,192
4.8,-1.35,170
4.8,-1.2,170
4.8,-1.05,170
4.8,-0.9,171
4.8,-0.75,185
4.8,-0.6,185
4.8,-0.45,114
4.8,-0.3,64
4.8,-0.15,57
4.8,0.0,57
4.8,0.15,22
4.8,0.3,29
4.8,0.45,64
4.8,0.6,107
4.8,0.75,107
4.8,0.9,107
4.8,1.05,107
4.8,1.2,72
4.8,1.35,72
4.8,1.5,79
4.95,-1.5,192
4.95,-1.35,192
4.95,-1.2,170
4.95,-1.05,170
4.95,-0.9,220
4.95,-0.75,248
4.95,-0.6,234
4.95,-0.45,57
4.95,-0.3,71
4.95,-0.15,0
4.95,0.0,0
4.95,0.15,14
4.95,0.3,22
4.95,0.45,50
4.95,0.6,86
4.95,0.75,71
4.95,0.9,64
4.95,1.05,65
4.95,1.2,65
4.95,1.35,65
4.95,1.5,65
5.1,-1.5,156
5.1,-1.35,170
5.1,-1.2,170
5.1,-1.05,227
5.1,-0.9,241
5.1,-0.75,206
5.1,-0.6,114
5.1,-0.45,43
5.1,-0.3,57
5.1,-0.15,36
5.1,0.0,92
5.1,0.15,100
5.1,0.3,100
5.1,0.45,135
5.1,0.6,135
5.1,0.75,128
5.1,0.9,128
5.1,1.05,100
5.1,1.2,121
5.1,1.35,121
5.1,1.5,121
5.25,-1.5,156
5.25,-1.35,178
5.25,-1.2,206
5.25,-1.05,192
5.25,-0.9,156
5.25,-0.75,156
5.25,-0.6,71
5.25,-0.45,14
5.25,-0.3,50
5.25,-0.15,121
5.25,0.0,78
5.25,0.15,78
5.25,0.3,78
5.25,0.45,92
5.25,0.6,99
5.25,0.75,135
5.25,0.9,135
5.25,1.05,85
5.25,1.2,85
5.25,1.35,57
5.25,1.5,57
5.4,-1.5,114
5.4,-1.35,79
5.4,-1.2,78
5.4,-1.05,78
5.4,-0.9,78
5.4,-0.75,85
5.4,-0.6,78
5.4,-0.45,64
5.4,-0.3,64
5.4,-0.15,57
5.4,0.0,22
5.4,0.15,14
5.4,0.3,85
5.4,0.45,128
5.4,0.6,92
5.4,0.75,114
5.4,0.9,114
5.4,1.05,106
5.4,1.2,86
5.4,1.35,86
5.4,1.5,86
5.55,-1.5,79
5.55,-1.35,79
5.55,-1.2,86
5.55,-1.05,86
5.55,-0.9,78
5.55,-0.75,64
5.55,-0.6,100
5.55,-0.45,149
5.55,-0.3,114
5.55,-0.15,114
5.55,0.0,7
5.55,0.15,14
5.55,0.3,71
5.55,0.45,64
5.55,0.6,64
5.55,0.75,64
5.55,0.9,64
5.55,1.05,64
5.55,1.2,64
5.55,1.35,64
5.55,1.5,64
5.7,-1.5,100
5.7,-1.35,100
5.7,-1.2,71
5.7,-1.05,64
5.7,-0.9,114
5.7,-0.75,71
5.7,-0.6,14
5.7,-0.45,43
5.7,-0.3,50
5.7,-0.15,57
5.7,0.0,0
5.7,0.15,71
5.7,0.3,64
5.7,0.45,64
5.7,0.6,64
5.7,0.75,64
5.7,0.9,64
5.7,1.05,64
5.7,1.2,64
5.7,1.35,64
5.7,1.5,64
5.85,-1.5,100
5.85,-1.35,100
5.85,-1.2,100
5.85,-1.05,100
5.85,-0.9,85
5.85,-0.75,85
5.85,-0.6,85
5.85,-0.45,50
5.85,-0.3,170
5.85,-0.15,92
5.85,0.0,0
5.85,0.15,64
5.85,0.3,71
5.85,0.45,71
5.85,0.6,64
5.85,0.75,64
5.85,0.9,64
5.85,1.05,64
5.85,1.2,64
5.85,1.35,64
5.85,1.5,64
6.0,-1.5,114
6.0,-1.35,114
6.0,-1.2,114
6.0,-1.05,57
6.0,-0.9,85
6.0,-0.75,92
6.0,-0.6,43
6.0,-0.45,43
6.0,-0.3,100
6.0,-0.15,57
6.0,0.0,7
6.0,0.15,50
6.0,0.3,85
6.0,0.45,85
6.0,0.6,92
6.0,0.75,92
6.0,0.9,71
6.0,1.05,71
6.0,1.2,78
6.0,1.35,78
6.0,1.5,78
6.15,-1.5,149
6.15,-1.35,149
6.15,-1.2,121
6.15,-1.05,121
6.15,-0.9,170
6.15,-0.75,142
6.15,-0.6,71
6.15,-0.45,43
6.15,-0.3,85
6.15,-0.15,22
6.15,0.0,107
6.15,0.15,100
6.15,0.3,64
6.15,0.45,64
6.15,0.6,85
6.15,0.75,92
6.15,0.9,114
6.15,1.05,114
6.15,1.2,121
6.15,1.35,120
6.15,1.5,99
6.3,-1.5,114
6.3,-1.35,114
6.3,-1.2,121
6.3,-1.05,121
6.3,-0.9,128
6.3,-0.75,128
6.3,-0.6,85
6.3,-0.45,14
6.3,-0.3,7
6.3,-0.15,92
6.3,0.0,71
6.3,0.15,85
6.3,0.3,78
6.3,0.45,71
6.3,0.6,64
6.3,0.75,64
6.3,0.9,64
6.3,1.05,64
6.3,1.2,92
6.3,1.35,85
6.3,1.5,57
6.45,-1.5,164
6.45,-1.35,163
6.45,-1.2,106
6.45,-1.05,114
6.45,-0.9,114
6.45,-0.75,114
6.45,-0.6,114
6.45,-0.45,43
6.45,-0.3,107
6.45,-0.15,57
6.45,0.0,64
6.45,0.15,92
6.45,0.3,85
6.45,0.45,78
6.45,0.6,71
6.45,0.75,71
6.45,0.9,71
6.45,1.05,43
6.45,1.2,43
6.45,1.35,85
6.45,1.5,85
6.6,-1.5,163
6.6,-1.35,163
6.6,-1.2,163
6.6,-1.05,121
6.6,-0.9,78
6.6,-0.75,114
6.6,-0.6,163
6.6,-0.45,128
6.6,-0.3,71
6.6,-0.15,100
6.6,0.0,71
6.6,0.15,107
6.6,0.3,92
6.6,0.45,71
6.6,0.6,71
6.6,0.75,100
6.6,0.9,100
6.6,1.05,100
6.6,1.2,100
6.6,1.35,100
6.6,1.5,92
6.75,-1.5,128
6.75,-1.35,128
6.75,-1.2,128
6.75,-1.05,128
6.75,-0.9,128
6.75,-0.75,92
6.75,-0.6,114
6.75,-0.45,78
6.75,-0.3,50
6.75,-0.15,57
6.75,0.0,57
6.75,0.15,78
6.75,0.3,85
6.75,0.45,85
6.75,0.6,100
6.75,0.75,121
6.75,0.9,121
6.75,1.05,121
6.75,1.2,121
6.75,1.35,121
6.75,1.5,121
6.9,-1.5,121
6.9,-1.35,121
6.9,-1.2,107
6.9,-1.05,128
6.9,-0.9,128
6.9,-0.75,114
6.9,-0.6,78
6.9,-0.45,92
6.9,-0.3,57
6.9,-0.15,29
6.9,0.0,57
6.9,0.15,50
6.9,0.3,64
6.9,0.45,142
6.9,0.6,142
6.9,0.75,114
6.9,0.9,114
6.9,1.05,114
6.9,1.2,142
6.9,1.35,142
6.9,1.5,142
7.05,-1.5,150
7.05,-1.35,149
7.05,-1.2,121
7.05,-1.05,121
7.05,-0.9,135
7.05,-0.75,128
7.05,-0.6,71
7.05,-0.45,0
7.05,-0.3,64
7.05,-0.15,78
7.05,0.0,22
7.05,0.15,29
7.05,0.3,78
7.05,0.45,71
7.05,0.6,71
7.05,0.75,85
7.05,0.9,85
7.05,1.05,107
7.05,1.2,114
7.05,1.35,120
7.05,1.5,120
7.2,-1.5,156
7.2,-1.35,156
7.2,-1.2,156
7.2,-1.05,114
7.2,-0.9,100
7.2,-0.75,185
7.2,-0.6,128
7.2,-0.45,64
7.2,-0.3,0
7.2,-0.15,29
7.2,0.0,14
7.2,0.15,78
7.2,0.3,64
7.2,0.45,78
7.2,0.6,78
7.2,0.75,85
7.2,0.9,85
7.2,1.05,85
7.2,1.2,85
7.2,1.35,85
7.2,1.5,85
7.35,-1.5,128
7.35,-1.35,128
7.35,-1.2,128
7.35,-1.05,171
7.35,-0.9,178
7.35,-0.75,100
7.35,-0.6,57
7.35,-0.45,71
7.35,-0.3,22
7.35,-0.15,85
7.35,0.0,50
7.35,0.15,22
7.35,0.3,50
7.35,0.45,57
7.35,0.6,57
7.35,0.75,78
7.35,0.9,93
7.35,1.05,93
7.35,1.2,78
7.35,1.35,78
7.35,1.5,85
7.5,-1.5,135
7.5,-1.35,135
7.5,-1.2,135
7.5,-1.05,128
7.5,-0.9,92
7.5,-0.75,85
7.5,-0.6,0
7.5,-0.45,0
7.5,-0.3,57
7.5,-0.15,71
7.5,0.0,85
7.5,0.15,50
7.5,0.3,50
7.5,0.45,128
7.5,0.6,128
7.5,0.75,85
7.5,0.9,85
7.5,1.05,71
7.5,1.2,78
7.5,1.35,78
7.5,1.5,85
7.65,-1.5,135
7.65,-1.35,121
7.65,-1.2,79
7.65,-1.05,50
7.65,-0.9,64
7.65,-0.75,71
7.65,-0.6,57
7.65,-0.45,114
7.65,-0.3,156
7.65,-0.15,64
7.65,0.0,50
7.65,0.15,50
7.65,0.3,57
7.65,0.45,64
7.65,0.6,100
7.65,0.75,78
7.65,0.9,100
7.65,1.05,100
7.65,1.2,99
7.65,1.35,99
7.65,1.5,99
7.8,-1.5,86
7.8,-1.35,43
7.8,-1.2,29
7.8,-1.05,71
7.8,-0.9,85
7.8,-0.75,85
7.8,-0.6,128
7.8,-0.45,163
7.8,-0.3,142
7.8,-0.15,7
7.8,0.0,36
7.8,0.15,71
7.8,0.3,71
7.8,0.45,64
7.8,0.6,57
7.8,0.75,36
7.8,0.9,71
7.8,1.05,71
7.8,1.2,71
7.8,1.35,71
7.8,1.5,78
7.95,-1.5,79
7.95,-1.35,71
7.95,-1.2,57
7.95,-1.05,93
7.95,-0.9,29
7.95,-0.75,43
7.95,-0.6,43
7.95,-0.45,128
7.95,-0.3,43
7.95,-0.15,43
7.95,0.0,50
7.95,0.15,78
7.95,0.3,71
7.95,0.45,36
7.95,0.6,36
7.95,0.75,36
7.95,0.9,36
7.95,1.05,36
7.95,1.2,50
7.95,1.35,50
7.95,1.5,50
8.1,-1.5,43
8.1,-1.35,43
8.1,-1.2,43
8.1,-1.05,36
8.1,-0.9,22
8.1,-0.75,43
8.1,-0.6,43
8.1,-0.45,50
8.1,-0.3,71
8.1,-0.15,100
8.1,0.0,78
8.1,0.15,0
8.1,0.3,22
8.1,0.45,36
8.1,0.6,50
8.1,0.75,50
8.1,0.9,50
8.1,1.05,50
8.1,1.2,50
8.1,1.35,78
8.1,1.5,78
8.25,-1.5,43
8.25,-1.35,43
8.25,-1.2,43
8.25,-1.05,43
8.25,-0.9,43
8.25,-0.75,85
8.25,-0.6,71
8.25,-0.45,57
8.25,-0.3,142
8.25,-0.15,107
8.25,0.0,85
8.25,0.15,14
8.25,0.3,7
8.25,0.45,50
8.25,0.6,50
8.25,0.75,50
8.25,0.9,78
8.25,1.05,78
8.25,1.2,78
8.25,1.35,107
8.25,1.5,107
8.4,-1.5,64
8.4,-1.35,64
8.4,-1.2,64
8.4,-1.05,64
8.4,-0.9,64
8.4,-0.75,57
8.4,-0.6,57
8.4,-0.45,78
8.4,-0.3,92
8.4,-0.15,85
8.4,0.0,57
8.4,0.15,57
8.4,0.3,14
8.4,0.45,14
8.4,0.6,36
8.4,0.75,43
8.4,0.9,43
8.4,1.05,78
8.4,1.2,107
8.4,1.35,100
8.4,1.5,100
8.55,-1.5,107
8.55,-1.35,107
8.55,-1.2,142
8.55,-1.05,149
8.55,-0.9,156
8.55,-0.75,121
8.55,-0.6,121
8.55,-0.45,22
8.55,-0.3,14
8.55,-0.15,36
8.55,0.0,64
8.55,0.15,57
8.55,0.3,57
8.55,0.45,36
8.55,0.6,36
8.55,0.75,36
8.55,0.9,36
8.55,1.05,57
8.55,1.2,64
8.55,1.35,64
8.55,1.5,64
8.7,-1.5,170
8.7,-1.35,170
8.7,-1.2,199
8.7,-1.05,177
8.7,-0.9,177
8.7,-0.75,163
8.7,-0.6,206
8.7,-0.45,92
8.7,-0.3,57
8.7,-0.15,71
8.7,0.0,85
8.7,0.15,22
8.7,0.3,50
8.7,0.45,43
8.7,0.6,43
8.7,0.75,36
8.7,0.9,64
8.7,1.05,64
8.7,1.2,65
8.7,1.35,65
8.7,1.5,65
8.85,-1.5,128
8.85,-1.35,128
8.85,-1.2,128
8.85,-1.05,149
8.85,-0.9,149
8.85,-0.75,128
8.85,-0.6,121
8.85,-0.45,85
8.85,-0.3,142
8.85,-0.15,85
8.85,0.0,36
8.85,0.15,36
8.85,0.3,50
8.85,0.45,43
8.85,0.6,50
8.85,0.75,79
8.85,0.9,72
8.85,1.05,64
8.85,1.2,64
8.85,1.35,79
8.85,1.5,79
9.0,-1.5,92
9.0,-1.35,92
9.0,-1.2,85
9.0,-1.05,107
9.0,-0.9,107
9.0,-0.75,121
9.0,-0.6,100
9.0,-0.45,64
9.0,-0.3,100
9.0,-0.15,92
9.0,0.0,0
9.0,0.15,22
9.0,0.3,50
9.0,0.45,43
9.0,0.6,64
9.0,0.75,72
9.0,0.9,86
9.0,1.05,86
9.0,1.2,79
9.0,1.35,79
9.0,1.5,79
9.15,-1.5,78
9.15,-1.35,78
9.15,-1.2,121
9.15,-1.05,121
9.15,-0.9,121
9.15,-0.75,92
9.15,-0.6,64
9.15,-0.45,149
9.15,-0.3,107
9.15,-0.15,114
9.15,0.0,0
9.15,0.15,14
9.15,0.3,64
9.15,0.45,86
9.15,0.6,93
9.15,0.75,93
9.15,0.9,93
9.15,1.05,93
9.15,1.2,93
9.15,1.35,66
9.15,1.5,66
9.3,-1.5,106
9.3,-1.35,106
9.3,-1.2,106
9.3,-1.05,106
9.3,-0.9,71
9.3,-0.75,64
9.3,-0.6,78
9.3,-0.45,114
9.3,-0.3,142
9.3,-0.15,121
9.3,0.0,71
9.3,0.15,43
9.3,0.3,50
9.3,0.45,100
9.3,0.6,100
9.3,0.75,100
9.3,0.9,100
9.3,1.05,100
9.3,1.2,101
9.3,1.35,144
9.3,1.5,144
9.45,-1.5,78
9.45,-1.35,78
9.45,-1.2,120
9.45,-1.05,120
9.45,-0.9,64
9.45,-0.75,50
9.45,-0.6,50
9.45,-0.45,64
9.45,-0.3,114
9.45,-0.15,121
9.45,0.0,71
9.45,0.15,57
9.45,0.3,43
9.45,0.45,71
9.45,0.6,100
9.45,0.75,100
9.45,0.9,100
9.45,1.05,136
9.45,1.2,137
9.45,1.35,137
9.45,1.5,144
9.6,-1.5,120
9.6,-1.35,120
9.6,-1.2,78
9.6,-1.05,78
9.6,-0.9,85
9.6,-0.75,78
9.6,-0.6,50
9.6,-0.45,71
9.6,-0.3,156
9.6,-0.15,128
9.6,0.0,121
9.6,0.15,114
9.6,0.3,78
9.6,0.45,93
9.6,0.6,86
9.6,0.75,128
9.6,0.9,122
9.6,1.05,150
9.6,1.2,150
9.6,1.35,151
9.6,1.5,151
9.75,-1.5,142
9.75,-1.35,142
9.75,-1.2,121
9.75,-1.05,121
9.75,-0.9,121
9.75,-0.75,78
9.75,-0.6,114
9.75,-0.45,78
9.75,-0.3,100
9.75,-0.15,114
9.75,0.0,100
9.75,0.15,85
9.75,0.3,85
9.75,0.45,121
9.75,0.6,114
9.75,0.75,115
9.75,0.9,129
9.75,1.05,129
9.75,1.2,129
9.75,1.35,129
9.75,1.5,130
9.9,-1.5,142
9.9,-1.35,156
9.9,-1.2,156
9.9,-1.05,156
9.9,-0.9,163
9.9,-0.75,163
9.9,-0.6,135
9.9,-0.45,121
9.9,-0.3,78
9.9,-0.15,107
9.9,0.0,71
9.9,0.15,78
9.9,0.3,78
9.9,0.45,107
9.9,0.6,121
9.9,0.75,143
9.9,0.9,143
9.9,1.05,143
9.9,1.2,143
9.9,1.35,144
9.9,1.5,144
10.05,-1.5,156
10.05,-1.35,185
10.05,-1.2,185
10.05,-1.05,185
10.05,-0.9,199
10.05,-0.75,227
10.05,-0.6,170
10.05,-0.45,114
10.05,-0.3,121
10.05,-0.15,114
10.05,0.0,50
10.05,0.15,50
10.05,0.3,107
10.05,0.45,128
10.05,0.6,128
10.05,0.75,129
10.05,0.9,129
10.05,1.05,116
10.05,1.2,144
10.05,1.35,144
10.05,1.5,144
10.2,-1.5,149
10.2,-1.35,156
10.2,-1.2,178
10.2,-1.05,178
10.2,-0.9,178
10.2,-0.75,135
10.2,-0.6,135
10.2,-0.45,100
10.2,-0.3,78
10.2,-0.15,64
10.2,0.0,92
10.2,0.15,93
10.2,0.3,128
10.2,0.45,135
10.2,0.6,136
10.2,0.75,136
10.2,0.9,151
10.2,1.05,151
10.2,1.2,158
10.2,1.35,165
10.2,1.5,166
10.35,-1.5,121
10.35,-1.35,121
10.35,-1.2,156
10.35,-1.05,156
10.35,-0.9,156
10.35,-0.75,149
10.35,-0.6,170
10.35,-0.45,107
10.35,-0.3,114
10.35,-0.15,100
10.35,0.0,114
10.35,0.15,114
10.35,0.3,128
10.35,0.45,129
10.35,0.6,136
10.35,0.75,136
10.35,0.9,158
10.35,1.05,179
10.35,1.2,180
10.35,1.35,180
10.35,1.5,180
10.5,-1.5,157
10.5,-1.35,164
10.5,-1.2,107
10.5,-1.05,107
10.5,-0.9,107
10.5,-0.75,78
10.5,-0.6,107
10.5,-0.45,50
10.5,-0.3,114
10.5,-0.15,114
10.5,0.0,192
10.5,0.15,114
10.5,0.3,150
10.5,0.45,150
10.5,0.6,172
10.5,0.75,172
10.5,0.9,172
10.5,1.05,172
10.5,1.2,215
10.5,1.35,215
10.5,1.5,208
10.65,-1.5,178
10.65,-1.35,178
10.65,-1.2,178
10.65,-1.05,79
10.65,-0.9,71
10.65,-0.75,71
10.65,-0.6,43
10.65,-0.45,114
10.65,-0.3,114
10.65,-0.15,142
10.65,0.0,178
10.65,0.15,192
10.65,0.3,171
10.65,0.45,164
10.65,0.6,171
10.65,0.75,171
10.65,0.9,171
10.65,1.05,171
10.65,1.2,171
10.65,1.35,186
10.65,1.5,187
10.8,-1.5,114
10.8,-1.35,114
10.8,-1.2,114
10.8,-1.05,114
10.8,-0.9,114
10.8,-0.75,100
10.8,-0.6,99
10.8,-0.45,121
10.8,-0.3,85
10.8,-0.15,128
10.8,0.0,156
10.8,0.15,143
10.8,0.3,122
10.8,0.45,150
10.8,0.6,171
10.8,0.75,171
10.8,0.9,172
10.8,1.05,172
10.8,1.2,172
10.8,1.35,171
10.8,1.5,187
10.95,-1.5,199
10.95,-1.35,157
10.95,-1.2,157
10.95,-1.05,135
10.95,-0.9,128
10.95,-0.75,128
10.95,-0.6,142
10.95,-0.45,85
10.95,-0.3,100
10.95,-0.15,142
10.95,0.0,128
10.95,0.15,100
10.95,0.3,122
10.95,0.45,122
10.95,0.6,158
10.95,0.75,164
10.95,0.9,165
10.95,1.05,165
10.95,1.2,173
10.95,1.35,173
10.95,1.5,173
11.1,-1.5,192
11.1,-1.35,199
11.1,-1.2,170
11.1,-1.05,170
11.1,-0.9,170
11.1,-0.75,135
11.1,-0.6,135
11.1,-0.45,142
11.1,-0.3,71
11.1,-0.15,107
11.1,0.0,100
11.1,0.15,128
11.1,0.3,128
11.1,0.45,122
11.1,0.6,165
11.1,0.75,165
11.1,0.9,166
11.1,1.05,165
11.1,1.2,165
11.1,1.35,166
11.1,1.5,166
11.25,-1.5,219
11.25,-1.35,220
11.25,-1.2,227
11.25,-1.05,185
11.25,-0.9,163
11.25,-0.75,206
11.25,-0.6,213
11.25,-0.45,142
11.25,-0.3,121
11.25,-0.15,100
11.25,0.0,92
11.25,0.15,85
11.25,0.3,100
11.25,0.45,129
11.25,0.6,129
11.25,0.75,165
11.25,0.9,165
11.25,1.05,166
11.25,1.2,166
11.25,1.35,158
11.25,1.5,158
11.4,-1.5,220
11.4,-1.35,220
11.4,-1.2,227
11.4,-1.05,227
11.4,-0.9,255
11.4,-0.75,255
11.4,-0.6,220
11.4,-0.45,199
11.4,-0.3,107
11.4,-0.15,50
11.4,0.0,85
11.4,0.15,114
11.4,0.3,85
11.4,0.45,100
11.4,0.6,101
11.4,0.75,122
11.4,0.9,122
11.4,1.05,157
11.4,1.2,157
11.4,1.35,148
11.4,1.5,148
11.55,-1.5,255
11.55,-1.35,255
11.55,-1.2,227
11.55,-1.05,227
11.55,-0.9,227
11.55,-0.75,227
11.55,-0.6,199
11.55,-0.45,199
11.55,-0.3,199
11.55,-0.15,106
11.55,0.0,85
11.55,0.15,114
11.55,0.3,114
11.55,0.45,114
11.55,0.6,72
11.55,0.75,93
11.55,0.9,93
11.55,1.05,114
11.55,1.2,141
11.55,1.35,140
11.55,1.5,140
11.7,-1.5,241
11.7,-1.35,241
11.7,-1.2,234
11.7,-1.05,234
11.7,-0.9,234
11.7,-0.75,213
11.7,-0.6,163
11.7,-0.45,177
11.7,-0.3,185
11.7,-0.15,149
11.7,0.0,149
11.7,0.15,128
11.7,0.3,128
11.7,0.45,128
11.7,0.6,127
11.7,0.75,93
11.7,0.9,106
11.7,1.05,77
11.7,1.2,77
11.7,1.35,98
11.7,1.5,138
11.85,-1.5,171
11.85,-1.35,171
11.85,-1.2,142
11.85,-1.05,128
11.85,-0.9,142
11.85,-0.75,142
11.85,-0.6,128
11.85,-0.45,121
11.85,-0.3,92
11.85,-0.15,121
11.85,0.0,92
11.85,0.15,43
11.85,0.3,43
11.85,0.45,86
11.85,0.6,86
11.85,0.75,92
11.85,0.9,84
11.85,1.05,84
11.85,1.2,77
11.85,1.35,104
11.85,1.5,77
12.0,-1.5,135
12.0,-1.35,135
12.0,-1.2,135
12.0,-1.05,107
12.0,-0.9,107
12.0,-0.75,100
12.0,-0.6,85
12.0,-0.45,64
12.0,-0.3,22
12.0,-0.15,22
12.0,0.0,22
12.0,0.15,7
12.0,0.3,29
12.0,0.45,29
12.0,0.6,71
12.0,0.75,72
12.0,0.9,64
12.0,1.05,64
12.0,1.2,64
12.0,1.35,64
12.0,1.5,64
12.15,-1.5,64
12.15,-1.35,50
12.15,-1.2,50
12.15,-1.05,50
12.15,-0.9,36
12.15,-0.75,36
12.15,-0.6,71
12.15,-0.45,22
12.15,-0.3,22
12.15,-0.15,22
12.15,0.0,7
12.15,0.15,36
12.15,0.3,21
12.15,0.45,50
12.15,0.6,50
12.15,0.75,49
12.15,0.9,49
12.15,1.05,49
12.15,1.2,49
12.15,1.35,64
12.15,1.5,64
12.3,-1.5,78
12.3,-1.35,36
12.3,-1.2,50
12.3,-1.05,50
12.3,-0.9,50
12.3,-0.75,50
12.3,-0.6,36
12.3,-0.45,0
12.3,-0.3,0
12.3,-0.15,7
12.3,0.0,36
12.3,0.15,36
12.3,0.3,35
12.3,0.45,21
12.3,0.6,50
12.3,0.75,49
12.3,0.9,49
12.3,1.05,49
12.3,1.2,49
12.3,1.35,48
12.3,1.5,48
12.45,-1.5,99
12.45,-1.35,99
12.45,-1.2,99
12.45,-1.05,100
12.45,-0.9,64
12.45,-0.75,64
12.45,-0.6,22
12.45,-0.45,0
12.45,-0.3,0
12.45,-0.15,7
12.45,0.0,64
12.45,0.15,64
12.45,0.3,63
12.45,0.45,63
12.45,0.6,35
12.45,0.75,35
12.45,0.9,49
12.45,1.05,49
12.45,1.2,48
12.45,1.35,48
12.45,1.5,48
12.6,-1.5,142
12.6,-1.35,142
12.6,-1.2,135
12.6,-1.05,135
12.6,-0.9,135
12.6,-0.75,92
12.6,-0.6,0
12.6,-0.45,0
12.6,-0.3,36
12.6,-0.15,43
12.6,0.0,57
12.6,0.15,57
12.6,0.3,56
12.6,0.45,56
12.6,0.6,48
12.6,0.75,48
12.6,0.9,48
12.6,1.05,35
12.6,1.2,35
12.6,1.35,35
12.6,1.5,35
12.75,-1.5,135
12.75,-1.35,135
12.75,-1.2,135
12.75,-1.05,93
12.75,-0.9,93
12.75,-0.75,93
12.75,-0.6,135
12.75,-0.45,100
12.75,-0.3,78
12.75,-0.15,50
12.75,0.0,50
12.75,0.15,50
12.75,0.3,49
12.75,0.45,49
12.75,0.6,48
12.75,0.75,48
12.75,0.9,48
12.75,1.05,47
12.75,1.2,47
12.75,1.35,35
12.75,1.5,34
12.9,-1.5,135
12.9,-1.35,135
12.9,-1.2,93
12.9,-1.05,93
12.9,-0.9,135
12.9,-0.75,135
12.9,-0.6,135
12.9,-0.45,92
12.9,-0.3,114
12.9,-0.15,121
12.9,0.0,50
12.9,0.15,50
12.9,0.3,50
12.9,0.45,49
12.9,0.6,49
12.9,0.75,48
12.9,0.9,48
12.9,1.05,47
12.9,1.2,47
12.9,1.35,47
12.9,1.5,75
13.05,-1.5,93
13.05,-1.35,93
13.05,-1.2,93
13.05,-1.05,93
13.05,-0.9,135
13.05,-0.75,135
13.05,-0.6,135
13.05,-0.45,135
13.05,-0.3,121
13.05,-0.15,114
13.05,0.0,92
13.05,0.15,50
13.05,0.3,50
13.05,0.45,50
13.05,0.6,49
13.05,0.75,48
13.05,0.9,48
13.05,1.05,48
13.05,1.2,47
13.05,1.35,47
13.05,1.5,47
