-3.0,-1.5,90
-3.0,-1.35,90
-3.0,-1.2,90
-3.0,-1.05,81
-3.0,-0.9,81
-3.0,-0.75,81
-3.0,-0.6,81
-3.0,-0.45,81
-3.0,-0.3,81
-3.0,-0.15,81
-3.0,0.0,81
-3.0,0.15,81
-3.0,0.3,81
-3.0,0.45,81
-3.0,0.6,81
-3.0,0.75,81
-3.0,0.9,70
-3.0,1.05,70
-3.0,1.2,71
-3.0,1.35,71
-3.0,1.5,71
-2.85,-1.5,94
-2.85,-1.35,91
-2.85,-1.2,92
-2.85,-1.05,81
-2.85,-0.9,81
-2.85,-0.75,81
-2.85,-0.6,81
-2.85,-0.45,81
-2.85,-0.3,81
-2.85,-0.15,82
-2.85,0.0,82
-2.85,0.15,82
-2.85,0.3,82
-2.85,0.45,82
-2.85,0.6,83
-2.85,0.75,83
-2.85,0.9,71
-2.85,1.05,71
-2.85,1.2,72
-2.85,1.35,72
-2.85,1.5,72
-2.7,-1.5,95
-2.7,-1.35,96
-2.7,-1.2,96
-2.7,-1.05,82
-2.7,-0.9,82
-2.7,-0.75,82
-2.7,-0.6,82
-2.7,-0.45,83
-2.7,-0.3,83
-2.7,-0.15,83
-2.7,0.0,83
-2.7,0.15,84
-2.7,0.3,84
-2.7,0.45,84
-2.7,0.6,84
-2.7,0.75,72
-2.7,0.9,72
-2.7,1.05,73
-2.7,1.2,73
-2.7,1.35,73
-2.7,1.5,74
-2.55,-1.5,96
-2.55,-1.35,97
-2.55,-1.2,98
-2.55,-1.05,99
-2.55,-0.9,99
-2.55,-0.75,84
-2.55,-0.6,84
-2.55,-0.45,84
-2.55,-0.3,85
-2.55,-0.15,85
-2.55,0.0,85
-2.55,0.15,85
-2.55,0.3,85
-2.55,0.45,86
-2.55,0.6,86
-2.55,0.75,73
-2.55,0.9,73
-2.55,1.05,74
-2.55,1.2,74
-2.55,1.35,74
-2.55,1.5,75
-2.4,-1.5,103
-2.4,-1.35,98
-2.4,-1.2,99
-2.4,-1.05,100
-2.4,-0.9,101
-2.4,-0.75,102
-2.4,-0.6,86
-2.4,-0.45,86
-2.4,-0.3,86
-2.4,-0.15,86
-2.4,0.0,87
-2.4,0.15,87
-2.4,0.3,87
-2.4,0.45,87
-2.4,0.6,74
-2.4,0.75,74
-2.4,0.9,75
-2.4,1.05,75
-2.4,1.2,75
-2.4,1.35,76
-2.4,1.5,75
-2.25,-1.5,105
-2.25,-1.35,106
-2.25,-1.2,100
-2.25,-1.05,101
-2.25,-0.9,102
-2.25,-0.75,103
-2.25,-0.6,104
-2.25,-0.45,88
-2.25,-0.3,88
-2.25,-0.15,88
-2.25,0.0,88
-2.25,0.15,89
-2.25,0.3,89
-2.25,0.45,75
-2.25,0.6,75
-2.25,0.75,75
-2.25,0.9,76
-2.25,1.05,76
-2.25,1.2,75
-2.25,1.35,75
-2.25,1.5,98
-2.1,-1.5,106
-2.1,-1.35,107
-2.1,-1.2,102
-2.1,-1.05,102
-2.1,-0.9,103
-2.1,-0.75,104
-2.1,-0.6,105
-2.1,-0.45,106
-2.1,-0.3,90
-2.1,-0.15,90
-2.1,0.0,90
-2.1,0.15,90
-2.1,0.3,90
-2.1,0.45,76
-2.1,0.6,97
-2.1,0.75,97
-2.1,0.9,76
-2.1,1.05,76
-2.1,1.2,76
-2.1,1.35,76
-2.1,1.5,98
-1.95,-1.5,108
-1.95,-1.35,109
-1.95,-1.2,110
-1.95,-1.05,104
-1.95,-0.9,105
-1.95,-0.75,106
-1.95,-0.6,106
-1.95,-0.45,107
-1.95,-0.3,108
-1.95,-0.15,101
-1.95,0.0,92
-1.95,0.15,99
-1.95,0.3,99
-1.95,0.45,98
-1.95,0.6,98
-1.95,0.75,98
-1.95,0.9,76
-1.95,1.05,76
-1.95,1.2,76
-1.95,1.35,99
-1.95,1.5,90
-1.8,-1.5,109
-1.8,-1.35,110
-1.8,-1.2,111
-1.8,-1.05,105
-1.8,-0.9,106
-1.8,-0.75,107
-1.8,-0.6,108
-1.8,-0.45,109
-1.8,-0.3,109
-1.8,-0.15,118
-1.8,0.0,119
-1.8,0.15,100
-1.8,0.3,100
-1.8,0.45,99
-1.8,0.6,99
-1.8,0.75,77
-1.8,0.9,77
-1.8,1.05,77
-1.8,1.2,100
-1.8,1.35,91
-1.8,1.5,91
-1.65,-1.5,111
-1.65,-1.35,112
-1.65,-1.2,112
-1.65,-1.05,112
-1.65,-0.9,107
-1.65,-0.75,108
-1.65,-0.6,109
-1.65,-0.45,118
-1.65,-0.3,119
-1.65,-0.15,119
-1.65,0.0,119
-1.65,0.15,120
-1.65,0.3,101
-1.65,0.45,100
-1.65,0.6,77
-1.65,0.75,77
-1.65,0.9,77
-1.65,1.05,101
-1.65,1.2,92
-1.65,1.35,92
-1.65,1.5,92
-1.5,-1.5,126
-1.5,-1.35,107
-1.5,-1.2,107
-1.5,-1.05,107
-1.5,-0.9,108
-1.5,-0.75,118
-1.5,-0.6,118
-1.5,-0.45,119
-1.5,-0.3,119
-1.5,-0.15,120
-1.5,0.0,120
-1.5,0.15,120
-1.5,0.3,104
-1.5,0.45,104
-1.5,0.6,77
-1.5,0.75,102
-1.5,0.9,102
-1.5,1.05,93
-1.5,1.2,93
-1.5,1.35,93
-1.5,1.5,92
-1.35,-1.5,127
-1.35,-1.35,129
-1.35,-1.2,132
-1.35,-1.05,133
-1.35,-0.9,134
-1.35,-0.75,119
-1.35,-0.6,119
-1.35,-0.45,120
-1.35,-0.3,120
-1.35,-0.15,121
-1.35,0.0,121
-1.35,0.15,121
-1.35,0.3,104
-1.35,0.45,97
-1.35,0.6,97
-1.35,0.75,107
-1.35,0.9,94
-1.35,1.05,93
-1.35,1.2,92
-1.35,1.35,92
-1.35,1.5,124
-1.2,-1.5,98
-1.2,-1.35,98
-1.2,-1.2,107
-1.2,-1.05,107
-1.2,-0.9,107
-1.2,-0.75,119
-1.2,-0.6,120
-1.2,-0.45,120
-1.2,-0.3,121
-1.2,-0.15,137
-1.2,0.0,138
-1.2,0.15,130
-1.2,0.3,114
-1.2,0.45,123
-1.2,0.6,128
-1.2,0.75,109
-1.2,0.9,109
-1.2,1.05,125
-1.2,1.2,125
-1.2,1.35,124
-1.2,1.5,124
-1.05,-1.5,98
-1.05,-1.35,99
-1.05,-1.2,110
-1.05,-1.05,110
-1.05,-0.9,110
-1.05,-0.75,110
-1.05,-0.6,146
-1.05,-0.45,147
-1.05,-0.3,147
-1.05,-0.15,141
-1.05,0.0,141
-1.05,0.15,133
-1.05,0.3,136
-1.05,0.45,126
-1.05,0.6,127
-1.05,0.75,138
-1.05,0.9,162
-1.05,1.05,147
-1.05,1.2,147
-1.05,1.35,126
-1.05,1.5,124
-0.9,-1.5,109
-0.9,-1.35,109
-0.9,-1.2,110
-0.9,-1.05,110
-0.9,-0.9,110
-0.9,-0.75,111
-0.9,-0.6,111
-0.9,-0.45,104
-0.9,-0.3,103
-0.9,-0.15,103
-0.9,0.0,103
-0.9,0.15,86
-0.9,0.3,125
-0.9,0.45,136
-0.9,0.6,136
-0.9,0.75,161
-0.9,0.9,146
-0.9,1.05,146
-0.9,1.2,146
-0.9,1.35,138
-0.9,1.5,138
-0.75,-1.5,109
-0.75,-1.35,109
-0.75,-1.2,110
-0.75,-1.05,110
-0.75,-0.9,104
-0.75,-0.75,104
-0.75,-0.6,104
-0.75,-0.45,104
-0.75,-0.3,103
-0.75,-0.15,103
-0.75,0.0,86
-0.75,0.15,122
-0.75,0.3,105
-0.75,0.45,105
-0.75,0.6,130
-0.75,0.75,130
-0.75,0.9,130
-0.75,1.05,105
-0.75,1.2,130
-0.75,1.35,106
-0.75,1.5,106
-0.6,-1.5,109
-0.6,-1.35,109
-0.6,-1.2,111
-0.6,-1.05,111
-0.6,-0.9,104
-0.6,-0.75,104
-0.6,-0.6,104
-0.6,-0.45,113
-0.6,-0.3,113
-0.6,-0.15,113
-0.6,0.0,121
-0.6,0.15,105
-0.6,0.3,105
-0.6,0.45,130
-0.6,0.6,130
-0.6,0.75,130
-0.6,0.9,122
-0.6,1.05,130
-0.6,1.2,129
-0.6,1.35,105
-0.6,1.5,105
-0.45,-1.5,109
-0.45,-1.35,110
-0.45,-1.2,110
-0.45,-1.05,111
-0.45,-0.9,111
-0.45,-0.75,113
-0.45,-0.6,113
-0.45,-0.45,113
-0.45,-0.3,87
-0.45,-0.15,87
-0.45,0.0,96
-0.45,0.15,104
-0.45,0.3,105
-0.45,0.45,130
-0.45,0.6,130
-0.45,0.75,130
-0.45,0.9,129
-0.45,1.05,129
-0.45,1.2,105
-0.45,1.35,105
-0.45,1.5,104
-0.3,-1.5,109
-0.3,-1.35,110
-0.3,-1.2,110
-0.3,-1.05,113
-0.3,-0.9,113
-0.3,-0.75,113
-0.3,-0.6,113
-0.3,-0.45,87
-0.3,-0.3,87
-0.3,-0.15,87
-0.3,0.0,104
-0.3,0.15,130
-0.3,0.3,130
-0.3,0.45,130
-0.3,0.6,130
-0.3,0.75,129
-0.3,0.9,129
-0.3,1.05,104
-0.3,1.2,104
-0.3,1.35,104
-0.3,1.5,104
-0.15,-1.5,109
-0.15,-1.35,112
-0.15,-1.2,112
-0.15,-1.05,112
-0.15,-0.9,112
-0.15,-0.75,112
-0.15,-0.6,112
-0.15,-0.45,87
-0.15,-0.3,78
-0.15,-0.15,87
-0.15,0.0,104
-0.15,0.15,130
-0.15,0.3,130
-0.15,0.45,138
-0.15,0.6,138
-0.15,0.75,129
-0.15,0.9,104
-0.15,1.05,104
-0.15,1.2,52
-0.15,1.35,52
-0.15,1.5,84
0.0,-1.5,110
0.0,-1.35,111
0.0,-1.2,111
0.0,-1.05,70
0.0,-0.9,70
0.0,-0.75,62
0.0,-0.6,86
0.0,-0.45,86
0.0,-0.3,87
0.0,-0.15,78
0.0,0.0,129
0.0,0.15,111
0.0,0.3,111
0.0,0.45,102
0.0,0.6,93
0.0,0.75,85
0.0,0.9,85
0.0,1.05,85
0.0,1.2,85
0.0,1.35,84
0.0,1.5,84
0.15,-1.5,60
0.15,-1.35,71
0.15,-1.2,79
0.15,-1.05,78
0.15,-0.9,61
0.15,-0.75,61
0.15,-0.6,43
0.15,-0.45,43
0.15,-0.3,43
0.15,-0.15,52
0.15,0.0,120
0.15,0.15,128
0.15,0.3,103
0.15,0.45,103
0.15,0.6,85
0.15,0.75,85
0.15,0.9,85
0.15,1.05,93
0.15,1.2,93
0.15,1.35,93
0.15,1.5,93
0.3,-1.5,69
0.3,-1.35,78
0.3,-1.2,95
0.3,-1.05,95
0.3,-0.9,69
0.3,-0.75,52
0.3,-0.6,94
0.3,-0.45,86
0.3,-0.3,103
0.3,-0.15,120
0.3,0.0,111
0.3,0.15,112
0.3,0.3,112
0.3,0.45,103
0.3,0.6,103
0.3,0.75,103
0.3,0.9,103
0.3,1.05,102
0.3,1.2,102
0.3,1.35,93
0.3,1.5,93
0.45,-1.5,67
0.45,-1.35,68
0.45,-1.2,68
0.45,-1.05,60
0.45,-0.9,110
0.45,-0.75,111
0.45,-0.6,94
0.45,-0.45,86
0.45,-0.3,111
0.45,-0.15,128
0.45,0.0,154
0.45,0.15,154
0.45,0.3,103
0.45,0.45,103
0.45,0.6,103
0.45,0.75,103
0.45,0.9,102
0.45,1.05,102
0.45,1.2,102
0.45,1.35,102
0.45,1.5,118
0.6,-1.5,67
0.6,-1.35,84
0.6,-1.2,84
0.6,-1.05,60
0.6,-0.9,69
0.6,-0.75,102
0.6,-0.6,102
0.6,-0.45,111
0.6,-0.3,128
0.6,-0.15,120
0.6,0.0,129
0.6,0.15,154
0.6,0.3,154
0.6,0.45,153
0.6,0.6,119
0.6,0.75,119
0.6,0.9,119
0.6,1.05,119
0.6,1.2,118
0.6,1.35,118
0.6,1.5,118
0.75,-1.5,67
0.75,-1.35,67
0.75,-1.2,68
0.75,-1.05,51
0.75,-0.9,60
0.75,-0.75,102
0.75,-0.6,111
0.75,-0.45,86
0.75,-0.3,137
0.75,-0.15,137
0.75,0.0,146
0.75,0.15,171
0.75,0.3,171
0.75,0.45,119
0.75,0.6,119
0.75,0.75,119
0.75,0.9,119
0.75,1.05,118
0.75,1.2,118
0.75,1.35,118
0.75,1.5,118
0.9,-1.5,41
0.9,-1.35,50
0.9,-1.2,50
0.9,-1.05,42
0.9,-0.9,42
0.9,-0.75,52
0.9,-0.6,103
0.9,-0.45,112
0.9,-0.3,128
0.9,-0.15,137
0.9,0.0,129
0.9,0.15,145
0.9,0.3,128
0.9,0.45,161
0.9,0.6,128
0.9,0.75,127
0.9,0.9,127
0.9,1.05,127
0.9,1.2,126
0.9,1.35,126
0.9,1.5,126
1.05,-1.5,50
1.05,-1.35,50
1.05,-1.2,68
1.05,-1.05,68
1.05,-0.9,68
1.05,-0.75,60
1.05,-0.6,112
1.05,-0.45,146
1.05,-0.3,146
1.05,-0.15,120
1.05,0.0,103
1.05,0.15,120
1.05,0.3,136
1.05,0.45,144
1.05,0.6,119
1.05,0.75,127
1.05,0.9,127
1.05,1.05,126
1.05,1.2,126
1.05,1.35,126
1.05,1.5,126
1.2,-1.5,91
1.2,-1.35,100
1.2,-1.2,101
1.2,-1.05,101
1.2,-0.9,102
1.2,-0.75,111
1.2,-0.6,146
1.2,-0.45,146
1.2,-0.3,94
1.2,-0.15,77
1.2,0.0,77
1.2,0.15,69
1.2,0.3,77
1.2,0.45,76
1.2,0.6,77
1.2,0.75,77
1.2,0.9,93
1.2,1.05,127
1.2,1.2,127
1.2,1.35,127
1.2,1.5,127
1.35,-1.5,116
1.35,-1.35,125
1.35,-1.2,126
1.35,-1.05,126
1.35,-0.9,135
1.35,-0.75,111
1.35,-0.6,145
1.35,-0.45,146
1.35,-0.3,146
1.35,-0.15,129
1.35,0.0,128
1.35,0.15,77
1.35,0.3,68
1.35,0.45,94
1.35,0.6,94
1.35,0.75,93
1.35,0.9,95
1.35,1.05,95
1.35,1.2,120
1.35,1.35,120
1.35,1.5,120
1.5,-1.5,133
1.5,-1.35,116
1.5,-1.2,117
1.5,-1.05,118
1.5,-0.9,119
1.5,-0.75,120
1.5,-0.6,171
1.5,-0.45,163
1.5,-0.3,180
1.5,-0.15,180
1.5,0.0,154
1.5,0.15,120
1.5,0.3,120
1.5,0.45,129
1.5,0.6,95
1.5,0.75,95
1.5,0.9,95
1.5,1.05,94
1.5,1.2,94
1.5,1.35,60
1.5,1.5,78
1.65,-1.5,133
1.65,-1.35,150
1.65,-1.2,151
1.65,-1.05,118
1.65,-0.9,119
1.65,-0.75,120
1.65,-0.6,146
1.65,-0.45,197
1.65,-0.3,197
1.65,-0.15,223
1.65,0.0,111
1.65,0.15,111
1.65,0.3,138
1.65,0.45,129
1.65,0.6,95
1.65,0.75,103
1.65,0.9,52
1.65,1.05,52
1.65,1.2,52
1.65,1.35,52
1.65,1.5,50
1.8,-1.5,117
1.8,-1.35,101
1.8,-1.2,101
1.8,-1.05,102
1.8,-0.9,153
1.8,-0.75,154
1.8,-0.6,94
1.8,-0.45,112
1.8,-0.3,138
1.8,-0.15,112
1.8,0.0,103
1.8,0.15,120
1.8,0.3,95
1.8,0.45,95
1.8,0.6,87
1.8,0.75,78
1.8,0.9,68
1.8,1.05,52
1.8,1.2,51
1.8,1.35,51
1.8,1.5,50
1.95,-1.5,92
1.95,-1.35,93
1.95,-1.2,61
1.95,-1.05,68
1.95,-0.9,68
1.95,-0.75,69
1.95,-0.6,112
1.95,-0.45,112
1.95,-0.3,103
1.95,-0.15,95
1.95,0.0,86
1.95,0.15,112
1.95,0.3,78
1.95,0.45,78
1.95,0.6,104
1.95,0.75,70
1.95,0.9,78
1.95,1.05,26
1.95,1.2,26
1.95,1.35,25
1.95,1.5,34
2.1,-1.5,61
2.1,-1.35,61
2.1,-1.2,61
2.1,-1.05,61
2.1,-0.9,94
2.1,-0.75,103
2.1,-0.6,95
2.1,-0.45,120
2.1,-0.3,69
2.1,-0.15,77
2.1,0.0,77
2.1,0.15,78
2.1,0.3,103
2.1,0.45,69
2.1,0.6,61
2.1,0.75,61
2.1,0.9,60
2.1,1.05,60
2.1,1.2,35
2.1,1.35,35
2.1,1.5,25
2.25,-1.5,61
2.25,-1.35,61
2.25,-1.2,61
2.25,-1.05,61
2.25,-0.9,61
2.25,-0.75,61
2.25,-0.6,60
2.25,-0.45,60
2.25,-0.3,43
2.25,-0.15,60
2.25,0.0,52
2.25,0.15,86
2.25,0.3,78
2.25,0.45,78
2.25,0.6,61
2.25,0.75,60
2.25,0.9,35
2.25,1.05,35
2.25,1.2,35
2.25,1.35,35
2.25,1.5,60
2.4,-1.5,75
2.4,-1.35,76
2.4,-1.2,76
2.4,-1.05,76
2.4,-0.9,69
2.4,-0.75,78
2.4,-0.6,95
2.4,-0.45,103
2.4,-0.3,103
2.4,-0.15,94
2.4,0.0,69
2.4,0.15,94
2.4,0.3,69
2.4,0.45,60
2.4,0.6,60
2.4,0.75,51
2.4,0.9,52
2.4,1.05,43
2.4,1.2,52
2.4,1.35,52
2.4,1.5,52
2.55,-1.5,75
2.55,-1.35,76
2.55,-1.2,76
2.55,-1.05,69
2.55,-0.9,69
2.55,-0.75,77
2.55,-0.6,86
2.55,-0.45,52
2.55,-0.3,52
2.55,-0.15,86
2.55,0.0,86
2.55,0.15,77
2.55,0.3,69
2.55,0.45,94
2.55,0.6,77
2.55,0.75,43
2.55,0.9,52
2.55,1.05,52
2.55,1.2,52
2.55,1.35,52
2.55,1.5,52
2.7,-1.5,95
2.7,-1.35,93
2.7,-1.2,85
2.7,-1.05,85
2.7,-0.9,103
2.7,-0.75,120
2.7,-0.6,52
2.7,-0.45,52
2.7,-0.3,26
2.7,-0.15,69
2.7,0.0,60
2.7,0.15,103
2.7,0.3,51
2.7,0.45,34
2.7,0.6,25
2.7,0.75,60
2.7,0.9,60
2.7,1.05,60
2.7,1.2,60
2.7,1.35,60
2.7,1.5,60
2.85,-1.5,95
2.85,-1.35,95
2.85,-1.2,69
2.85,-1.05,94
2.85,-0.9,94
2.85,-0.75,94
2.85,-0.6,103
2.85,-0.45,103
2.85,-0.3,86
2.85,-0.15,43
2.85,0.0,86
2.85,0.15,112
2.85,0.3,94
2.85,0.45,68
2.85,0.6,68
2.85,0.75,59
2.85,0.9,59
2.85,1.05,59
2.85,1.2,92
2.85,1.35,92
2.85,1.5,93
3.0,-1.5,76
3.0,-1.35,102
3.0,-1.2,102
3.0,-1.05,119
3.0,-0.9,102
3.0,-0.75,77
3.0,-0.6,112
3.0,-0.45,120
3.0,-0.3,112
3.0,-0.15,18
3.0,0.0,60
3.0,0.15,94
3.0,0.3,77
3.0,0.45,68
3.0,0.6,68
3.0,0.75,68
3.0,0.9,101
3.0,1.05,101
3.0,1.2,100
3.0,1.35,100
3.0,1.5,99
3.15,-1.5,85
3.15,-1.35,85
3.15,-1.2,85
3.15,-1.05,85
3.15,-0.9,111
3.15,-0.75,145
3.15,-0.6,137
3.15,-0.45,120
3.15,-0.3,43
3.15,-0.15,9
3.15,0.0,35
3.15,0.15,69
3.15,0.3,86
3.15,0.45,86
3.15,0.6,102
3.15,0.75,102
3.15,0.9,101
3.15,1.05,101
3.15,1.2,100
3.15,1.35,100
3.15,1.5,99
3.3,-1.5,85
3.3,-1.35,85
3.3,-1.2,85
3.3,-1.05,94
3.3,-0.9,94
3.3,-0.75,94
3.3,-0.6,86
3.3,-0.45,78
3.3,-0.3,52
3.3,-0.15,35
3.3,0.0,52
3.3,0.15,43
3.3,0.3,43
3.3,0.45,77
3.3,0.6,69
3.3,0.75,85
3.3,0.9,93
3.3,1.05,101
3.3,1.2,100
3.3,1.35,100
3.3,1.5,99
3.45,-1.5,68
3.45,-1.35,76
3.45,-1.2,77
3.45,-1.05,77
3.45,-0.9,94
3.45,-0.75,86
3.45,-0.6,86
3.45,-0.45,94
3.45,-0.3,94
3.45,-0.15,52
3.45,0.0,43
3.45,0.15,77
3.45,0.3,61
3.45,0.45,61
3.45,0.6,43
3.45,0.75,43
3.45,0.9,51
3.45,1.05,76
3.45,1.2,75
3.45,1.35,75
3.45,1.5,66
3.6,-1.5,59
3.6,-1.35,60
3.6,-1.2,60
3.6,-1.05,68
3.6,-0.9,77
3.6,-0.75,78
3.6,-0.6,77
3.6,-0.45,95
3.6,-0.3,112
3.6,-0.15,86
3.6,0.0,94
3.6,0.15,60
3.6,0.3,69
3.6,0.45,69
3.6,0.6,43
3.6,0.75,34
3.6,0.9,43
3.6,1.05,42
3.6,1.2,42
3.6,1.35,59
3.6,1.5,59
3.75,-1.5,43
3.75,-1.35,43
3.75,-1.2,43
3.75,-1.05,77
3.75,-0.9,43
3.75,-0.75,52
3.75,-0.6,26
3.75,-0.45,69
3.75,-0.3,60
3.75,-0.15,103
3.75,0.0,77
3.75,0.15,60
3.75,0.3,52
3.75,0.45,52
3.75,0.6,52
3.75,0.75,51
3.75,0.9,59
3.75,1.05,59
3.75,1.2,59
3.75,1.35,42
3.75,1.5,42
3.9,-1.5,42
3.9,-1.35,51
3.9,-1.2,51
3.9,-1.05,51
3.9,-0.9,43
3.9,-0.75,35
3.9,-0.6,43
3.9,-0.45,52
3.9,-0.3,129
3.9,-0.15,77
3.9,0.0,18
3.9,0.15,18
3.9,0.3,26
3.9,0.45,52
3.9,0.6,44
3.9,0.75,59
3.9,0.9,51
3.9,1.05,51
3.9,1.2,51
3.9,1.35,51
3.9,1.5,34
4.05,-1.5,34
4.05,-1.35,34
4.05,-1.2,34
4.05,-1.05,34
4.05,-0.9,34
4.05,-0.75,60
4.05,-0.6,52
4.05,-0.45,86
4.05,-0.3,103
4.05,-0.15,95
4.05,0.0,26
4.05,0.15,9
4.05,0.3,0
4.05,0.45,26
4.05,0.6,26
4.05,0.75,52
4.05,0.9,52
4.05,1.05,51
4.05,1.2,51
4.05,1.35,43
4.05,1.5,43
4.2,-1.5,33
4.2,-1.35,33
4.2,-1.2,25
4.2,-1.05,25
4.2,-0.9,0
4.2,-0.75,69
4.2,-0.6,77
4.2,-0.45,69
4.2,-0.3,9
4.2,-0.15,35
4.2,0.0,0
4.2,0.15,9
4.2,0.3,9
4.2,0.45,9
4.2,0.6,9
4.2,0.75,18
4.2,0.9,18
4.2,1.05,26
4.2,1.2,61
4.2,1.35,51
4.2,1.5,51
4.35,-1.5,33
4.35,-1.35,33
4.35,-1.2,51
4.35,-1.05,9
4.35,-0.9,9
4.35,-0.75,77
4.35,-0.6,43
4.35,-0.45,52
4.35,-0.3,18
4.35,-0.15,35
4.35,0.0,9
4.35,0.15,9
4.35,0.3,9
4.35,0.45,18
4.35,0.6,26
4.35,0.75,26
4.35,0.9,26
4.35,1.05,60
4.35,1.2,60
4.35,1.35,60
4.35,1.5,60
4.5,-1.5,42
4.5,-1.35,42
4.5,-1.2,76
4.5,-1.05,68
4.5,-0.9,102
4.5,-0.75,128
4.5,-0.6,154
4.5,-0.45,77
4.5,-0.3,35
4.5,-0.15,69
4.5,0.0,60
4.5,0.15,52
4.5,0.3,52
4.5,0.45,43
4.5,0.6,43
4.5,0.75,43
4.5,0.9,43
4.5,1.05,43
4.5,1.2,35
4.5,1.35,35
4.5,1.5,35
4.65,-1.5,33
4.65,-1.35,34
4.65,-1.2,34
4.65,-1.05,68
4.65,-0.9,128
4.65,-0.75,163
4.65,-0.6,154
4.65,-0.45,120
4.65,-0.3,77
4.65,-0.15,9
4.65,0.0,77
4.65,0.15,103
4.65,0.3,69
4.65,0.45,69
4.65,0.6,69
4.65,0.75,69
4.65,0.9,69
4.65,1.05,69
4.65,1.2,77
4.65,1.35,43
4.65,1.5,43
4.8,-1.5,41
4.8,-1.35,42
4.8,-1.2,51
4.8,-1.05,51
4.8,-0.9,77
4.8,-0.75,86
4.8,-0.6,137
4.8,-0.45,103
4.8,-0.3,86
4.8,-0.15,77
4.8,0.0,94
4.8,0.15,86
4.8,0.3,77
4.8,0.45,69
4.8,0.6,69
4.8,0.75,77
4.8,0.9,77
4.8,1.05,85
4.8,1.2,85
4.8,1.35,85
4.8,1.5,51
4.95,-1.5,59
4.95,-1.35,59
4.95,-1.2,59
4.95,-1.05,68
4.95,-0.9,35
4.95,-0.75,60
4.95,-0.6,94
4.95,-0.45,163
4.95,-0.3,206
4.95,-0.15,43
4.95,0.0,60
4.95,0.15,60
4.95,0.3,94
4.95,0.45,94
4.95,0.6,111
4.95,0.75,111
4.95,0.9,111
4.95,1.05,110
4.95,1.2,76
4.95,1.35,76
4.95,1.5,76
5.1,-1.5,34
5.1,-1.35,34
5.1,-1.2,42
5.1,-1.05,51
5.1,-0.9,77
5.1,-0.75,86
5.1,-0.6,86
5.1,-0.45,69
5.1,-0.3,129
5.1,-0.15,86
5.1,0.0,86
5.1,0.15,52
5.1,0.3,60
5.1,0.45,86
5.1,0.6,94
5.1,0.75,51
5.1,0.9,60
5.1,1.05,60
5.1,1.2,68
5.1,1.35,68
5.1,1.5,67
5.25,-1.5,50
5.25,-1.35,51
5.25,-1.2,51
5.25,-1.05,68
5.25,-0.9,111
5.25,-0.75,94
5.25,-0.6,86
5.25,-0.45,77
5.25,-0.3,52
5.25,-0.15,35
5.25,0.0,43
5.25,0.15,26
5.25,0.3,26
5.25,0.45,18
5.25,0.6,18
5.25,0.75,9
5.25,0.9,9
5.25,1.05,17
5.25,1.2,26
5.25,1.35,34
5.25,1.5,34
5.4,-1.5,41
5.4,-1.35,42
5.4,-1.2,51
5.4,-1.05,68
5.4,-0.9,85
5.4,-0.75,94
5.4,-0.6,137
5.4,-0.45,86
5.4,-0.3,60
5.4,-0.15,52
5.4,0.0,26
5.4,0.15,26
5.4,0.3,9
5.4,0.45,9
5.4,0.6,9
5.4,0.75,17
5.4,0.9,17
5.4,1.05,26
5.4,1.2,26
5.4,1.35,17
5.4,1.5,34
5.55,-1.5,42
5.55,-1.35,42
5.55,-1.2,51
5.55,-1.05,51
5.55,-0.9,85
5.55,-0.75,86
5.55,-0.6,60
5.55,-0.45,43
5.55,-0.3,43
5.55,-0.15,18
5.55,0.0,43
5.55,0.15,35
5.55,0.3,26
5.55,0.45,0
5.55,0.6,0
5.55,0.75,34
5.55,0.9,34
5.55,1.05,34
5.55,1.2,34
5.55,1.35,34
5.55,1.5,34
5.7,-1.5,76
5.7,-1.35,93
5.7,-1.2,93
5.7,-1.05,77
5.7,-0.9,69
5.7,-0.75,94
5.7,-0.6,103
5.7,-0.45,77
5.7,-0.3,52
5.7,-0.15,60
5.7,0.0,112
5.7,0.15,77
5.7,0.3,43
5.7,0.45,17
5.7,0.6,17
5.7,0.75,0
5.7,0.9,0
5.7,1.05,9
5.7,1.2,9
5.7,1.35,9
5.7,1.5,9
5.85,-1.5,68
5.85,-1.35,93
5.85,-1.2,93
5.85,-1.05,94
5.85,-0.9,103
5.85,-0.75,103
5.85,-0.6,180
5.85,-0.45,129
5.85,-0.3,43
5.85,-0.15,69
5.85,0.0,103
5.85,0.15,77
5.85,0.3,52
5.85,0.45,26
5.85,0.6,26
5.85,0.75,26
5.85,0.9,25
5.85,1.05,0
5.85,1.2,0
5.85,1.35,0
5.85,1.5,29
6.0,-1.5,84
6.0,-1.35,85
6.0,-1.2,77
6.0,-1.05,111
6.0,-0.9,111
6.0,-0.75,112
6.0,-0.6,137
6.0,-0.45,129
6.0,-0.3,9
6.0,-0.15,35
6.0,0.0,35
6.0,0.15,26
6.0,0.3,52
6.0,0.45,52
6.0,0.6,43
6.0,0.75,43
6.0,0.9,17
6.0,1.05,44
6.0,1.2,44
6.0,1.35,44
6.0,1.5,45
6.15,-1.5,85
6.15,-1.35,85
6.15,-1.2,111
6.15,-1.05,111
6.15,-0.9,111
6.15,-0.75,111
6.15,-0.6,86
6.15,-0.45,103
6.15,-0.3,129
6.15,-0.15,86
6.15,0.0,52
6.15,0.15,35
6.15,0.3,26
6.15,0.45,26
6.15,0.6,26
6.15,0.75,52
6.15,0.9,44
6.15,1.05,45
6.15,1.2,45
6.15,1.35,45
6.15,1.5,45
6.3,-1.5,118
6.3,-1.35,110
6.3,-1.2,111
6.3,-1.05,86
6.3,-0.9,86
6.3,-0.75,94
6.3,-0.6,26
6.3,-0.45,60
6.3,-0.3,214
6.3,-0.15,86
6.3,0.0,86
6.3,0.15,52
6.3,0.3,43
6.3,0.45,35
6.3,0.6,61
6.3,0.75,62
6.3,0.9,53
6.3,1.05,53
6.3,1.2,45
6.3,1.35,79
6.3,1.5,70
6.45,-1.5,144
6.45,-1.35,145
6.45,-1.2,145
6.45,-1.05,120
6.45,-0.9,94
6.45,-0.75,60
6.45,-0.6,60
6.45,-0.45,69
6.45,-0.3,43
6.45,-0.15,60
6.45,0.0,9
6.45,0.15,26
6.45,0.3,26
6.45,0.45,78
6.45,0.6,79
6.45,0.75,79
6.45,0.9,79
6.45,1.05,79
6.45,1.2,70
6.45,1.35,70
6.45,1.5,70
6.6,-1.5,85
6.6,-1.35,68
6.6,-1.2,68
6.6,-1.05,95
6.6,-0.9,120
6.6,-0.75,95
6.6,-0.6,86
6.6,-0.45,60
6.6,-0.3,103
6.6,-0.15,60
6.6,0.0,17
6.6,0.15,17
6.6,0.3,44
6.6,0.45,70
6.6,0.6,70
6.6,0.75,62
6.6,0.9,70
6.6,1.05,70
6.6,1.2,70
6.6,1.35,70
6.6,1.5,70
6.75,-1.5,77
6.75,-1.35,77
6.75,-1.2,60
6.75,-1.05,60
6.75,-0.9,60
6.75,-0.75,69
6.75,-0.6,35
6.75,-0.45,9
6.75,-0.3,112
6.75,-0.15,35
6.75,0.0,77
6.75,0.15,60
6.75,0.3,78
6.75,0.45,78
6.75,0.6,78
6.75,0.75,44
6.75,0.9,44
6.75,1.05,95
6.75,1.2,95
6.75,1.35,86
6.75,1.5,128
6.9,-1.5,103
6.9,-1.35,103
6.9,-1.2,120
6.9,-1.05,94
6.9,-0.9,86
6.9,-0.75,95
6.9,-0.6,69
6.9,-0.45,77
6.9,-0.3,52
6.9,-0.15,18
6.9,0.0,94
6.9,0.15,129
6.9,0.3,103
6.9,0.45,129
6.9,0.6,95
6.9,0.75,95
6.9,0.9,86
6.9,1.05,86
6.9,1.2,86
6.9,1.35,87
6.9,1.5,87
7.05,-1.5,77
7.05,-1.35,77
7.05,-1.2,77
7.05,-1.05,103
7.05,-0.9,77
7.05,-0.75,52
7.05,-0.6,52
7.05,-0.45,52
7.05,-0.3,112
7.05,-0.15,18
7.05,0.0,69
7.05,0.15,60
7.05,0.3,104
7.05,0.45,86
7.05,0.6,78
7.05,0.75,86
7.05,0.9,86
7.05,1.05,86
7.05,1.2,86
7.05,1.35,87
7.05,1.5,87
7.2,-1.5,69
7.2,-1.35,77
7.2,-1.2,77
7.2,-1.05,77
7.2,-0.9,60
7.2,-0.75,52
7.2,-0.6,60
7.2,-0.45,69
7.2,-0.3,52
7.2,-0.15,26
7.2,0.0,60
7.2,0.15,26
7.2,0.3,26
7.2,0.45,52
7.2,0.6,61
7.2,0.75,61
7.2,0.9,86
7.2,1.05,86
7.2,1.2,86
7.2,1.35,86
7.2,1.5,86
7.35,-1.5,68
7.35,-1.35,43
7.35,-1.2,43
7.35,-1.05,43
7.35,-0.9,43
7.35,-0.75,35
7.35,-0.6,52
7.35,-0.45,77
7.35,-0.3,60
7.35,-0.15,86
7.35,0.0,77
7.35,0.15,35
7.35,0.3,26
7.35,0.45,17
7.35,0.6,52
7.35,0.75,52
7.35,0.9,52
7.35,1.05,61
7.35,1.2,86
7.35,1.35,86
7.35,1.5,86
7.5,-1.5,60
7.5,-1.35,60
7.5,-1.2,35
7.5,-1.05,43
7.5,-0.9,77
7.5,-0.75,111
7.5,-0.6,52
7.5,-0.45,69
7.5,-0.3,69
7.5,-0.15,120
7.5,0.0,60
7.5,0.15,43
7.5,0.3,17
7.5,0.45,9
7.5,0.6,43
7.5,0.75,86
7.5,0.9,86
7.5,1.05,86
7.5,1.2,86
7.5,1.35,86
7.5,1.5,86
7.65,-1.5,60
7.65,-1.35,60
7.65,-1.2,60
7.65,-1.05,120
7.65,-0.9,154
7.65,-0.75,154
7.65,-0.6,129
7.65,-0.45,26
7.65,-0.3,60
7.65,-0.15,77
7.65,0.0,77
7.65,0.15,52
7.65,0.3,26
7.65,0.45,26
7.65,0.6,9
7.65,0.75,9
7.65,0.9,8
7.65,1.05,8
7.65,1.2,35
7.65,1.35,36
7.65,1.5,36
7.8,-1.5,61
7.8,-1.35,94
7.8,-1.2,94
7.8,-1.05,86
7.8,-0.9,86
7.8,-0.75,111
7.8,-0.6,69
7.8,-0.45,18
7.8,-0.3,18
7.8,-0.15,52
7.8,0.0,60
7.8,0.15,26
7.8,0.3,26
7.8,0.45,26
7.8,0.6,9
7.8,0.75,9
7.8,0.9,9
7.8,1.05,9
7.8,1.2,0
7.8,1.35,0
7.8,1.5,36
7.95,-1.5,69
7.95,-1.35,52
7.95,-1.2,52
7.95,-1.05,52
7.95,-0.9,52
7.95,-0.75,78
7.95,-0.6,60
7.95,-0.45,9
7.95,-0.3,9
7.95,-0.15,52
7.95,0.0,18
7.95,0.15,43
7.95,0.3,9
7.95,0.45,9
7.95,0.6,0
7.95,0.75,9
7.95,0.9,9
7.95,1.05,9
7.95,1.2,9
7.95,1.35,9
7.95,1.5,9
8.1,-1.5,52
8.1,-1.35,44
8.1,-1.2,35
8.1,-1.05,26
8.1,-0.9,52
8.1,-0.75,52
8.1,-0.6,9
8.1,-0.45,0
8.1,-0.3,9
8.1,-0.15,69
8.1,0.0,26
8.1,0.15,35
8.1,0.3,35
8.1,0.45,9
8.1,0.6,18
8.1,0.75,9
8.1,0.9,9
8.1,1.05,9
8.1,1.2,9
8.1,1.35,53
8.1,1.5,53
8.25,-1.5,44
8.25,-1.35,44
8.25,-1.2,35
8.25,-1.05,35
8.25,-0.9,43
8.25,-0.75,35
8.25,-0.6,0
8.25,-0.45,52
8.25,-0.3,26
8.25,-0.15,77
8.25,0.0,86
8.25,0.15,52
8.25,0.3,52
8.25,0.45,52
8.25,0.6,60
8.25,0.75,78
8.25,0.9,78
8.25,1.05,69
8.25,1.2,69
8.25,1.35,69
8.25,1.5,69
8.4,-1.5,44
8.4,-1.35,35
8.4,-1.2,35
8.4,-1.05,35
8.4,-0.9,43
8.4,-0.75,26
8.4,-0.6,0
8.4,-0.45,137
8.4,-0.3,60
8.4,-0.15,112
8.4,0.0,154
8.4,0.15,103
8.4,0.3,103
8.4,0.45,137
8.4,0.6,137
8.4,0.75,137
8.4,0.9,112
8.4,1.05,112
8.4,1.2,103
8.4,1.35,103
8.4,1.5,69
8.55,-1.5,69
8.55,-1.35,60
8.55,-1.2,43
8.55,-1.05,43
8.55,-0.9,43
8.55,-0.75,35
8.55,-0.6,43
8.55,-0.45,137
8.55,-0.3,26
8.55,-0.15,43
8.55,0.0,146
8.55,0.15,146
8.55,0.3,188
8.55,0.45,180
8.55,0.6,180
8.55,0.75,180
8.55,0.9,180
8.55,1.05,180
8.55,1.2,146
8.55,1.35,145
8.55,1.5,145
8.7,-1.5,111
8.7,-1.35,111
8.7,-1.2,86
8.7,-1.05,86
8.7,-0.9,120
8.7,-0.75,154
8.7,-0.6,94
8.7,-0.45,112
8.7,-0.3,60
8.7,-0.15,43
8.7,0.0,137
8.7,0.15,206
8.7,0.3,197
8.7,0.45,197
8.7,0.6,189
8.7,0.75,189
8.7,0.9,189
8.7,1.05,145
8.7,1.2,145
8.7,1.35,145
8.7,1.5,170
8.85,-1.5,77
8.85,-1.35,102
8.85,-1.2,103
8.85,-1.05,94
8.85,-0.9,94
8.85,-0.75,120
8.85,-0.6,146
8.85,-0.45,77
8.85,-0.3,94
8.85,-0.15,120
8.85,0.0,137
8.85,0.15,154
8.85,0.3,180
8.85,0.45,180
8.85,0.6,198
8.85,0.75,188
8.85,0.9,188
8.85,1.05,179
8.85,1.2,179
8.85,1.35,179
8.85,1.5,170
9.0,-1.5,102
9.0,-1.35,102
9.0,-1.2,103
9.0,-1.05,103
9.0,-0.9,103
9.0,-0.75,103
9.0,-0.6,103
9.0,-0.45,137
9.0,-0.3,77
9.0,-0.15,69
9.0,0.0,112
9.0,0.15,129
9.0,0.3,206
9.0,0.45,206
9.0,0.6,171
9.0,0.75,171
9.0,0.9,171
9.0,1.05,154
9.0,1.2,153
9.0,1.35,153
9.0,1.5,153
9.15,-1.5,119
9.15,-1.35,128
9.15,-1.2,128
9.15,-1.05,111
9.15,-0.9,111
9.15,-0.75,146
9.15,-0.6,146
9.15,-0.45,86
9.15,-0.3,26
9.15,-0.15,43
9.15,0.0,103
9.15,0.15,120
9.15,0.3,154
9.15,0.45,77
9.15,0.6,112
9.15,0.75,154
9.15,0.9,145
9.15,1.05,145
9.15,1.2,145
9.15,1.35,144
9.15,1.5,144
9.3,-1.5,110
9.3,-1.35,111
9.3,-1.2,119
9.3,-1.05,120
9.3,-0.9,94
9.3,-0.75,86
9.3,-0.6,146
9.3,-0.45,52
9.3,-0.3,9
9.3,-0.15,86
9.3,0.0,120
9.3,0.15,146
9.3,0.3,137
9.3,0.45,128
9.3,0.6,68
9.3,0.75,111
9.3,0.9,111
9.3,1.05,111
9.3,1.2,145
9.3,1.35,110
9.3,1.5,110
9.45,-1.5,85
9.45,-1.35,85
9.45,-1.2,111
9.45,-1.05,111
9.45,-0.9,145
9.45,-0.75,146
9.45,-0.6,129
9.45,-0.45,43
9.45,-0.3,60
9.45,-0.15,103
9.45,0.0,146
9.45,0.15,163
9.45,0.3,128
9.45,0.45,119
9.45,0.6,77
9.45,0.75,77
9.45,0.9,77
9.45,1.05,76
9.45,1.2,119
9.45,1.35,119
9.45,1.5,118
9.6,-1.5,51
9.6,-1.35,85
9.6,-1.2,85
9.6,-1.05,85
9.6,-0.9,86
9.6,-0.75,86
9.6,-0.6,60
9.6,-0.45,77
9.6,-0.3,52
9.6,-0.15,129
9.6,0.0,188
9.6,0.15,137
9.6,0.3,51
9.6,0.45,51
9.6,0.6,102
9.6,0.75,102
9.6,0.9,101
9.6,1.05,101
9.6,1.2,76
9.6,1.35,76
9.6,1.5,67
9.75,-1.5,51
9.75,-1.35,17
9.75,-1.2,9
9.75,-1.05,9
9.75,-0.9,0
9.75,-0.75,9
9.75,-0.6,103
9.75,-0.45,94
9.75,-0.3,103
9.75,-0.15,112
9.75,0.0,206
9.75,0.15,95
9.75,0.3,60
9.75,0.45,51
9.75,0.6,51
9.75,0.75,76
9.75,0.9,76
9.75,1.05,42
9.75,1.2,42
9.75,1.35,42
9.75,1.5,68
9.9,-1.5,0
9.9,-1.35,0
9.9,-1.2,0
9.9,-1.05,9
9.9,-0.9,9
9.9,-0.75,51
9.9,-0.6,60
9.9,-0.45,112
9.9,-0.3,154
9.9,-0.15,189
9.9,0.0,180
9.9,0.15,137
9.9,0.3,137
9.9,0.45,51
9.9,0.6,43
9.9,0.75,42
9.9,0.9,68
9.9,1.05,68
9.9,1.2,43
9.9,1.35,43
9.9,1.5,43
10.05,-1.5,25
10.05,-1.35,17
10.05,-1.2,17
10.05,-1.05,9
10.05,-0.9,9
10.05,-0.75,9
10.05,-0.6,0
10.05,-0.45,112
10.05,-0.3,120
10.05,-0.15,180
10.05,0.0,112
10.05,0.15,112
10.05,0.3,103
10.05,0.45,128
10.05,0.6,77
10.05,0.75,60
10.05,0.9,60
10.05,1.05,60
10.05,1.2,60
10.05,1.35,60
10.05,1.5,60
10.2,-1.5,42
10.2,-1.35,42
10.2,-1.2,43
10.2,-1.05,43
10.2,-0.9,43
10.2,-0.75,52
10.2,-0.6,52
10.2,-0.45,77
10.2,-0.3,146
10.2,-0.15,146
10.2,0.0,120
10.2,0.15,103
10.2,0.3,128
10.2,0.45,77
10.2,0.6,77
10.2,0.75,103
10.2,0.9,77
10.2,1.05,69
10.2,1.2,69
10.2,1.35,69
10.2,1.5,60
10.35,-1.5,42
10.35,-1.35,42
10.35,-1.2,43
10.35,-1.05,51
10.35,-0.9,94
10.35,-0.75,94
10.35,-0.6,86
10.35,-0.45,146
10.35,-0.3,69
10.35,-0.15,77
10.35,0.0,111
10.35,0.15,77
10.35,0.3,86
10.35,0.45,86
10.35,0.6,78
10.35,0.75,78
10.35,0.9,78
10.35,1.05,78
10.35,1.2,78
10.35,1.35,78
10.35,1.5,69
10.5,-1.5,162
10.5,-1.35,162
10.5,-1.2,163
10.5,-1.05,120
10.5,-0.9,77
10.5,-0.75,94
10.5,-0.6,103
10.5,-0.45,77
10.5,-0.3,111
10.5,-0.15,77
10.5,0.0,77
10.5,0.15,103
10.5,0.3,112
10.5,0.45,86
10.5,0.6,87
10.5,0.75,78
10.5,0.9,78
10.5,1.05,78
10.5,1.2,78
10.5,1.35,78
10.5,1.5,78
10.65,-1.5,172
10.65,-1.35,172
10.65,-1.2,172
10.65,-1.05,172
10.65,-0.9,223
10.65,-0.75,223
10.65,-0.6,180
10.65,-0.45,146
10.65,-0.3,120
10.65,-0.15,103
10.65,0.0,86
10.65,0.15,103
10.65,0.3,112
10.65,0.45,112
10.65,0.6,112
10.65,0.75,87
10.65,0.9,87
10.65,1.05,104
10.65,1.2,104
10.65,1.35,104
10.65,1.5,104
10.8,-1.5,172
10.8,-1.35,206
10.8,-1.2,207
10.8,-1.05,249
10.8,-0.9,190
10.8,-0.75,232
10.8,-0.6,240
10.8,-0.45,154
10.8,-0.3,138
10.8,-0.15,137
10.8,0.0,129
10.8,0.15,129
10.8,0.3,129
10.8,0.45,138
10.8,0.6,137
10.8,0.75,137
10.8,0.9,137
10.8,1.05,113
10.8,1.2,113
10.8,1.35,105
10.8,1.5,105
10.95,-1.5,231
10.95,-1.35,231
10.95,-1.2,231
10.95,-1.05,206
10.95,-0.9,240
10.95,-0.75,240
10.95,-0.6,249
10.95,-0.45,248
10.95,-0.3,154
10.95,-0.15,129
10.95,0.0,137
10.95,0.15,129
10.95,0.3,154
10.95,0.45,154
10.95,0.6,129
10.95,0.75,129
10.95,0.9,138
10.95,1.05,137
10.95,1.2,112
10.95,1.35,138
10.95,1.5,138
11.1,-1.5,222
11.1,-1.35,255
11.1,-1.2,255
11.1,-1.05,232
11.1,-0.9,232
11.1,-0.75,255
11.1,-0.6,255
11.1,-0.45,248
11.1,-0.3,129
11.1,-0.15,129
11.1,0.0,137
11.1,0.15,137
11.1,0.3,154
11.1,0.45,154
11.1,0.6,155
11.1,0.75,163
11.1,0.9,163
11.1,1.05,181
11.1,1.2,181
11.1,1.35,181
11.1,1.5,181
11.25,-1.5,255
11.25,-1.35,255
11.25,-1.2,255
11.25,-1.05,255
11.25,-0.9,255
11.25,-0.75,232
11.25,-0.6,155
11.25,-0.45,111
11.25,-0.3,145
11.25,-0.15,94
11.25,0.0,129
11.25,0.15,129
11.25,0.3,163
11.25,0.45,215
11.25,0.6,215
11.25,0.75,182
11.25,0.9,182
11.25,1.05,182
11.25,1.2,182
11.25,1.35,182
11.25,1.5,182
11.4,-1.5,255
11.4,-1.35,255
11.4,-1.2,255
11.4,-1.05,255
11.4,-0.9,181
11.4,-0.75,129
11.4,-0.6,137
11.4,-0.45,103
11.4,-0.3,103
11.4,-0.15,86
11.4,0.0,86
11.4,0.15,105
11.4,0.3,147
11.4,0.45,122
11.4,0.6,181
11.4,0.75,182
11.4,0.9,182
11.4,1.05,182
11.4,1.2,182
11.4,1.35,182
11.4,1.5,182
11.55,-1.5,240
11.55,-1.35,240
11.55,-1.2,189
11.55,-1.05,189
11.55,-0.9,163
11.55,-0.75,163
11.55,-0.6,163
11.55,-0.45,137
11.55,-0.3,129
11.55,-0.15,128
11.55,0.0,138
11.55,0.15,163
11.55,0.3,164
11.55,0.45,164
11.55,0.6,157
11.55,0.75,157
11.55,0.9,182
11.55,1.05,182
11.55,1.2,180
11.55,1.35,180
11.55,1.5,167
11.7,-1.5,155
11.7,-1.35,155
11.7,-1.2,155
11.7,-1.05,155
11.7,-0.9,155
11.7,-0.75,171
11.7,-0.6,146
11.7,-0.45,154
11.7,-0.3,129
11.7,-0.15,163
11.7,0.0,215
11.7,0.15,189
11.7,0.3,165
11.7,0.45,163
11.7,0.6,163
11.7,0.75,145
11.7,0.9,104
11.7,1.05,130
11.7,1.2,128
11.7,1.35,128
11.7,1.5,127
11.85,-1.5,155
11.85,-1.35,155
11.85,-1.2,155
11.85,-1.05,121
11.85,-0.9,120
11.85,-0.75,146
11.85,-0.6,146
11.85,-0.45,146
11.85,-0.3,112
11.85,-0.15,215
11.85,0.0,199
11.85,0.15,181
11.85,0.3,179
11.85,0.45,145
11.85,0.6,145
11.85,0.75,145
11.85,0.9,136
11.85,1.05,87
11.85,1.2,87
11.85,1.35,120
11.85,1.5,120
12.0,-1.5,129
12.0,-1.35,129
12.0,-1.2,129
12.0,-1.05,146
12.0,-0.9,197
12.0,-0.75,197
12.0,-0.6,197
12.0,-0.45,197
12.0,-0.3,171
12.0,-0.15,223
12.0,0.0,198
12.0,0.15,188
12.0,0.3,146
12.0,0.45,145
12.0,0.6,145
12.0,0.75,144
12.0,0.9,135
12.0,1.05,134
12.0,1.2,132
12.0,1.35,85
12.0,1.5,117
12.15,-1.5,129
12.15,-1.35,129
12.15,-1.2,163
12.15,-1.05,138
12.15,-0.9,180
12.15,-0.75,180
12.15,-0.6,180
12.15,-0.45,180
12.15,-0.3,146
12.15,-0.15,197
12.15,0.0,163
12.15,0.15,171
12.15,0.3,121
12.15,0.45,120
12.15,0.6,143
12.15,0.75,143
12.15,0.9,93
12.15,1.05,93
12.15,1.2,130
12.15,1.35,129
12.15,1.5,128
12.3,-1.5,160
12.3,-1.35,161
12.3,-1.2,135
12.3,-1.05,146
12.3,-0.9,146
12.3,-0.75,146
12.3,-0.6,171
12.3,-0.45,171
12.3,-0.3,171
12.3,-0.15,162
12.3,0.0,162
12.3,0.15,112
12.3,0.3,111
12.3,0.45,119
12.3,0.6,118
12.3,0.75,68
12.3,0.9,92
12.3,1.05,91
12.3,1.2,91
12.3,1.35,91
12.3,1.5,90
12.45,-1.5,127
12.45,-1.35,136
12.45,-1.2,136
12.45,-1.05,145
12.45,-0.9,146
12.45,-0.75,146
12.45,-0.6,154
12.45,-0.45,171
12.45,-0.3,136
12.45,-0.15,127
12.45,0.0,77
12.45,0.15,110
12.45,0.3,110
12.45,0.45,110
12.45,0.6,109
12.45,0.75,107
12.45,0.9,66
12.45,1.05,66
12.45,1.2,89
12.45,1.35,89
12.45,1.5,88
12.6,-1.5,135
12.6,-1.35,144
12.6,-1.2,144
12.6,-1.05,111
12.6,-0.9,111
12.6,-0.75,154
12.6,-0.6,171
12.6,-0.45,120
12.6,-0.3,111
12.6,-0.15,77
12.6,0.0,119
12.6,0.15,93
12.6,0.3,109
12.6,0.45,109
12.6,0.6,107
12.6,0.75,106
12.6,0.9,105
12.6,1.05,65
12.6,1.2,65
12.6,1.35,64
12.6,1.5,87
12.75,-1.5,143
12.75,-1.35,143
12.75,-1.2,144
12.75,-1.05,111
12.75,-0.9,111
12.75,-0.75,120
12.75,-0.6,121
12.75,-0.45,112
12.75,-0.3,78
12.75,-0.15,77
12.75,0.0,76
12.75,0.15,118
12.75,0.3,92
12.75,0.45,108
12.75,0.6,106
12.75,0.75,57
12.75,0.9,57
12.75,1.05,57
12.75,1.2,101
12.75,1.35,63
12.75,1.5,63
12.9,-1.5,143
12.9,-1.35,143
12.9,-1.2,143
12.9,-1.05,111
12.9,-0.9,119
12.9,-0.75,111
12.9,-0.6,111
12.9,-0.45,112
12.9,-0.3,78
12.9,-0.15,77
12.9,0.0,76
12.9,0.15,74
12.9,0.3,118
12.9,0.45,118
12.9,0.6,104
12.9,0.75,103
12.9,0.9,102
12.9,1.05,55
12.9,1.2,55
12.9,1.35,55
12.9,1.5,55
13.05,-1.5,142
13.05,-1.35,142
13.05,-1.2,111
13.05,-1.05,111
13.05,-0.9,111
13.05,-0.75,111
13.05,-0.6,111
13.05,-0.45,111
13.05,-0.3,78
13.05,-0.15,77
13.05,0.0,76
13.05,0.15,74
13.05,0.3,118
13.05,0.45,73
13.05,0.6,72
13.05,0.75,87
13.05,0.9,86
13.05,1.05,99
13.05,1.2,54
13.05,1.35,54
13.05,1.5,54
