-3.0,-1.5,135
-3.0,-1.35,135
-3.0,-1.2,135
-3.0,-1.05,135
-3.0,-0.9,135
-3.0,-0.75,135
-3.0,-0.6,135
-3.0,-0.45,135
-3.0,-0.3,135
-3.0,-0.15,135
-3.0,0.0,135
-3.0,0.15,135
-3.0,0.3,135
-3.0,0.45,135
-3.0,0.6,135
-3.0,0.75,135
-3.0,0.9,135
-3.0,1.05,135
-3.0,1.2,135
-3.0,1.35,135
-3.0,1.5,135
-2.85,-1.5,135
-2.85,-1.35,135
-2.85,-1.2,135
-2.85,-1.05,135
-2.85,-0.9,135
-2.85,-0.75,135
-2.85,-0.6,135
-2.85,-0.45,135
-2.85,-0.3,135
-2.85,-0.15,135
-2.85,0.0,135
-2.85,0.15,135
-2.85,0.3,135
-2.85,0.45,135
-2.85,0.6,135
-2.85,0.75,135
-2.85,0.9,135
-2.85,1.05,135
-2.85,1.2,135
-2.85,1.35,135
-2.85,1.5,135
-2.7,-1.5,135
-2.7,-1.35,135
-2.7,-1.2,135
-2.7,-1.05,135
-2.7,-0.9,135
-2.7,-0.75,135
-2.7,-0.6,135
-2.7,-0.45,135
-2.7,-0.3,135
-2.7,-0.15,135
-2.7,0.0,135
-2.7,0.15,135
-2.7,0.3,135
-2.7,0.45,135
-2.7,0.6,135
-2.7,0.75,135
-2.7,0.9,135
-2.7,1.05,135
-2.7,1.2,135
-2.7,1.35,135
-2.7,1.5,135
-2.55,-1.5,135
-2.55,-1.35,135
-2.55,-1.2,135
-2.55,-1.05,135
-2.55,-0.9,135
-2.55,-0.75,135
-2.55,-0.6,135
-2.55,-0.45,135
-2.55,-0.3,135
-2.55,-0.15,135
-2.55,0.0,135
-2.55,0.15,135
-2.55,0.3,135
-2.55,0.45,135
-2.55,0.6,135
-2.55,0.75,135
-2.55,0.9,135
-2.55,1.05,135
-2.55,1.2,135
-2.55,1.35,135
-2.55,1.5,135
-2.4,-1.5,135
-2.4,-1.35,135
-2.4,-1.2,135
-2.4,-1.05,135
-2.4,-0.9,135
-2.4,-0.75,135
-2.4,-0.6,135
-2.4,-0.45,135
-2.4,-0.3,135
-2.4,-0.15,135
-2.4,0.0,135
-2.4,0.15,135
-2.4,0.3,135
-2.4,0.45,135
-2.4,0.6,135
-2.4,0.75,135
-2.4,0.9,135
-2.4,1.05,135
-2.4,1.2,135
-2.4,1.35,135
-2.4,1.5,135
-2.25,-1.5,135
-2.25,-1.35,135
-2.25,-1.2,135
-2.25,-1.05,135
-2.25,-0.9,135
-2.25,-0.75,135
-2.25,-0.6,135
-2.25,-0.45,135
-2.25,-0.3,135
-2.25,-0.15,135
-2.25,0.0,135
-2.25,0.15,135
-2.25,0.3,135
-2.25,0.45,135
-2.25,0.6,135
-2.25,0.75,135
-2.25,0.9,135
-2.25,1.05,135
-2.25,1.2,135
-2.25,1.35,135
-2.25,1.5,135
-2.1,-1.5,135
-2.1,-1.35,135
-2.1,-1.2,135
-2.1,-1.05,135
-2.1,-0.9,135
-2.1,-0.75,135
-2.1,-0.6,135
-2.1,-0.45,135
-2.1,-0.3,135
-2.1,-0.15,135
-2.1,0.0,135
-2.1,0.15,135
-2.1,0.3,135
-2.1,0.45,135
-2.1,0.6,135
-2.1,0.75,135
-2.1,0.9,135
-2.1,1.05,135
-2.1,1.2,135
-2.1,1.35,135
-2.1,1.5,135
-1.95,-1.5,135
-1.95,-1.35,135
-1.95,-1.2,135
-1.95,-1.05,135
-1.95,-0.9,135
-1.95,-0.75,135
-1.95,-0.6,135
-1.95,-0.45,135
-1.95,-0.3,135
-1.95,-0.15,135
-1.95,0.0,135
-1.95,0.15,135
-1.95,0.3,135
-1.95,0.45,135
-1.95,0.6,135
-1.95,0.75,135
-1.95,0.9,135
-1.95,1.05,135
-1.95,1.2,135
-1.95,1.35,135
-1.95,1.5,135
-1.8,-1.5,160
-1.8,-1.35,160
-1.8,-1.2,160
-1.8,-1.05,135
-1.8,-0.9,135
-1.8,-0.75,135
-1.8,-0.6,135
-1.8,-0.45,135
-1.8,-0.3,135
-1.8,-0.15,135
-1.8,0.0,135
-1.8,0.15,135
-1.8,0.3,135
-1.8,0.45,136
-1.8,0.6,135
-1.8,0.75,135
-1.8,0.9,135
-1.8,1.05,136
-1.8,1.2,136
-1.8,1.35,135
-1.8,1.5,135
-1.65,-1.5,160
-1.65,-1.35,160
-1.65,-1.2,160
-1.65,-1.05,160
-1.65,-0.9,160
-1.65,-0.75,135
-1.65,-0.6,135
-1.65,-0.45,135
-1.65,-0.3,135
-1.65,-0.15,135
-1.65,0.0,135
-1.65,0.15,135
-1.65,0.3,135
-1.65,0.45,136
-1.65,0.6,135
-1.65,0.75,137
-1.65,0.9,137
-1.65,1.05,136
-1.65,1.2,136
-1.65,1.35,135
-1.65,1.5,135
-1.5,-1.5,160
-1.5,-1.35,160
-1.5,-1.2,160
-1.5,-1.05,160
-1.5,-0.9,160
-1.5,-0.75,160
-1.5,-0.6,160
-1.5,-0.45,160
-1.5,-0.3,135
-1.5,-0.15,135
-1.5,0.0,135
-1.5,0.15,135
-1.5,0.3,139
-1.5,0.45,138
-1.5,0.6,138
-1.5,0.75,137
-1.5,0.9,137
-1.5,1.05,136
-1.5,1.2,136
-1.5,1.35,135
-1.5,1.5,134
-1.35,-1.5,160
-1.35,-1.35,160
-1.35,-1.2,160
-1.35,-1.05,160
-1.35,-0.9,160
-1.35,-0.75,160
-1.35,-0.6,160
-1.35,-0.45,160
-1.35,-0.3,160
-1.35,-0.15,160
-1.35,0.0,160
-1.35,0.15,139
-1.35,0.3,139
-1.35,0.45,138
-1.35,0.6,137
-1.35,0.75,137
-1.35,0.9,136
-1.35,1.05,136
-1.35,1.2,135
-1.35,1.35,135
-1.35,1.5,134
-1.2,-1.5,160
-1.2,-1.35,160
-1.2,-1.2,160
-1.2,-1.05,160
-1.2,-0.9,160
-1.2,-0.75,160
-1.2,-0.6,160
-1.2,-0.45,160
-1.2,-0.3,163
-1.2,-0.15,163
-1.2,0.0,163
-1.2,0.15,170
-1.2,0.3,169
-1.2,0.45,138
-1.2,0.6,137
-1.2,0.75,137
-1.2,0.9,136
-1.2,1.05,136
-1.2,1.2,135
-1.2,1.35,135
-1.2,1.5,134
-1.05,-1.5,147
-1.05,-1.35,147
-1.05,-1.2,147
-1.05,-1.05,147
-1.05,-0.9,147
-1.05,-0.75,147
-1.05,-0.6,163
-1.05,-0.45,163
-1.05,-0.3,163
-1.05,-0.15,163
-1.05,0.0,163
-1.05,0.15,169
-1.05,0.3,169
-1.05,0.45,169
-1.05,0.6,168
-1.05,0.75,168
-1.05,0.9,136
-1.05,1.05,136
-1.05,1.2,135
-1.05,1.35,134
-1.05,1.5,106
-0.9,-1.5,147
-0.9,-1.35,147
-0.9,-1.2,147
-0.9,-1.05,158
-0.9,-0.9,158
-0.9,-0.75,158
-0.9,-0.6,158
-0.9,-0.45,157
-0.9,-0.3,157
-0.9,-0.15,157
-0.9,0.0,157
-0.9,0.15,156
-0.9,0.3,156
-0.9,0.45,168
-0.9,0.6,168
-0.9,0.75,168
-0.9,0.9,167
-0.9,1.05,167
-0.9,1.2,107
-0.9,1.35,106
-0.9,1.5,106
-0.75,-1.5,158
-0.75,-1.35,158
-0.75,-1.2,158
-0.75,-1.05,158
-0.75,-0.9,157
-0.75,-0.75,157
-0.75,-0.6,157
-0.75,-0.45,157
-0.75,-0.3,156
-0.75,-0.15,156
-0.75,0.0,156
-0.75,0.15,156
-0.75,0.3,155
-0.75,0.45,155
-0.75,0.6,155
-0.75,0.75,154
-0.75,0.9,132
-0.75,1.05,125
-0.75,1.2,124
-0.75,1.35,109
-0.75,1.5,78
-0.6,-1.5,158
-0.6,-1.35,158
-0.6,-1.2,157
-0.6,-1.05,157
-0.6,-0.9,157
-0.6,-0.75,157
-0.6,-0.6,156
-0.6,-0.45,156
-0.6,-0.3,156
-0.6,-0.15,156
-0.6,0.0,155
-0.6,0.15,155
-0.6,0.3,155
-0.6,0.45,133
-0.6,0.6,132
-0.6,0.75,132
-0.6,0.9,101
-0.6,1.05,101
-0.6,1.2,101
-0.6,1.35,72
-0.6,1.5,72
-0.45,-1.5,150
-0.45,-1.35,157
-0.45,-1.2,157
-0.45,-1.05,157
-0.45,-0.9,156
-0.45,-0.75,156
-0.45,-0.6,156
-0.45,-0.45,156
-0.45,-0.3,155
-0.45,-0.15,155
-0.45,0.0,133
-0.45,0.15,133
-0.45,0.3,102
-0.45,0.45,102
-0.45,0.6,102
-0.45,0.75,102
-0.45,0.9,101
-0.45,1.05,101
-0.45,1.2,72
-0.45,1.35,72
-0.45,1.5,65
-0.3,-1.5,149
-0.3,-1.35,149
-0.3,-1.2,156
-0.3,-1.05,156
-0.3,-0.9,156
-0.3,-0.75,155
-0.3,-0.6,126
-0.3,-0.45,126
-0.3,-0.3,126
-0.3,-0.15,103
-0.3,0.0,102
-0.3,0.15,102
-0.3,0.3,102
-0.3,0.45,102
-0.3,0.6,102
-0.3,0.75,95
-0.3,0.9,95
-0.3,1.05,95
-0.3,1.2,66
-0.3,1.35,65
-0.3,1.5,65
-0.15,-1.5,149
-0.15,-1.35,149
-0.15,-1.2,119
-0.15,-1.05,96
-0.15,-0.9,96
-0.15,-0.75,96
-0.15,-0.6,96
-0.15,-0.45,96
-0.15,-0.3,96
-0.15,-0.15,102
-0.15,0.0,102
-0.15,0.15,102
-0.15,0.3,102
-0.15,0.45,95
-0.15,0.6,95
-0.15,0.75,95
-0.15,0.9,95
-0.15,1.05,66
-0.15,1.2,65
-0.15,1.35,65
-0.15,1.5,65
0.0,-1.5,103
0.0,-1.35,96
0.0,-1.2,96
0.0,-1.05,96
0.0,-0.9,96
0.0,-0.75,96
0.0,-0.6,96
0.0,-0.45,96
0.0,-0.3,96
0.0,-0.15,96
0.0,0.0,102
0.0,0.15,102
0.0,0.3,102
0.0,0.45,95
0.0,0.6,95
0.0,0.75,66
0.0,0.9,66
0.0,1.05,65
0.0,1.2,65
0.0,1.35,65
0.0,1.5,65
0.15,-1.5,103
0.15,-1.35,96
0.15,-1.2,96
0.15,-1.05,96
0.15,-0.9,96
0.15,-0.75,96
0.15,-0.6,96
0.15,-0.45,96
0.15,-0.3,96
0.15,-0.15,96
0.15,0.0,102
0.15,0.15,102
0.15,0.3,102
0.15,0.45,95
0.15,0.6,66
0.15,0.75,66
0.15,0.9,65
0.15,1.05,65
0.15,1.2,65
0.15,1.35,65
0.15,1.5,65
0.3,-1.5,96
0.3,-1.35,96
0.3,-1.2,96
0.3,-1.05,96
0.3,-0.9,96
0.3,-0.75,96
0.3,-0.6,96
0.3,-0.45,96
0.3,-0.3,95
0.3,-0.15,95
0.3,0.0,102
0.3,0.15,102
0.3,0.3,102
0.3,0.45,66
0.3,0.6,66
0.3,0.75,65
0.3,0.9,65
0.3,1.05,65
0.3,1.2,65
0.3,1.35,65
0.3,1.5,65
0.45,-1.5,96
0.45,-1.35,96
0.45,-1.2,96
0.45,-1.05,96
0.45,-0.9,96
0.45,-0.75,96
0.45,-0.6,95
0.45,-0.45,95
0.45,-0.3,95
0.45,-0.15,95
0.45,0.0,95
0.45,0.15,73
0.45,0.3,73
0.45,0.45,66
0.45,0.6,65
0.45,0.75,65
0.45,0.9,65
0.45,1.05,65
0.45,1.2,65
0.45,1.35,65
0.45,1.5,65
0.6,-1.5,81
0.6,-1.35,96
0.6,-1.2,96
0.6,-1.05,95
0.6,-0.9,95
0.6,-0.75,95
0.6,-0.6,95
0.6,-0.45,95
0.6,-0.3,95
0.6,-0.15,95
0.6,0.0,73
0.6,0.15,73
0.6,0.3,73
0.6,0.45,65
0.6,0.6,65
0.6,0.75,65
0.6,0.9,65
0.6,1.05,65
0.6,1.2,65
0.6,1.35,65
0.6,1.5,58
0.75,-1.5,89
0.75,-1.35,89
0.75,-1.2,88
0.75,-1.05,96
0.75,-0.9,95
0.75,-0.75,95
0.75,-0.6,95
0.75,-0.45,73
0.75,-0.3,73
0.75,-0.15,73
0.75,0.0,73
0.75,0.15,73
0.75,0.3,73
0.75,0.45,65
0.75,0.6,65
0.75,0.75,65
0.75,0.9,65
0.75,1.05,65
0.75,1.2,58
0.75,1.35,58
0.75,1.5,58
0.9,-1.5,88
0.9,-1.35,88
0.9,-1.2,88
0.9,-1.05,88
0.9,-0.9,81
0.9,-0.75,73
0.9,-0.6,73
0.9,-0.45,73
0.9,-0.3,73
0.9,-0.15,73
0.9,0.0,73
0.9,0.15,73
0.9,0.3,73
0.9,0.45,44
0.9,0.6,44
0.9,0.75,43
0.9,0.9,43
0.9,1.05,58
0.9,1.2,58
0.9,1.35,58
0.9,1.5,58
1.05,-1.5,74
1.05,-1.35,59
1.05,-1.2,66
1.05,-1.05,66
1.05,-0.9,66
1.05,-0.75,36
1.05,-0.6,51
1.05,-0.45,51
1.05,-0.3,51
1.05,-0.15,51
1.05,0.0,51
1.05,0.15,51
1.05,0.3,51
1.05,0.45,44
1.05,0.6,44
1.05,0.75,58
1.05,0.9,58
1.05,1.05,58
1.05,1.2,58
1.05,1.35,58
1.05,1.5,58
1.2,-1.5,73
1.2,-1.35,44
1.2,-1.2,44
1.2,-1.05,44
1.2,-0.9,51
1.2,-0.75,36
1.2,-0.6,36
1.2,-0.45,36
1.2,-0.3,51
1.2,-0.15,51
1.2,0.0,51
1.2,0.15,51
1.2,0.3,58
1.2,0.45,58
1.2,0.6,73
1.2,0.75,65
1.2,0.9,65
1.2,1.05,65
1.2,1.2,65
1.2,1.35,65
1.2,1.5,65
1.35,-1.5,43
1.35,-1.35,44
1.35,-1.2,51
1.35,-1.05,51
1.35,-0.9,51
1.35,-0.75,51
1.35,-0.6,51
1.35,-0.45,51
1.35,-0.3,51
1.35,-0.15,51
1.35,0.0,51
1.35,0.15,36
1.35,0.3,58
1.35,0.45,44
1.35,0.6,65
1.35,0.75,36
1.35,0.9,36
1.35,1.05,43
1.35,1.2,43
1.35,1.35,43
1.35,1.5,43
1.5,-1.5,43
1.5,-1.35,44
1.5,-1.2,44
1.5,-1.05,51
1.5,-0.9,51
1.5,-0.75,51
1.5,-0.6,51
1.5,-0.45,51
1.5,-0.3,51
1.5,-0.15,51
1.5,0.0,51
1.5,0.15,44
1.5,0.3,51
1.5,0.45,36
1.5,0.6,36
1.5,0.75,36
1.5,0.9,36
1.5,1.05,36
1.5,1.2,36
1.5,1.35,29
1.5,1.5,29
1.65,-1.5,36
1.65,-1.35,36
1.65,-1.2,44
1.65,-1.05,51
1.65,-0.9,51
1.65,-0.75,51
1.65,-0.6,51
1.65,-0.45,51
1.65,-0.3,51
1.65,-0.15,51
1.65,0.0,36
1.65,0.15,37
1.65,0.3,44
1.65,0.45,36
1.65,0.6,36
1.65,0.75,36
1.65,0.9,36
1.65,1.05,29
1.65,1.2,29
1.65,1.35,29
1.65,1.5,29
1.8,-1.5,44
1.8,-1.35,44
1.8,-1.2,44
1.8,-1.05,51
1.8,-0.9,44
1.8,-0.75,44
1.8,-0.6,44
1.8,-0.45,44
1.8,-0.3,36
1.8,-0.15,36
1.8,0.0,29
1.8,0.15,36
1.8,0.3,37
1.8,0.45,36
1.8,0.6,36
1.8,0.75,36
1.8,0.9,29
1.8,1.05,29
1.8,1.2,29
1.8,1.35,29
1.8,1.5,29
1.95,-1.5,44
1.95,-1.35,44
1.95,-1.2,44
1.95,-1.05,44
1.95,-0.9,36
1.95,-0.75,36
1.95,-0.6,44
1.95,-0.45,44
1.95,-0.3,36
1.95,-0.15,29
1.95,0.0,15
1.95,0.15,15
1.95,0.3,36
1.95,0.45,37
1.95,0.6,37
1.95,0.75,36
1.95,0.9,29
1.95,1.05,29
1.95,1.2,29
1.95,1.35,22
1.95,1.5,14
2.1,-1.5,29
2.1,-1.35,36
2.1,-1.2,44
2.1,-1.05,44
2.1,-0.9,44
2.1,-0.75,36
2.1,-0.6,36
2.1,-0.45,36
2.1,-0.3,29
2.1,-0.15,7
2.1,0.0,15
2.1,0.15,22
2.1,0.3,36
2.1,0.45,36
2.1,0.6,37
2.1,0.75,37
2.1,0.9,36
2.1,1.05,29
2.1,1.2,22
2.1,1.35,7
2.1,1.5,7
2.25,-1.5,65
2.25,-1.35,29
2.25,-1.2,29
2.25,-1.05,36
2.25,-0.9,44
2.25,-0.75,44
2.25,-0.6,36
2.25,-0.45,36
2.25,-0.3,36
2.25,-0.15,29
2.25,0.0,36
2.25,0.15,36
2.25,0.3,29
2.25,0.45,36
2.25,0.6,29
2.25,0.75,29
2.25,0.9,22
2.25,1.05,22
2.25,1.2,22
2.25,1.35,22
2.25,1.5,22
2.4,-1.5,51
2.4,-1.35,51
2.4,-1.2,58
2.4,-1.05,36
2.4,-0.9,36
2.4,-0.75,51
2.4,-0.6,51
2.4,-0.45,58
2.4,-0.3,51
2.4,-0.15,51
2.4,0.0,44
2.4,0.15,44
2.4,0.3,29
2.4,0.45,29
2.4,0.6,22
2.4,0.75,22
2.4,0.9,22
2.4,1.05,22
2.4,1.2,22
2.4,1.35,22
2.4,1.5,22
2.55,-1.5,58
2.55,-1.35,58
2.55,-1.2,58
2.55,-1.05,58
2.55,-0.9,73
2.55,-0.75,36
2.55,-0.6,44
2.55,-0.45,44
2.55,-0.3,73
2.55,-0.15,73
2.55,0.0,73
2.55,0.15,51
2.55,0.3,36
2.55,0.45,29
2.55,0.6,29
2.55,0.75,22
2.55,0.9,29
2.55,1.05,22
2.55,1.2,22
2.55,1.35,22
2.55,1.5,22
2.7,-1.5,43
2.7,-1.35,43
2.7,-1.2,72
2.7,-1.05,73
2.7,-0.9,80
2.7,-0.75,95
2.7,-0.6,95
2.7,-0.45,87
2.7,-0.3,66
2.7,-0.15,73
2.7,0.0,73
2.7,0.15,58
2.7,0.3,44
2.7,0.45,44
2.7,0.6,29
2.7,0.75,36
2.7,0.9,36
2.7,1.05,36
2.7,1.2,29
2.7,1.35,29
2.7,1.5,29
2.85,-1.5,43
2.85,-1.35,72
2.85,-1.2,72
2.85,-1.05,72
2.85,-0.9,73
2.85,-0.75,95
2.85,-0.6,95
2.85,-0.45,66
2.85,-0.3,80
2.85,-0.15,66
2.85,0.0,102
2.85,0.15,95
2.85,0.3,80
2.85,0.45,73
2.85,0.6,72
2.85,0.75,72
2.85,0.9,72
2.85,1.05,72
2.85,1.2,72
2.85,1.35,44
2.85,1.5,44
3.0,-1.5,43
3.0,-1.35,51
3.0,-1.2,72
3.0,-1.05,80
3.0,-0.9,80
3.0,-0.75,102
3.0,-0.6,95
3.0,-0.45,102
3.0,-0.3,66
3.0,-0.15,36
3.0,0.0,109
3.0,0.15,80
3.0,0.3,73
3.0,0.45,73
3.0,0.6,72
3.0,0.75,72
3.0,0.9,72
3.0,1.05,72
3.0,1.2,72
3.0,1.35,29
3.0,1.5,36
3.15,-1.5,51
3.15,-1.35,58
3.15,-1.2,58
3.15,-1.05,80
3.15,-0.9,80
3.15,-0.75,80
3.15,-0.6,109
3.15,-0.45,80
3.15,-0.3,95
3.15,-0.15,80
3.15,0.0,95
3.15,0.15,80
3.15,0.3,80
3.15,0.45,73
3.15,0.6,65
3.15,0.75,72
3.15,0.9,72
3.15,1.05,29
3.15,1.2,29
3.15,1.35,29
3.15,1.5,29
3.3,-1.5,51
3.3,-1.35,51
3.3,-1.2,51
3.3,-1.05,51
3.3,-0.9,73
3.3,-0.75,73
3.3,-0.6,131
3.3,-0.45,131
3.3,-0.3,87
3.3,-0.15,58
3.3,0.0,95
3.3,0.15,80
3.3,0.3,80
3.3,0.45,80
3.3,0.6,29
3.3,0.75,29
3.3,0.9,29
3.3,1.05,29
3.3,1.2,29
3.3,1.35,29
3.3,1.5,29
3.45,-1.5,51
3.45,-1.35,51
3.45,-1.2,51
3.45,-1.05,51
3.45,-0.9,73
3.45,-0.75,80
3.45,-0.6,95
3.45,-0.45,116
3.45,-0.3,124
3.45,-0.15,66
3.45,0.0,58
3.45,0.15,66
3.45,0.3,51
3.45,0.45,51
3.45,0.6,44
3.45,0.75,36
3.45,0.9,36
3.45,1.05,36
3.45,1.2,29
3.45,1.35,29
3.45,1.5,29
3.6,-1.5,51
3.6,-1.35,51
3.6,-1.2,51
3.6,-1.05,58
3.6,-0.9,15
3.6,-0.75,44
3.6,-0.6,51
3.6,-0.45,73
3.6,-0.3,95
3.6,-0.15,95
3.6,0.0,87
3.6,0.15,51
3.6,0.3,51
3.6,0.45,51
3.6,0.6,51
3.6,0.75,44
3.6,0.9,44
3.6,1.05,36
3.6,1.2,36
3.6,1.35,36
3.6,1.5,29
3.75,-1.5,7
3.75,-1.35,36
3.75,-1.2,36
3.75,-1.05,7
3.75,-0.9,15
3.75,-0.75,36
3.75,-0.6,44
3.75,-0.45,36
3.75,-0.3,22
3.75,-0.15,73
3.75,0.0,73
3.75,0.15,80
3.75,0.3,51
3.75,0.45,51
3.75,0.6,51
3.75,0.75,51
3.75,0.9,51
3.75,1.05,44
3.75,1.2,44
3.75,1.35,36
3.75,1.5,36
3.9,-1.5,7
3.9,-1.35,36
3.9,-1.2,36
3.9,-1.05,36
3.9,-0.9,36
3.9,-0.75,80
3.9,-0.6,44
3.9,-0.45,44
3.9,-0.3,80
3.9,-0.15,87
3.9,0.0,109
3.9,0.15,95
3.9,0.3,51
3.9,0.45,44
3.9,0.6,51
3.9,0.75,44
3.9,0.9,44
3.9,1.05,44
3.9,1.2,44
3.9,1.35,44
3.9,1.5,44
4.05,-1.5,29
4.05,-1.35,58
4.05,-1.2,36
4.05,-1.05,36
4.05,-0.9,36
4.05,-0.75,51
4.05,-0.6,51
4.05,-0.45,87
4.05,-0.3,109
4.05,-0.15,153
4.05,0.0,102
4.05,0.15,66
4.05,0.3,29
4.05,0.45,29
4.05,0.6,36
4.05,0.75,44
4.05,0.9,29
4.05,1.05,36
4.05,1.2,36
4.05,1.35,36
4.05,1.5,59
4.2,-1.5,36
4.2,-1.35,58
4.2,-1.2,58
4.2,-1.05,51
4.2,-0.9,36
4.2,-0.75,44
4.2,-0.6,44
4.2,-0.45,160
4.2,-0.3,189
4.2,-0.15,87
4.2,0.0,66
4.2,0.15,80
4.2,0.3,66
4.2,0.45,65
4.2,0.6,15
4.2,0.75,29
4.2,0.9,29
4.2,1.05,29
4.2,1.2,52
4.2,1.35,52
4.2,1.5,52
4.35,-1.5,37
4.35,-1.35,58
4.35,-1.2,58
4.35,-1.05,58
4.35,-0.9,58
4.35,-0.75,73
4.35,-0.6,138
4.35,-0.45,95
4.35,-0.3,116
4.35,-0.15,138
4.35,0.0,87
4.35,0.15,58
4.35,0.3,51
4.35,0.45,51
4.35,0.6,51
4.35,0.75,51
4.35,0.9,51
4.35,1.05,52
4.35,1.2,52
4.35,1.35,45
4.35,1.5,45
4.5,-1.5,65
4.5,-1.35,65
4.5,-1.2,102
4.5,-1.05,102
4.5,-0.9,102
4.5,-0.75,109
4.5,-0.6,87
4.5,-0.45,80
4.5,-0.3,73
4.5,-0.15,189
4.5,0.0,175
4.5,0.15,51
4.5,0.3,51
4.5,0.45,51
4.5,0.6,51
4.5,0.75,15
4.5,0.9,37
4.5,1.05,44
4.5,1.2,44
4.5,1.35,45
4.5,1.5,45
4.65,-1.5,65
4.65,-1.35,65
4.65,-1.2,65
4.65,-1.05,65
4.65,-0.9,66
4.65,-0.75,87
4.65,-0.6,80
4.65,-0.45,87
4.65,-0.3,36
4.65,-0.15,66
4.65,0.0,44
4.65,0.15,109
4.65,0.3,95
4.65,0.45,58
4.65,0.6,15
4.65,0.75,37
4.65,0.9,37
4.65,1.05,37
4.65,1.2,44
4.65,1.35,45
4.65,1.5,45
4.8,-1.5,73
4.8,-1.35,73
4.8,-1.2,73
4.8,-1.05,73
4.8,-0.9,80
4.8,-0.75,80
4.8,-0.6,66
4.8,-0.45,36
4.8,-0.3,66
4.8,-0.15,58
4.8,0.0,36
4.8,0.15,65
4.8,0.3,36
4.8,0.45,44
4.8,0.6,30
4.8,0.75,44
4.8,0.9,44
4.8,1.05,44
4.8,1.2,45
4.8,1.35,44
4.8,1.5,44
4.95,-1.5,73
4.95,-1.35,73
4.95,-1.2,73
4.95,-1.05,80
4.95,-0.9,80
4.95,-0.75,80
4.95,-0.6,36
4.95,-0.45,73
4.95,-0.3,80
4.95,-0.15,95
4.95,0.0,146
4.95,0.15,153
4.95,0.3,80
4.95,0.45,58
4.95,0.6,37
4.95,0.75,30
4.95,0.9,37
4.95,1.05,44
4.95,1.2,66
4.95,1.35,45
4.95,1.5,74
5.1,-1.5,29
5.1,-1.35,29
5.1,-1.2,37
5.1,-1.05,37
5.1,-0.9,44
5.1,-0.75,15
5.1,-0.6,15
5.1,-0.45,58
5.1,-0.3,87
5.1,-0.15,51
5.1,0.0,146
5.1,0.15,131
5.1,0.3,80
5.1,0.45,37
5.1,0.6,66
5.1,0.75,73
5.1,0.9,73
5.1,1.05,95
5.1,1.2,73
5.1,1.35,102
5.1,1.5,103
5.25,-1.5,58
5.25,-1.35,51
5.25,-1.2,80
5.25,-1.05,44
5.25,-0.9,15
5.25,-0.75,15
5.25,-0.6,29
5.25,-0.45,29
5.25,-0.3,44
5.25,-0.15,58
5.25,0.0,80
5.25,0.15,80
5.25,0.3,66
5.25,0.45,44
5.25,0.6,73
5.25,0.75,95
5.25,0.9,102
5.25,1.05,102
5.25,1.2,131
5.25,1.35,131
5.25,1.5,132
5.4,-1.5,94
5.4,-1.35,65
5.4,-1.2,65
5.4,-1.05,65
5.4,-0.9,65
5.4,-0.75,51
5.4,-0.6,36
5.4,-0.45,58
5.4,-0.3,95
5.4,-0.15,73
5.4,0.0,73
5.4,0.15,73
5.4,0.3,109
5.4,0.45,109
5.4,0.6,117
5.4,0.75,131
5.4,0.9,131
5.4,1.05,131
5.4,1.2,132
5.4,1.35,132
5.4,1.5,132
5.55,-1.5,65
5.55,-1.35,65
5.55,-1.2,65
5.55,-1.05,73
5.55,-0.9,80
5.55,-0.75,87
5.55,-0.6,116
5.55,-0.45,87
5.55,-0.3,182
5.55,-0.15,73
5.55,0.0,102
5.55,0.15,218
5.55,0.3,189
5.55,0.45,146
5.55,0.6,175
5.55,0.75,175
5.55,0.9,146
5.55,1.05,146
5.55,1.2,146
5.55,1.35,117
5.55,1.5,124
5.7,-1.5,65
5.7,-1.35,65
5.7,-1.2,65
5.7,-1.05,65
5.7,-0.9,95
5.7,-0.75,102
5.7,-0.6,102
5.7,-0.45,131
5.7,-0.3,196
5.7,-0.15,80
5.7,0.0,109
5.7,0.15,182
5.7,0.3,204
5.7,0.45,116
5.7,0.6,124
5.7,0.75,146
5.7,0.9,117
5.7,1.05,117
5.7,1.2,117
5.7,1.35,117
5.7,1.5,102
5.85,-1.5,65
5.85,-1.35,87
5.85,-1.2,87
5.85,-1.05,87
5.85,-0.9,87
5.85,-0.75,102
5.85,-0.6,87
5.85,-0.45,87
5.85,-0.3,131
5.85,-0.15,80
5.85,0.0,58
5.85,0.15,58
5.85,0.3,102
5.85,0.45,116
5.85,0.6,116
5.85,0.75,117
5.85,0.9,124
5.85,1.05,124
5.85,1.2,102
5.85,1.35,102
5.85,1.5,102
6.0,-1.5,87
6.0,-1.35,87
6.0,-1.2,102
6.0,-1.05,102
6.0,-0.9,116
6.0,-0.75,73
6.0,-0.6,29
6.0,-0.45,0
6.0,-0.3,95
6.0,-0.15,102
6.0,0.0,66
6.0,0.15,29
6.0,0.3,36
6.0,0.45,73
6.0,0.6,87
6.0,0.75,87
6.0,0.9,95
6.0,1.05,117
6.0,1.2,102
6.0,1.35,102
6.0,1.5,124
6.15,-1.5,43
6.15,-1.35,43
6.15,-1.2,44
6.15,-1.05,44
6.15,-0.9,44
6.15,-0.75,58
6.15,-0.6,36
6.15,-0.45,36
6.15,-0.3,22
6.15,-0.15,73
6.15,0.0,80
6.15,0.15,22
6.15,0.3,22
6.15,0.45,44
6.15,0.6,73
6.15,0.75,73
6.15,0.9,73
6.15,1.05,102
6.15,1.2,102
6.15,1.35,102
6.15,1.5,110
6.3,-1.5,36
6.3,-1.35,51
6.3,-1.2,65
6.3,-1.05,65
6.3,-0.9,65
6.3,-0.75,65
6.3,-0.6,66
6.3,-0.45,80
6.3,-0.3,22
6.3,-0.15,44
6.3,0.0,73
6.3,0.15,44
6.3,0.3,36
6.3,0.45,29
6.3,0.6,51
6.3,0.75,51
6.3,0.9,73
6.3,1.05,73
6.3,1.2,102
6.3,1.35,102
6.3,1.5,102
6.45,-1.5,29
6.45,-1.35,58
6.45,-1.2,51
6.45,-1.05,51
6.45,-0.9,58
6.45,-0.75,58
6.45,-0.6,102
6.45,-0.45,87
6.45,-0.3,87
6.45,-0.15,66
6.45,0.0,51
6.45,0.15,66
6.45,0.3,87
6.45,0.45,80
6.45,0.6,80
6.45,0.75,66
6.45,0.9,95
6.45,1.05,87
6.45,1.2,109
6.45,1.35,109
6.45,1.5,131
6.6,-1.5,0
6.6,-1.35,0
6.6,-1.2,22
6.6,-1.05,29
6.6,-0.9,29
6.6,-0.75,29
6.6,-0.6,73
6.6,-0.45,87
6.6,-0.3,29
6.6,-0.15,73
6.6,0.0,80
6.6,0.15,95
6.6,0.3,95
6.6,0.45,95
6.6,0.6,73
6.6,0.75,66
6.6,0.9,73
6.6,1.05,73
6.6,1.2,87
6.6,1.35,87
6.6,1.5,109
6.75,-1.5,0
6.75,-1.35,0
6.75,-1.2,0
6.75,-1.05,0
6.75,-0.9,0
6.75,-0.75,22
6.75,-0.6,15
6.75,-0.45,109
6.75,-0.3,109
6.75,-0.15,109
6.75,0.0,116
6.75,0.15,87
6.75,0.3,87
6.75,0.45,95
6.75,0.6,95
6.75,0.75,73
6.75,0.9,73
6.75,1.05,73
6.75,1.2,80
6.75,1.35,102
6.75,1.5,116
6.9,-1.5,0
6.9,-1.35,0
6.9,-1.2,0
6.9,-1.05,0
6.9,-0.9,0
6.9,-0.75,0
6.9,-0.6,65
6.9,-0.45,109
6.9,-0.3,73
6.9,-0.15,58
6.9,0.0,80
6.9,0.15,95
6.9,0.3,95
6.9,0.45,95
6.9,0.6,109
6.9,0.75,116
6.9,0.9,116
6.9,1.05,116
6.9,1.2,116
6.9,1.35,116
6.9,1.5,116
7.05,-1.5,0
7.05,-1.35,0
7.05,-1.2,0
7.05,-1.05,0
7.05,-0.9,0
7.05,-0.75,15
7.05,-0.6,22
7.05,-0.45,29
7.05,-0.3,80
7.05,-0.15,95
7.05,0.0,73
7.05,0.15,73
7.05,0.3,109
7.05,0.45,124
7.05,0.6,116
7.05,0.75,116
7.05,0.9,116
7.05,1.05,116
7.05,1.2,116
7.05,1.35,116
7.05,1.5,123
7.2,-1.5,7
7.2,-1.35,7
7.2,-1.2,7
7.2,-1.05,7
7.2,-0.9,0
7.2,-0.75,0
7.2,-0.6,7
7.2,-0.45,80
7.2,-0.3,66
7.2,-0.15,87
7.2,0.0,95
7.2,0.15,73
7.2,0.3,80
7.2,0.45,80
7.2,0.6,80
7.2,0.75,116
7.2,0.9,116
7.2,1.05,131
7.2,1.2,131
7.2,1.35,131
7.2,1.5,131
7.35,-1.5,7
7.35,-1.35,7
7.35,-1.2,14
7.35,-1.05,15
7.35,-0.9,15
7.35,-0.75,7
7.35,-0.6,51
7.35,-0.45,36
7.35,-0.3,73
7.35,-0.15,116
7.35,0.0,124
7.35,0.15,73
7.35,0.3,73
7.35,0.45,80
7.35,0.6,87
7.35,0.75,87
7.35,0.9,87
7.35,1.05,87
7.35,1.2,87
7.35,1.35,58
7.35,1.5,58
7.5,-1.5,29
7.5,-1.35,29
7.5,-1.2,22
7.5,-1.05,29
7.5,-0.9,29
7.5,-0.75,51
7.5,-0.6,66
7.5,-0.45,44
7.5,-0.3,36
7.5,-0.15,73
7.5,0.0,66
7.5,0.15,73
7.5,0.3,66
7.5,0.45,87
7.5,0.6,80
7.5,0.75,102
7.5,0.9,87
7.5,1.05,58
7.5,1.2,58
7.5,1.35,58
7.5,1.5,58
7.65,-1.5,51
7.65,-1.35,51
7.65,-1.2,51
7.65,-1.05,58
7.65,-0.9,58
7.65,-0.75,58
7.65,-0.6,95
7.65,-0.45,66
7.65,-0.3,58
7.65,-0.15,95
7.65,0.0,80
7.65,0.15,44
7.65,0.3,36
7.65,0.45,58
7.65,0.6,44
7.65,0.75,44
7.65,0.9,44
7.65,1.05,44
7.65,1.2,44
7.65,1.35,58
7.65,1.5,58
7.8,-1.5,51
7.8,-1.35,51
7.8,-1.2,51
7.8,-1.05,51
7.8,-0.9,58
7.8,-0.75,58
7.8,-0.6,51
7.8,-0.45,44
7.8,-0.3,15
7.8,-0.15,131
7.8,0.0,124
7.8,0.15,87
7.8,0.3,44
7.8,0.45,44
7.8,0.6,44
7.8,0.75,44
7.8,0.9,44
7.8,1.05,51
7.8,1.2,51
7.8,1.35,51
7.8,1.5,51
7.95,-1.5,7
7.95,-1.35,36
7.95,-1.2,36
7.95,-1.05,36
7.95,-0.9,36
7.95,-0.75,51
7.95,-0.6,58
7.95,-0.45,66
7.95,-0.3,87
7.95,-0.15,146
7.95,0.0,124
7.95,0.15,58
7.95,0.3,58
7.95,0.45,44
7.95,0.6,44
7.95,0.75,44
7.95,0.9,44
7.95,1.05,51
7.95,1.2,51
7.95,1.35,51
7.95,1.5,51
8.1,-1.5,0
8.1,-1.35,0
8.1,-1.2,0
8.1,-1.05,0
8.1,-0.9,7
8.1,-0.75,44
8.1,-0.6,44
8.1,-0.45,102
8.1,-0.3,116
8.1,-0.15,87
8.1,0.0,102
8.1,0.15,22
8.1,0.3,7
8.1,0.45,29
8.1,0.6,29
8.1,0.75,29
8.1,0.9,44
8.1,1.05,44
8.1,1.2,51
8.1,1.35,51
8.1,1.5,51
8.25,-1.5,0
8.25,-1.35,0
8.25,-1.2,7
8.25,-1.05,0
8.25,-0.9,7
8.25,-0.75,29
8.25,-0.6,58
8.25,-0.45,73
8.25,-0.3,44
8.25,-0.15,51
8.25,0.0,29
8.25,0.15,15
8.25,0.3,51
8.25,0.45,51
8.25,0.6,36
8.25,0.75,36
8.25,0.9,37
8.25,1.05,37
8.25,1.2,37
8.25,1.35,37
8.25,1.5,51
8.4,-1.5,7
8.4,-1.35,0
8.4,-1.2,0
8.4,-1.05,7
8.4,-0.9,7
8.4,-0.75,7
8.4,-0.6,29
8.4,-0.45,58
8.4,-0.3,7
8.4,-0.15,15
8.4,0.0,36
8.4,0.15,51
8.4,0.3,44
8.4,0.45,44
8.4,0.6,36
8.4,0.75,36
8.4,0.9,37
8.4,1.05,37
8.4,1.2,37
8.4,1.35,37
8.4,1.5,37
8.55,-1.5,58
8.55,-1.35,58
8.55,-1.2,58
8.55,-1.05,58
8.55,-0.9,58
8.55,-0.75,36
8.55,-0.6,73
8.55,-0.45,80
8.55,-0.3,51
8.55,-0.15,73
8.55,0.0,73
8.55,0.15,36
8.55,0.3,36
8.55,0.45,36
8.55,0.6,36
8.55,0.75,51
8.55,0.9,44
8.55,1.05,66
8.55,1.2,66
8.55,1.35,66
8.55,1.5,58
8.7,-1.5,79
8.7,-1.35,80
8.7,-1.2,80
8.7,-1.05,65
8.7,-0.9,65
8.7,-0.75,66
8.7,-0.6,95
8.7,-0.45,58
8.7,-0.3,15
8.7,-0.15,66
8.7,0.0,73
8.7,0.15,73
8.7,0.3,65
8.7,0.45,58
8.7,0.6,58
8.7,0.75,58
8.7,0.9,58
8.7,1.05,51
8.7,1.2,51
8.7,1.35,51
8.7,1.5,51
8.85,-1.5,65
8.85,-1.35,65
8.85,-1.2,65
8.85,-1.05,87
8.85,-0.9,87
8.85,-0.75,95
8.85,-0.6,66
8.85,-0.45,7
8.85,-0.3,29
8.85,-0.15,66
8.85,0.0,66
8.85,0.15,73
8.85,0.3,80
8.85,0.45,66
8.85,0.6,66
8.85,0.75,58
8.85,0.9,58
8.85,1.05,58
8.85,1.2,58
8.85,1.35,58
8.85,1.5,80
9.0,-1.5,65
9.0,-1.35,65
9.0,-1.2,65
9.0,-1.05,65
9.0,-0.9,73
9.0,-0.75,80
9.0,-0.6,95
9.0,-0.45,66
9.0,-0.3,66
9.0,-0.15,36
9.0,0.0,36
9.0,0.15,51
9.0,0.3,51
9.0,0.45,51
9.0,0.6,58
9.0,0.75,58
9.0,0.9,80
9.0,1.05,80
9.0,1.2,80
9.0,1.35,80
9.0,1.5,80
9.15,-1.5,65
9.15,-1.35,65
9.15,-1.2,65
9.15,-1.05,65
9.15,-0.9,80
9.15,-0.75,80
9.15,-0.6,73
9.15,-0.45,87
9.15,-0.3,95
9.15,-0.15,36
9.15,0.0,66
9.15,0.15,66
9.15,0.3,58
9.15,0.45,58
9.15,0.6,80
9.15,0.75,80
9.15,0.9,102
9.15,1.05,102
9.15,1.2,102
9.15,1.35,102
9.15,1.5,87
9.3,-1.5,36
9.3,-1.35,44
9.3,-1.2,44
9.3,-1.05,58
9.3,-0.9,80
9.3,-0.75,80
9.3,-0.6,87
9.3,-0.45,95
9.3,-0.3,102
9.3,-0.15,36
9.3,0.0,36
9.3,0.15,51
9.3,0.3,80
9.3,0.45,80
9.3,0.6,109
9.3,0.75,109
9.3,0.9,102
9.3,1.05,102
9.3,1.2,95
9.3,1.35,95
9.3,1.5,95
9.45,-1.5,58
9.45,-1.35,65
9.45,-1.2,65
9.45,-1.05,65
9.45,-0.9,66
9.45,-0.75,58
9.45,-0.6,58
9.45,-0.45,116
9.45,-0.3,124
9.45,-0.15,87
9.45,0.0,58
9.45,0.15,51
9.45,0.3,102
9.45,0.45,102
9.45,0.6,102
9.45,0.75,124
9.45,0.9,124
9.45,1.05,124
9.45,1.2,124
9.45,1.35,124
9.45,1.5,124
9.6,-1.5,44
9.6,-1.35,44
9.6,-1.2,44
9.6,-1.05,44
9.6,-0.9,44
9.6,-0.75,36
9.6,-0.6,66
9.6,-0.45,73
9.6,-0.3,109
9.6,-0.15,80
9.6,0.0,116
9.6,0.15,146
9.6,0.3,117
9.6,0.45,160
9.6,0.6,160
9.6,0.75,160
9.6,0.9,124
9.6,1.05,160
9.6,1.2,160
9.6,1.35,160
9.6,1.5,160
9.75,-1.5,44
9.75,-1.35,44
9.75,-1.2,44
9.75,-1.05,36
9.75,-0.9,36
9.75,-0.75,36
9.75,-0.6,36
9.75,-0.45,58
9.75,-0.3,87
9.75,-0.15,167
9.75,0.0,204
9.75,0.15,197
9.75,0.3,167
9.75,0.45,182
9.75,0.6,182
9.75,0.75,182
9.75,0.9,182
9.75,1.05,160
9.75,1.2,160
9.75,1.35,160
9.75,1.5,160
9.9,-1.5,72
9.9,-1.35,58
9.9,-1.2,51
9.9,-1.05,51
9.9,-0.9,44
9.9,-0.75,44
9.9,-0.6,66
9.9,-0.45,66
9.9,-0.3,87
9.9,-0.15,146
9.9,0.0,175
9.9,0.15,189
9.9,0.3,189
9.9,0.45,204
9.9,0.6,182
9.9,0.75,182
9.9,0.9,182
9.9,1.05,168
9.9,1.2,167
9.9,1.35,167
9.9,1.5,146
10.05,-1.5,65
10.05,-1.35,65
10.05,-1.2,65
10.05,-1.05,58
10.05,-0.9,58
10.05,-0.75,58
10.05,-0.6,87
10.05,-0.45,102
10.05,-0.3,138
10.05,-0.15,167
10.05,0.0,182
10.05,0.15,189
10.05,0.3,189
10.05,0.45,189
10.05,0.6,189
10.05,0.75,189
10.05,0.9,196
10.05,1.05,182
10.05,1.2,197
10.05,1.35,197
10.05,1.5,197
10.2,-1.5,58
10.2,-1.35,58
10.2,-1.2,58
10.2,-1.05,58
10.2,-0.9,65
10.2,-0.75,65
10.2,-0.6,116
10.2,-0.45,109
10.2,-0.3,124
10.2,-0.15,167
10.2,0.0,182
10.2,0.15,204
10.2,0.3,189
10.2,0.45,189
10.2,0.6,218
10.2,0.75,218
10.2,0.9,218
10.2,1.05,218
10.2,1.2,218
10.2,1.35,218
10.2,1.5,218
10.35,-1.5,58
10.35,-1.35,58
10.35,-1.2,58
10.35,-1.05,58
10.35,-0.9,65
10.35,-0.75,73
10.35,-0.6,116
10.35,-0.45,124
10.35,-0.3,109
10.35,-0.15,87
10.35,0.0,138
10.35,0.15,182
10.35,0.3,233
10.35,0.45,240
10.35,0.6,240
10.35,0.75,240
10.35,0.9,240
10.35,1.05,240
10.35,1.2,255
10.35,1.35,255
10.35,1.5,255
10.5,-1.5,58
10.5,-1.35,58
10.5,-1.2,73
10.5,-1.05,73
10.5,-0.9,73
10.5,-0.75,66
10.5,-0.6,102
10.5,-0.45,109
10.5,-0.3,95
10.5,-0.15,116
10.5,0.0,160
10.5,0.15,168
10.5,0.3,189
10.5,0.45,218
10.5,0.6,255
10.5,0.75,255
10.5,0.9,255
10.5,1.05,255
10.5,1.2,255
10.5,1.35,255
10.5,1.5,255
10.65,-1.5,65
10.65,-1.35,65
10.65,-1.2,116
10.65,-1.05,116
10.65,-0.9,145
10.65,-0.75,124
10.65,-0.6,95
10.65,-0.45,131
10.65,-0.3,175
10.65,-0.15,182
10.65,0.0,167
10.65,0.15,219
10.65,0.3,204
10.65,0.45,204
10.65,0.6,212
10.65,0.75,212
10.65,0.9,255
10.65,1.05,255
10.65,1.2,255
10.65,1.35,255
10.65,1.5,255
10.8,-1.5,80
10.8,-1.35,80
10.8,-1.2,80
10.8,-1.05,109
10.8,-0.9,116
10.8,-0.75,153
10.8,-0.6,153
10.8,-0.45,146
10.8,-0.3,153
10.8,-0.15,197
10.8,0.0,197
10.8,0.15,241
10.8,0.3,197
10.8,0.45,183
10.8,0.6,183
10.8,0.75,212
10.8,0.9,212
10.8,1.05,234
10.8,1.2,234
10.8,1.35,234
10.8,1.5,234
10.95,-1.5,87
10.95,-1.35,80
10.95,-1.2,109
10.95,-1.05,109
10.95,-0.9,109
10.95,-0.75,153
10.95,-0.6,138
10.95,-0.45,138
10.95,-0.3,167
10.95,-0.15,189
10.95,0.0,226
10.95,0.15,233
10.95,0.3,241
10.95,0.45,197
10.95,0.6,219
10.95,0.75,219
10.95,0.9,176
10.95,1.05,205
10.95,1.2,205
10.95,1.35,234
10.95,1.5,234
11.1,-1.5,109
11.1,-1.35,109
11.1,-1.2,123
11.1,-1.05,116
11.1,-0.9,160
11.1,-0.75,160
11.1,-0.6,153
11.1,-0.45,153
11.1,-0.3,175
11.1,-0.15,255
11.1,0.0,240
11.1,0.15,241
11.1,0.3,211
11.1,0.45,226
11.1,0.6,219
11.1,0.75,219
11.1,0.9,219
11.1,1.05,248
11.1,1.2,234
11.1,1.35,234
11.1,1.5,233
11.25,-1.5,101
11.25,-1.35,102
11.25,-1.2,102
11.25,-1.05,145
11.25,-0.9,174
11.25,-0.75,175
11.25,-0.6,175
11.25,-0.45,189
11.25,-0.3,189
11.25,-0.15,255
11.25,0.0,255
11.25,0.15,255
11.25,0.3,255
11.25,0.45,226
11.25,0.6,241
11.25,0.75,219
11.25,0.9,248
11.25,1.05,204
11.25,1.2,204
11.25,1.35,204
11.25,1.5,202
11.4,-1.5,116
11.4,-1.35,116
11.4,-1.2,109
11.4,-1.05,145
11.4,-0.9,174
11.4,-0.75,160
11.4,-0.6,160
11.4,-0.45,189
11.4,-0.3,175
11.4,-0.15,218
11.4,0.0,255
11.4,0.15,255
11.4,0.3,255
11.4,0.45,233
11.4,0.6,234
11.4,0.75,190
11.4,0.9,183
11.4,1.05,183
11.4,1.2,183
11.4,1.35,181
11.4,1.5,181
11.55,-1.5,116
11.55,-1.35,116
11.55,-1.2,109
11.55,-1.05,145
11.55,-0.9,145
11.55,-0.75,145
11.55,-0.6,131
11.55,-0.45,124
11.55,-0.3,153
11.55,-0.15,197
11.55,0.0,219
11.55,0.15,218
11.55,0.3,219
11.55,0.45,219
11.55,0.6,190
11.55,0.75,190
11.55,0.9,190
11.55,1.05,190
11.55,1.2,181
11.55,1.35,181
11.55,1.5,181
11.7,-1.5,167
11.7,-1.35,145
11.7,-1.2,145
11.7,-1.05,145
11.7,-0.9,145
11.7,-0.75,145
11.7,-0.6,138
11.7,-0.45,131
11.7,-0.3,131
11.7,-0.15,160
11.7,0.0,197
11.7,0.15,219
11.7,0.3,211
11.7,0.45,211
11.7,0.6,211
11.7,0.75,211
11.7,0.9,190
11.7,1.05,189
11.7,1.2,188
11.7,1.35,145
11.7,1.5,145
11.85,-1.5,131
11.85,-1.35,131
11.85,-1.2,131
11.85,-1.05,152
11.85,-0.9,153
11.85,-0.75,153
11.85,-0.6,145
11.85,-0.45,138
11.85,-0.3,160
11.85,-0.15,160
11.85,0.0,219
11.85,0.15,189
11.85,0.3,174
11.85,0.45,225
11.85,0.6,218
11.85,0.75,189
11.85,0.9,188
11.85,1.05,188
11.85,1.2,188
11.85,1.35,188
11.85,1.5,187
12.0,-1.5,101
12.0,-1.35,131
12.0,-1.2,131
12.0,-1.05,131
12.0,-0.9,174
12.0,-0.75,153
12.0,-0.6,153
12.0,-0.45,153
12.0,-0.3,145
12.0,-0.15,160
12.0,0.0,160
12.0,0.15,175
12.0,0.3,175
12.0,0.45,174
12.0,0.6,225
12.0,0.75,225
12.0,0.9,195
12.0,1.05,195
12.0,1.2,194
12.0,1.35,194
12.0,1.5,194
12.15,-1.5,101
12.15,-1.35,101
12.15,-1.2,102
12.15,-1.05,174
12.15,-0.9,174
12.15,-0.75,174
12.15,-0.6,153
12.15,-0.45,160
12.15,-0.3,174
12.15,-0.15,167
12.15,0.0,160
12.15,0.15,160
12.15,0.3,174
12.15,0.45,174
12.15,0.6,174
12.15,0.75,194
12.15,0.9,194
12.15,1.05,194
12.15,1.2,194
12.15,1.35,193
12.15,1.5,193
12.3,-1.5,101
12.3,-1.35,101
12.3,-1.2,130
12.3,-1.05,109
12.3,-0.9,116
12.3,-0.75,152
12.3,-0.6,152
12.3,-0.45,152
12.3,-0.3,160
12.3,-0.15,167
12.3,0.0,167
12.3,0.15,138
12.3,0.3,174
12.3,0.45,174
12.3,0.6,173
12.3,0.75,173
12.3,0.9,193
12.3,1.05,193
12.3,1.2,193
12.3,1.35,193
12.3,1.5,193
12.45,-1.5,101
12.45,-1.35,109
12.45,-1.2,109
12.45,-1.05,109
12.45,-0.9,109
12.45,-0.75,109
12.45,-0.6,152
12.45,-0.45,174
12.45,-0.3,160
12.45,-0.15,159
12.45,0.0,145
12.45,0.15,138
12.45,0.3,138
12.45,0.45,172
12.45,0.6,172
12.45,0.75,172
12.45,0.9,172
12.45,1.05,193
12.45,1.2,192
12.45,1.35,192
12.45,1.5,192
12.6,-1.5,108
12.6,-1.35,108
12.6,-1.2,108
12.6,-1.05,109
12.6,-0.9,109
12.6,-0.75,109
12.6,-0.6,131
12.6,-0.45,131
12.6,-0.3,131
12.6,-0.15,159
12.6,0.0,145
12.6,0.15,145
12.6,0.3,116
12.6,0.45,94
12.6,0.6,129
12.6,0.75,171
12.6,0.9,171
12.6,1.05,171
12.6,1.2,192
12.6,1.35,191
12.6,1.5,191
12.75,-1.5,108
12.75,-1.35,108
12.75,-1.2,108
12.75,-1.05,108
12.75,-0.9,108
12.75,-0.75,130
12.75,-0.6,108
12.75,-0.45,131
12.75,-0.3,131
12.75,-0.15,159
12.75,0.0,145
12.75,0.15,145
12.75,0.3,115
12.75,0.45,115
12.75,0.6,108
12.75,0.75,129
12.75,0.9,171
12.75,1.05,170
12.75,1.2,170
12.75,1.35,170
12.75,1.5,190
12.9,-1.5,108
12.9,-1.35,108
12.9,-1.2,108
12.9,-1.05,108
12.9,-0.9,130
12.9,-0.75,108
12.9,-0.6,108
12.9,-0.45,108
12.9,-0.3,116
12.9,-0.15,130
12.9,0.0,145
12.9,0.15,115
12.9,0.3,115
12.9,0.45,115
12.9,0.6,87
12.9,0.75,150
12.9,0.9,150
12.9,1.05,170
12.9,1.2,170
12.9,1.35,169
12.9,1.5,169
13.05,-1.5,108
13.05,-1.35,108
13.05,-1.2,108
13.05,-1.05,108
13.05,-0.9,108
13.05,-0.75,108
13.05,-0.6,108
13.05,-0.45,108
13.05,-0.3,108
13.05,-0.15,116
13.05,0.0,116
13.05,0.15,115
13.05,0.3,115
13.05,0.45,115
13.05,0.6,115
13.05,0.75,87
13.05,0.9,129
13.05,1.05,149
13.05,1.2,149
13.05,1.35,169
13.05,1.5,169
