-3.0,-1.5,106
-3.0,-1.35,106
-3.0,-1.2,89
-3.0,-1.05,91
-3.0,-0.9,94
-3.0,-0.75,96
-3.0,-0.6,99
-3.0,-0.45,99
-3.0,-0.3,99
-3.0,-0.15,99
-3.0,0.0,100
-3.0,0.15,100
-3.0,0.3,100
-3.0,0.45,100
-3.0,0.6,100
-3.0,0.75,100
-3.0,0.9,100
-3.0,1.05,100
-3.0,1.2,100
-3.0,1.35,100
-3.0,1.5,100
-2.85,-1.5,106
-2.85,-1.35,107
-2.85,-1.2,108
-2.85,-1.05,92
-2.85,-0.9,95
-2.85,-0.75,97
-2.85,-0.6,100
-2.85,-0.45,103
-2.85,-0.3,101
-2.85,-0.15,101
-2.85,0.0,102
-2.85,0.15,102
-2.85,0.3,102
-2.85,0.45,101
-2.85,0.6,100
-2.85,0.75,100
-2.85,0.9,100
-2.85,1.05,123
-2.85,1.2,102
-2.85,1.35,101
-2.85,1.5,100
-2.7,-1.5,107
-2.7,-1.35,108
-2.7,-1.2,109
-2.7,-1.05,110
-2.7,-0.9,96
-2.7,-0.75,99
-2.7,-0.6,101
-2.7,-0.45,104
-2.7,-0.3,107
-2.7,-0.15,104
-2.7,0.0,104
-2.7,0.15,104
-2.7,0.3,104
-2.7,0.45,103
-2.7,0.6,102
-2.7,0.75,126
-2.7,0.9,125
-2.7,1.05,104
-2.7,1.2,103
-2.7,1.35,101
-2.7,1.5,100
-2.55,-1.5,109
-2.55,-1.35,110
-2.55,-1.2,111
-2.55,-1.05,112
-2.55,-0.9,97
-2.55,-0.75,100
-2.55,-0.6,103
-2.55,-0.45,105
-2.55,-0.3,108
-2.55,-0.15,106
-2.55,0.0,106
-2.55,0.15,106
-2.55,0.3,106
-2.55,0.45,130
-2.55,0.6,128
-2.55,0.75,127
-2.55,0.9,125
-2.55,1.05,105
-2.55,1.2,104
-2.55,1.35,102
-2.55,1.5,101
-2.4,-1.5,111
-2.4,-1.35,112
-2.4,-1.2,113
-2.4,-1.05,115
-2.4,-0.9,116
-2.4,-0.75,101
-2.4,-0.6,104
-2.4,-0.45,106
-2.4,-0.3,109
-2.4,-0.15,111
-2.4,0.0,109
-2.4,0.15,136
-2.4,0.3,134
-2.4,0.45,132
-2.4,0.6,130
-2.4,0.75,128
-2.4,0.9,108
-2.4,1.05,106
-2.4,1.2,104
-2.4,1.35,103
-2.4,1.5,101
-2.25,-1.5,113
-2.25,-1.35,114
-2.25,-1.2,116
-2.25,-1.05,117
-2.25,-0.9,119
-2.25,-0.75,121
-2.25,-0.6,105
-2.25,-0.45,107
-2.25,-0.3,110
-2.25,-0.15,144
-2.25,0.0,144
-2.25,0.15,138
-2.25,0.3,136
-2.25,0.45,133
-2.25,0.6,131
-2.25,0.75,130
-2.25,0.9,108
-2.25,1.05,107
-2.25,1.2,105
-2.25,1.35,103
-2.25,1.5,102
-2.1,-1.5,116
-2.1,-1.35,117
-2.1,-1.2,119
-2.1,-1.05,120
-2.1,-0.9,122
-2.1,-0.75,124
-2.1,-0.6,106
-2.1,-0.45,144
-2.1,-0.3,145
-2.1,-0.15,145
-2.1,0.0,145
-2.1,0.15,145
-2.1,0.3,138
-2.1,0.45,136
-2.1,0.6,134
-2.1,0.75,111
-2.1,0.9,109
-2.1,1.05,107
-2.1,1.2,105
-2.1,1.35,104
-2.1,1.5,102
-1.95,-1.5,119
-1.95,-1.35,120
-1.95,-1.2,122
-1.95,-1.05,124
-1.95,-0.9,126
-1.95,-0.75,127
-1.95,-0.6,146
-1.95,-0.45,146
-1.95,-0.3,146
-1.95,-0.15,146
-1.95,0.0,146
-1.95,0.15,146
-1.95,0.3,150
-1.95,0.45,138
-1.95,0.6,136
-1.95,0.75,111
-1.95,0.9,109
-1.95,1.05,107
-1.95,1.2,106
-1.95,1.35,104
-1.95,1.5,103
-1.8,-1.5,122
-1.8,-1.35,124
-1.8,-1.2,126
-1.8,-1.05,127
-1.8,-0.9,129
-1.8,-0.75,148
-1.8,-0.6,148
-1.8,-0.45,148
-1.8,-0.3,148
-1.8,-0.15,148
-1.8,0.0,148
-1.8,0.15,153
-1.8,0.3,151
-1.8,0.45,150
-1.8,0.6,149
-1.8,0.75,111
-1.8,0.9,109
-1.8,1.05,108
-1.8,1.2,106
-1.8,1.35,131
-1.8,1.5,130
-1.65,-1.5,93
-1.65,-1.35,125
-1.65,-1.2,127
-1.65,-1.05,129
-1.65,-0.9,143
-1.65,-0.75,150
-1.65,-0.6,150
-1.65,-0.45,150
-1.65,-0.3,150
-1.65,-0.15,150
-1.65,0.0,150
-1.65,0.15,154
-1.65,0.3,152
-1.65,0.45,151
-1.65,0.6,150
-1.65,0.75,149
-1.65,0.9,138
-1.65,1.05,135
-1.65,1.2,133
-1.65,1.35,118
-1.65,1.5,118
-1.5,-1.5,97
-1.5,-1.35,99
-1.5,-1.2,101
-1.5,-1.05,142
-1.5,-0.9,144
-1.5,-0.75,151
-1.5,-0.6,151
-1.5,-0.45,152
-1.5,-0.3,153
-1.5,-0.15,153
-1.5,0.0,156
-1.5,0.15,156
-1.5,0.3,154
-1.5,0.45,152
-1.5,0.6,150
-1.5,0.75,149
-1.5,0.9,150
-1.5,1.05,122
-1.5,1.2,121
-1.5,1.35,119
-1.5,1.5,118
-1.35,-1.5,104
-1.35,-1.35,106
-1.35,-1.2,112
-1.35,-1.05,114
-1.35,-0.9,114
-1.35,-0.75,146
-1.35,-0.6,122
-1.35,-0.45,161
-1.35,-0.3,161
-1.35,-0.15,153
-1.35,0.0,152
-1.35,0.15,156
-1.35,0.3,154
-1.35,0.45,152
-1.35,0.6,150
-1.35,0.75,152
-1.35,0.9,150
-1.35,1.05,149
-1.35,1.2,121
-1.35,1.35,120
-1.35,1.5,119
-1.2,-1.5,111
-1.2,-1.35,113
-1.2,-1.2,115
-1.2,-1.05,121
-1.2,-0.9,122
-1.2,-0.75,122
-1.2,-0.6,129
-1.2,-0.45,128
-1.2,-0.3,127
-1.2,-0.15,127
-1.2,0.0,127
-1.2,0.15,163
-1.2,0.3,161
-1.2,0.45,159
-1.2,0.6,158
-1.2,0.75,149
-1.2,0.9,150
-1.2,1.05,149
-1.2,1.2,125
-1.2,1.35,119
-1.2,1.5,119
-1.05,-1.5,117
-1.05,-1.35,113
-1.05,-1.2,115
-1.05,-1.05,116
-1.05,-0.9,123
-1.05,-0.75,124
-1.05,-0.6,130
-1.05,-0.45,130
-1.05,-0.3,128
-1.05,-0.15,127
-1.05,0.0,127
-1.05,0.15,127
-1.05,0.3,159
-1.05,0.45,157
-1.05,0.6,155
-1.05,0.75,151
-1.05,0.9,149
-1.05,1.05,148
-1.05,1.2,135
-1.05,1.35,142
-1.05,1.5,119
-0.9,-1.5,118
-0.9,-1.35,126
-0.9,-1.2,128
-0.9,-1.05,129
-0.9,-0.9,130
-0.9,-0.75,130
-0.9,-0.6,124
-0.9,-0.45,116
-0.9,-0.3,130
-0.9,-0.15,128
-0.9,0.0,132
-0.9,0.15,128
-0.9,0.3,124
-0.9,0.45,120
-0.9,0.6,116
-0.9,0.75,112
-0.9,0.9,132
-0.9,1.05,138
-0.9,1.2,138
-0.9,1.35,146
-0.9,1.5,148
-0.75,-1.5,122
-0.75,-1.35,118
-0.75,-1.2,125
-0.75,-1.05,127
-0.75,-0.9,128
-0.75,-0.75,129
-0.75,-0.6,130
-0.75,-0.45,131
-0.75,-0.3,121
-0.75,-0.15,134
-0.75,0.0,138
-0.75,0.15,137
-0.75,0.3,132
-0.75,0.45,103
-0.75,0.6,100
-0.75,0.75,104
-0.75,0.9,104
-0.75,1.05,122
-0.75,1.2,122
-0.75,1.35,122
-0.75,1.5,122
-0.6,-1.5,119
-0.6,-1.35,121
-0.6,-1.2,123
-0.6,-1.05,131
-0.6,-0.9,133
-0.6,-0.75,135
-0.6,-0.6,126
-0.6,-0.45,138
-0.6,-0.3,137
-0.6,-0.15,161
-0.6,0.0,143
-0.6,0.15,110
-0.6,0.3,132
-0.6,0.45,129
-0.6,0.6,115
-0.6,0.75,113
-0.6,0.9,132
-0.6,1.05,131
-0.6,1.2,131
-0.6,1.35,131
-0.6,1.5,131
-0.45,-1.5,116
-0.45,-1.35,117
-0.45,-1.2,119
-0.45,-1.05,121
-0.45,-0.9,110
-0.45,-0.75,110
-0.45,-0.6,139
-0.45,-0.45,139
-0.45,-0.3,139
-0.45,-0.15,131
-0.45,0.0,128
-0.45,0.15,111
-0.45,0.3,109
-0.45,0.45,121
-0.45,0.6,146
-0.45,0.75,140
-0.45,0.9,134
-0.45,1.05,101
-0.45,1.2,101
-0.45,1.35,101
-0.45,1.5,99
-0.3,-1.5,112
-0.3,-1.35,96
-0.3,-1.2,98
-0.3,-1.05,110
-0.3,-0.9,112
-0.3,-0.75,113
-0.3,-0.6,120
-0.3,-0.45,124
-0.3,-0.3,119
-0.3,-0.15,124
-0.3,0.0,111
-0.3,0.15,110
-0.3,0.3,108
-0.3,0.45,97
-0.3,0.6,107
-0.3,0.75,108
-0.3,0.9,109
-0.3,1.05,110
-0.3,1.2,103
-0.3,1.35,104
-0.3,1.5,104
-0.15,-1.5,122
-0.15,-1.35,94
-0.15,-1.2,76
-0.15,-1.05,98
-0.15,-0.9,100
-0.15,-0.75,114
-0.15,-0.6,115
-0.15,-0.45,116
-0.15,-0.3,114
-0.15,-0.15,121
-0.15,0.0,80
-0.15,0.15,80
-0.15,0.3,102
-0.15,0.45,103
-0.15,0.6,97
-0.15,0.75,97
-0.15,0.9,97
-0.15,1.05,110
-0.15,1.2,104
-0.15,1.35,104
-0.15,1.5,104
0.0,-1.5,97
0.0,-1.35,97
0.0,-1.2,67
0.0,-1.05,98
0.0,-0.9,58
0.0,-0.75,59
0.0,-0.6,65
0.0,-0.45,66
0.0,-0.3,73
0.0,-0.15,73
0.0,0.0,80
0.0,0.15,102
0.0,0.3,97
0.0,0.45,97
0.0,0.6,97
0.0,0.75,110
0.0,0.9,110
0.0,1.05,110
0.0,1.2,110
0.0,1.35,111
0.0,1.5,120
0.15,-1.5,65
0.15,-1.35,65
0.15,-1.2,82
0.15,-1.05,81
0.15,-0.9,57
0.15,-0.75,58
0.15,-0.6,58
0.15,-0.45,58
0.15,-0.3,73
0.15,-0.15,66
0.15,0.0,95
0.15,0.15,97
0.15,0.3,96
0.15,0.45,97
0.15,0.6,110
0.15,0.75,111
0.15,0.9,111
0.15,1.05,111
0.15,1.2,111
0.15,1.35,110
0.15,1.5,110
0.3,-1.5,65
0.3,-1.35,69
0.3,-1.2,67
0.3,-1.05,65
0.3,-0.9,63
0.3,-0.75,57
0.3,-0.6,57
0.3,-0.45,58
0.3,-0.3,66
0.3,-0.15,65
0.3,0.0,88
0.3,0.15,96
0.3,0.3,104
0.3,0.45,105
0.3,0.6,106
0.3,0.75,111
0.3,0.9,111
0.3,1.05,111
0.3,1.2,110
0.3,1.35,91
0.3,1.5,91
0.45,-1.5,59
0.45,-1.35,66
0.45,-1.2,69
0.45,-1.05,67
0.45,-0.9,83
0.45,-0.75,82
0.45,-0.6,57
0.45,-0.45,57
0.45,-0.3,65
0.45,-0.15,66
0.45,0.0,102
0.45,0.15,104
0.45,0.3,105
0.45,0.45,98
0.45,0.6,99
0.45,0.75,105
0.45,0.9,105
0.45,1.05,105
0.45,1.2,91
0.45,1.35,91
0.45,1.5,90
0.6,-1.5,59
0.6,-1.35,58
0.6,-1.2,57
0.6,-1.05,51
0.6,-0.9,58
0.6,-0.75,83
0.6,-0.6,83
0.6,-0.45,82
0.6,-0.3,72
0.6,-0.15,73
0.6,0.0,95
0.6,0.15,96
0.6,0.3,97
0.6,0.45,97
0.6,0.6,98
0.6,0.75,105
0.6,0.9,105
0.6,1.05,105
0.6,1.2,105
0.6,1.35,105
0.6,1.5,99
0.75,-1.5,81
0.75,-1.35,80
0.75,-1.2,79
0.75,-1.05,78
0.75,-0.9,50
0.75,-0.75,48
0.75,-0.6,75
0.75,-0.45,90
0.75,-0.3,57
0.75,-0.15,44
0.75,0.0,74
0.75,0.15,82
0.75,0.3,82
0.75,0.45,83
0.75,0.6,105
0.75,0.75,105
0.75,0.9,98
0.75,1.05,98
0.75,1.2,99
0.75,1.35,99
0.75,1.5,99
0.9,-1.5,85
0.9,-1.35,87
0.9,-1.2,86
0.9,-1.05,85
0.9,-0.9,84
0.9,-0.75,76
0.9,-0.6,53
0.9,-0.45,61
0.9,-0.3,37
0.9,-0.15,44
0.9,0.0,66
0.9,0.15,88
0.9,0.3,90
0.9,0.45,96
0.9,0.6,97
0.9,0.75,97
0.9,0.9,98
0.9,1.05,98
0.9,1.2,98
0.9,1.35,90
0.9,1.5,90
1.05,-1.5,79
1.05,-1.35,79
1.05,-1.2,78
1.05,-1.05,77
1.05,-0.9,70
1.05,-0.75,69
1.05,-0.6,74
1.05,-0.45,74
1.05,-0.3,68
1.05,-0.15,37
1.05,0.0,45
1.05,0.15,52
1.05,0.3,77
1.05,0.45,79
1.05,0.6,80
1.05,0.75,92
1.05,0.9,92
1.05,1.05,98
1.05,1.2,98
1.05,1.35,84
1.05,1.5,84
1.2,-1.5,80
1.2,-1.35,79
1.2,-1.2,78
1.2,-1.05,72
1.2,-0.9,79
1.2,-0.75,77
1.2,-0.6,69
1.2,-0.45,75
1.2,-0.3,52
1.2,-0.15,30
1.2,0.0,59
1.2,0.15,52
1.2,0.3,53
1.2,0.45,53
1.2,0.6,83
1.2,0.75,84
1.2,0.9,84
1.2,1.05,83
1.2,1.2,84
1.2,1.35,84
1.2,1.5,84
1.35,-1.5,122
1.35,-1.35,122
1.35,-1.2,102
1.35,-1.05,101
1.35,-0.9,80
1.35,-0.75,79
1.35,-0.6,77
1.35,-0.45,68
1.35,-0.3,51
1.35,-0.15,66
1.35,0.0,44
1.35,0.15,52
1.35,0.3,45
1.35,0.45,53
1.35,0.6,52
1.35,0.75,52
1.35,0.9,51
1.35,1.05,51
1.35,1.2,81
1.35,1.35,75
1.35,1.5,75
1.5,-1.5,122
1.5,-1.35,122
1.5,-1.2,121
1.5,-1.05,120
1.5,-0.9,99
1.5,-0.75,98
1.5,-0.6,76
1.5,-0.45,44
1.5,-0.3,44
1.5,-0.15,66
1.5,0.0,52
1.5,0.15,45
1.5,0.3,38
1.5,0.45,45
1.5,0.6,45
1.5,0.75,44
1.5,0.9,44
1.5,1.05,44
1.5,1.2,43
1.5,1.35,39
1.5,1.5,39
1.65,-1.5,149
1.65,-1.35,147
1.65,-1.2,146
1.65,-1.05,141
1.65,-0.9,119
1.65,-0.75,94
1.65,-0.6,94
1.65,-0.45,102
1.65,-0.3,80
1.65,-0.15,44
1.65,0.0,44
1.65,0.15,44
1.65,0.3,38
1.65,0.45,37
1.65,0.6,38
1.65,0.75,37
1.65,0.9,39
1.65,1.05,39
1.65,1.2,39
1.65,1.35,39
1.65,1.5,39
1.8,-1.5,161
1.8,-1.35,149
1.8,-1.2,150
1.8,-1.05,120
1.8,-0.9,116
1.8,-0.75,116
1.8,-0.6,117
1.8,-0.45,118
1.8,-0.3,102
1.8,-0.15,59
1.8,0.0,52
1.8,0.15,44
1.8,0.3,44
1.8,0.45,37
1.8,0.6,38
1.8,0.75,37
1.8,0.9,37
1.8,1.05,37
1.8,1.2,37
1.8,1.35,67
1.8,1.5,67
1.95,-1.5,161
1.95,-1.35,159
1.95,-1.2,160
1.95,-1.05,135
1.95,-0.9,129
1.95,-0.75,118
1.95,-0.6,118
1.95,-0.45,96
1.95,-0.3,95
1.95,-0.15,30
1.95,0.0,30
1.95,0.15,30
1.95,0.3,37
1.95,0.45,37
1.95,0.6,37
1.95,0.75,37
1.95,0.9,60
1.95,1.05,61
1.95,1.2,67
1.95,1.35,67
1.95,1.5,67
2.1,-1.5,190
2.1,-1.35,191
2.1,-1.2,192
2.1,-1.05,193
2.1,-0.9,169
2.1,-0.75,110
2.1,-0.6,96
2.1,-0.45,96
2.1,-0.3,103
2.1,-0.15,88
2.1,0.0,30
2.1,0.15,30
2.1,0.3,29
2.1,0.45,52
2.1,0.6,52
2.1,0.75,52
2.1,0.9,52
2.1,1.05,69
2.1,1.2,60
2.1,1.35,60
2.1,1.5,52
2.25,-1.5,171
2.25,-1.35,171
2.25,-1.2,171
2.25,-1.05,171
2.25,-0.9,170
2.25,-0.75,170
2.25,-0.6,140
2.25,-0.45,124
2.25,-0.3,117
2.25,-0.15,73
2.25,0.0,66
2.25,0.15,59
2.25,0.3,80
2.25,0.45,80
2.25,0.6,79
2.25,0.75,72
2.25,0.9,69
2.25,1.05,69
2.25,1.2,69
2.25,1.35,69
2.25,1.5,68
2.4,-1.5,217
2.4,-1.35,202
2.4,-1.2,178
2.4,-1.05,205
2.4,-0.9,205
2.4,-0.75,177
2.4,-0.6,154
2.4,-0.45,103
2.4,-0.3,73
2.4,-0.15,80
2.4,0.0,95
2.4,0.15,103
2.4,0.3,95
2.4,0.45,88
2.4,0.6,80
2.4,0.75,72
2.4,0.9,72
2.4,1.05,71
2.4,1.2,71
2.4,1.35,70
2.4,1.5,70
2.55,-1.5,201
2.55,-1.35,195
2.55,-1.2,195
2.55,-1.05,169
2.55,-0.9,135
2.55,-0.75,127
2.55,-0.6,140
2.55,-0.45,138
2.55,-0.3,102
2.55,-0.15,95
2.55,0.0,103
2.55,0.15,117
2.55,0.3,110
2.55,0.45,101
2.55,0.6,87
2.55,0.75,87
2.55,0.9,80
2.55,1.05,79
2.55,1.2,78
2.55,1.35,72
2.55,1.5,76
2.7,-1.5,194
2.7,-1.35,203
2.7,-1.2,203
2.7,-1.05,203
2.7,-0.9,197
2.7,-0.75,210
2.7,-0.6,168
2.7,-0.45,197
2.7,-0.3,145
2.7,-0.15,88
2.7,0.0,95
2.7,0.15,110
2.7,0.3,102
2.7,0.45,101
2.7,0.6,94
2.7,0.75,93
2.7,0.9,93
2.7,1.05,93
2.7,1.2,84
2.7,1.35,76
2.7,1.5,76
2.85,-1.5,193
2.85,-1.35,194
2.85,-1.2,195
2.85,-1.05,205
2.85,-0.9,205
2.85,-0.75,205
2.85,-0.6,255
2.85,-0.45,197
2.85,-0.3,139
2.85,-0.15,73
2.85,0.0,45
2.85,0.15,44
2.85,0.3,88
2.85,0.45,94
2.85,0.6,94
2.85,0.75,86
2.85,0.9,85
2.85,1.05,84
2.85,1.2,84
2.85,1.35,83
2.85,1.5,83
3.0,-1.5,175
3.0,-1.35,175
3.0,-1.2,175
3.0,-1.05,196
3.0,-0.9,205
3.0,-0.75,205
3.0,-0.6,255
3.0,-0.45,233
3.0,-0.3,161
3.0,-0.15,59
3.0,0.0,30
3.0,0.15,23
3.0,0.3,30
3.0,0.45,60
3.0,0.6,88
3.0,0.75,89
3.0,0.9,82
3.0,1.05,94
3.0,1.2,84
3.0,1.35,100
3.0,1.5,101
3.15,-1.5,172
3.15,-1.35,172
3.15,-1.2,203
3.15,-1.05,204
3.15,-0.9,204
3.15,-0.75,203
3.15,-0.6,196
3.15,-0.45,226
3.15,-0.3,182
3.15,-0.15,95
3.15,0.0,95
3.15,0.15,87
3.15,0.3,86
3.15,0.45,91
3.15,0.6,81
3.15,0.75,82
3.15,0.9,118
3.15,1.05,118
3.15,1.2,118
3.15,1.35,118
3.15,1.5,102
3.3,-1.5,187
3.3,-1.35,190
3.3,-1.2,190
3.3,-1.05,223
3.3,-0.9,195
3.3,-0.75,196
3.3,-0.6,218
3.3,-0.45,248
3.3,-0.3,183
3.3,-0.15,168
3.3,0.0,124
3.3,0.15,102
3.3,0.3,93
3.3,0.45,95
3.3,0.6,119
3.3,0.75,118
3.3,0.9,117
3.3,1.05,110
3.3,1.2,109
3.3,1.35,108
3.3,1.5,115
3.45,-1.5,146
3.45,-1.35,144
3.45,-1.2,146
3.45,-1.05,149
3.45,-0.9,166
3.45,-0.75,210
3.45,-0.6,160
3.45,-0.45,211
3.45,-0.3,226
3.45,-0.15,139
3.45,0.0,110
3.45,0.15,95
3.45,0.3,124
3.45,0.45,123
3.45,0.6,114
3.45,0.75,113
3.45,0.9,93
3.45,1.05,92
3.45,1.2,84
3.45,1.35,76
3.45,1.5,76
3.6,-1.5,83
3.6,-1.35,109
3.6,-1.2,142
3.6,-1.05,145
3.6,-0.9,147
3.6,-0.75,193
3.6,-0.6,203
3.6,-0.45,248
3.6,-0.3,219
3.6,-0.15,153
3.6,0.0,102
3.6,0.15,125
3.6,0.3,110
3.6,0.45,103
3.6,0.6,81
3.6,0.75,81
3.6,0.9,81
3.6,1.05,64
3.6,1.2,70
3.6,1.35,76
3.6,1.5,76
3.75,-1.5,101
3.75,-1.35,76
3.75,-1.2,77
3.75,-1.05,78
3.75,-0.9,112
3.75,-0.75,112
3.75,-0.6,182
3.75,-0.45,248
3.75,-0.3,226
3.75,-0.15,211
3.75,0.0,146
3.75,0.15,131
3.75,0.3,131
3.75,0.45,130
3.75,0.6,88
3.75,0.75,87
3.75,0.9,86
3.75,1.05,86
3.75,1.2,86
3.75,1.35,85
3.75,1.5,85
3.9,-1.5,46
3.9,-1.35,54
3.9,-1.2,75
3.9,-1.05,77
3.9,-0.9,133
3.9,-0.75,114
3.9,-0.6,181
3.9,-0.45,233
3.9,-0.3,255
3.9,-0.15,255
3.9,0.0,182
3.9,0.15,138
3.9,0.3,138
3.9,0.45,108
3.9,0.6,67
3.9,0.75,67
3.9,0.9,67
3.9,1.05,67
3.9,1.2,67
3.9,1.35,86
3.9,1.5,86
4.05,-1.5,53
4.05,-1.35,54
4.05,-1.2,55
4.05,-1.05,70
4.05,-0.9,91
4.05,-0.75,93
4.05,-0.6,124
4.05,-0.45,182
4.05,-0.3,255
4.05,-0.15,219
4.05,0.0,175
4.05,0.15,51
4.05,0.3,44
4.05,0.45,51
4.05,0.6,51
4.05,0.75,94
4.05,0.9,86
4.05,1.05,86
4.05,1.2,85
4.05,1.35,85
4.05,1.5,85
4.2,-1.5,59
4.2,-1.35,60
4.2,-1.2,61
4.2,-1.05,62
4.2,-0.9,77
4.2,-0.75,121
4.2,-0.6,123
4.2,-0.45,160
4.2,-0.3,255
4.2,-0.15,247
4.2,0.0,81
4.2,0.15,81
4.2,0.3,59
4.2,0.45,59
4.2,0.6,94
4.2,0.75,94
4.2,0.9,94
4.2,1.05,114
4.2,1.2,114
4.2,1.35,114
4.2,1.5,114
4.35,-1.5,80
4.35,-1.35,109
4.35,-1.2,149
4.35,-1.05,139
4.35,-0.9,141
4.35,-0.75,158
4.35,-0.6,253
4.35,-0.45,233
4.35,-0.3,255
4.35,-0.15,255
4.35,0.0,124
4.35,0.15,88
4.35,0.3,102
4.35,0.45,139
4.35,0.6,132
4.35,0.75,130
4.35,0.9,130
4.35,1.05,130
4.35,1.2,129
4.35,1.35,128
4.35,1.5,151
4.5,-1.5,101
4.5,-1.35,102
4.5,-1.2,143
4.5,-1.05,159
4.5,-0.9,213
4.5,-0.75,250
4.5,-0.6,255
4.5,-0.45,255
4.5,-0.3,255
4.5,-0.15,248
4.5,0.0,66
4.5,0.15,110
4.5,0.3,153
4.5,0.45,125
4.5,0.6,125
4.5,0.75,125
4.5,0.9,125
4.5,1.05,162
4.5,1.2,162
4.5,1.35,162
4.5,1.5,162
4.65,-1.5,111
4.65,-1.35,112
4.65,-1.2,120
4.65,-1.05,165
4.65,-0.9,159
4.65,-0.75,216
4.65,-0.6,246
4.65,-0.45,226
4.65,-0.3,211
4.65,-0.15,182
4.65,0.0,168
4.65,0.15,124
4.65,0.3,132
4.65,0.45,133
4.65,0.6,125
4.65,0.75,162
4.65,0.9,163
4.65,1.05,164
4.65,1.2,165
4.65,1.35,163
4.65,1.5,164
4.8,-1.5,149
4.8,-1.35,162
4.8,-1.2,166
4.8,-1.05,166
4.8,-0.9,166
4.8,-0.75,153
4.8,-0.6,145
4.8,-0.45,125
4.8,-0.3,73
4.8,-0.15,161
4.8,0.0,153
4.8,0.15,66
4.8,0.3,117
4.8,0.45,89
4.8,0.6,122
4.8,0.75,173
4.8,0.9,174
4.8,1.05,173
4.8,1.2,173
4.8,1.35,167
4.8,1.5,167
4.95,-1.5,154
4.95,-1.35,157
4.95,-1.2,158
4.95,-1.05,159
4.95,-0.9,181
4.95,-0.75,181
4.95,-0.6,196
4.95,-0.45,218
4.95,-0.3,59
4.95,-0.15,44
4.95,0.0,59
4.95,0.15,95
4.95,0.3,103
4.95,0.45,156
4.95,0.6,157
4.95,0.75,157
4.95,0.9,203
4.95,1.05,197
4.95,1.2,196
4.95,1.35,197
4.95,1.5,197
5.1,-1.5,142
5.1,-1.35,142
5.1,-1.2,101
5.1,-1.05,101
5.1,-0.9,139
5.1,-0.75,147
5.1,-0.6,160
5.1,-0.45,219
5.1,-0.3,110
5.1,-0.15,8
5.1,0.0,8
5.1,0.15,52
5.1,0.3,110
5.1,0.45,148
5.1,0.6,157
5.1,0.75,179
5.1,0.9,209
5.1,1.05,210
5.1,1.2,203
5.1,1.35,177
5.1,1.5,175
5.25,-1.5,154
5.25,-1.35,155
5.25,-1.2,139
5.25,-1.05,167
5.25,-0.9,167
5.25,-0.75,139
5.25,-0.6,190
5.25,-0.45,146
5.25,-0.3,139
5.25,-0.15,117
5.25,0.0,51
5.25,0.15,81
5.25,0.3,161
5.25,0.45,163
5.25,0.6,165
5.25,0.75,173
5.25,0.9,174
5.25,1.05,175
5.25,1.2,176
5.25,1.35,203
5.25,1.5,175
5.4,-1.5,110
5.4,-1.35,110
5.4,-1.2,82
5.4,-1.05,139
5.4,-0.9,139
5.4,-0.75,109
5.4,-0.6,131
5.4,-0.45,139
5.4,-0.3,73
5.4,-0.15,95
5.4,0.0,102
5.4,0.15,146
5.4,0.3,140
5.4,0.45,141
5.4,0.6,193
5.4,0.75,194
5.4,0.9,165
5.4,1.05,165
5.4,1.2,166
5.4,1.35,138
5.4,1.5,136
5.55,-1.5,153
5.55,-1.35,139
5.55,-1.2,111
5.55,-1.05,52
5.55,-0.9,108
5.55,-0.75,109
5.55,-0.6,161
5.55,-0.45,110
5.55,-0.3,190
5.55,-0.15,66
5.55,0.0,66
5.55,0.15,110
5.55,0.3,96
5.55,0.45,127
5.55,0.6,141
5.55,0.75,135
5.55,0.9,135
5.55,1.05,135
5.55,1.2,135
5.55,1.35,108
5.55,1.5,108
5.7,-1.5,130
5.7,-1.35,130
5.7,-1.2,130
5.7,-1.05,130
5.7,-0.9,124
5.7,-0.75,81
5.7,-0.6,109
5.7,-0.45,110
5.7,-0.3,248
5.7,-0.15,124
5.7,0.0,110
5.7,0.15,124
5.7,0.3,154
5.7,0.45,146
5.7,0.6,168
5.7,0.75,168
5.7,0.9,159
5.7,1.05,184
5.7,1.2,184
5.7,1.35,171
5.7,1.5,171
5.85,-1.5,95
5.85,-1.35,95
5.85,-1.2,95
5.85,-1.05,89
5.85,-0.9,88
5.85,-0.75,88
5.85,-0.6,80
5.85,-0.45,95
5.85,-0.3,124
5.85,-0.15,73
5.85,0.0,81
5.85,0.15,124
5.85,0.3,102
5.85,0.45,130
5.85,0.6,129
5.85,0.75,156
5.85,0.9,184
5.85,1.05,184
5.85,1.2,184
5.85,1.35,184
5.85,1.5,209
6.0,-1.5,102
6.0,-1.35,102
6.0,-1.2,102
6.0,-1.05,96
6.0,-0.9,96
6.0,-0.75,96
6.0,-0.6,161
6.0,-0.45,153
6.0,-0.3,124
6.0,-0.15,73
6.0,0.0,81
6.0,0.15,117
6.0,0.3,130
6.0,0.45,129
6.0,0.6,128
6.0,0.75,127
6.0,0.9,126
6.0,1.05,125
6.0,1.2,156
6.0,1.35,115
6.0,1.5,115
6.15,-1.5,118
6.15,-1.35,117
6.15,-1.2,110
6.15,-1.05,110
6.15,-0.9,110
6.15,-0.75,109
6.15,-0.6,66
6.15,-0.45,73
6.15,-0.3,88
6.15,-0.15,22
6.15,0.0,52
6.15,0.15,74
6.15,0.3,87
6.15,0.45,86
6.15,0.6,85
6.15,0.75,85
6.15,0.9,84
6.15,1.05,81
6.15,1.2,80
6.15,1.35,80
6.15,1.5,79
6.3,-1.5,117
6.3,-1.35,139
6.3,-1.2,117
6.3,-1.05,146
6.3,-0.9,131
6.3,-0.75,73
6.3,-0.6,66
6.3,-0.45,95
6.3,-0.3,95
6.3,-0.15,8
6.3,0.0,139
6.3,0.15,138
6.3,0.3,94
6.3,0.45,65
6.3,0.6,57
6.3,0.75,41
6.3,0.9,40
6.3,1.05,39
6.3,1.2,39
6.3,1.35,38
6.3,1.5,12
6.45,-1.5,132
6.45,-1.35,132
6.45,-1.2,131
6.45,-1.05,131
6.45,-0.9,125
6.45,-0.75,117
6.45,-0.6,95
6.45,-0.45,110
6.45,-0.3,146
6.45,-0.15,37
6.45,0.0,110
6.45,0.15,95
6.45,0.3,79
6.45,0.45,7
6.45,0.6,7
6.45,0.75,29
6.45,0.9,14
6.45,1.05,14
6.45,1.2,14
6.45,1.35,14
6.45,1.5,14
6.6,-1.5,125
6.6,-1.35,125
6.6,-1.2,125
6.6,-1.05,118
6.6,-0.9,117
6.6,-0.75,117
6.6,-0.6,74
6.6,-0.45,73
6.6,-0.3,52
6.6,-0.15,37
6.6,0.0,95
6.6,0.15,37
6.6,0.3,51
6.6,0.45,51
6.6,0.6,29
6.6,0.75,29
6.6,0.9,22
6.6,1.05,22
6.6,1.2,21
6.6,1.35,21
6.6,1.5,21
6.75,-1.5,139
6.75,-1.35,135
6.75,-1.2,157
6.75,-1.05,157
6.75,-0.9,157
6.75,-0.75,146
6.75,-0.6,190
6.75,-0.45,73
6.75,-0.3,95
6.75,-0.15,95
6.75,0.0,73
6.75,0.15,95
6.75,0.3,37
6.75,0.45,37
6.75,0.6,50
6.75,0.75,43
6.75,0.9,43
6.75,1.05,42
6.75,1.2,42
6.75,1.35,41
6.75,1.5,34
6.9,-1.5,175
6.9,-1.35,175
6.9,-1.2,153
6.9,-1.05,153
6.9,-0.9,123
6.9,-0.75,116
6.9,-0.6,131
6.9,-0.45,52
6.9,-0.3,8
6.9,-0.15,110
6.9,0.0,110
6.9,0.15,88
6.9,0.3,52
6.9,0.45,51
6.9,0.6,44
6.9,0.75,44
6.9,0.9,43
6.9,1.05,43
6.9,1.2,43
6.9,1.35,43
6.9,1.5,43
7.05,-1.5,147
7.05,-1.35,154
7.05,-1.2,119
7.05,-1.05,90
7.05,-0.9,96
7.05,-0.75,96
7.05,-0.6,37
7.05,-0.45,44
7.05,-0.3,81
7.05,-0.15,44
7.05,0.0,95
7.05,0.15,66
7.05,0.3,59
7.05,0.45,44
7.05,0.6,51
7.05,0.75,50
7.05,0.9,71
7.05,1.05,70
7.05,1.2,70
7.05,1.35,69
7.05,1.5,69
7.2,-1.5,91
7.2,-1.35,63
7.2,-1.2,62
7.2,-1.05,76
7.2,-0.9,75
7.2,-0.75,74
7.2,-0.6,15
7.2,-0.45,30
7.2,-0.3,81
7.2,-0.15,44
7.2,0.0,88
7.2,0.15,81
7.2,0.3,59
7.2,0.45,44
7.2,0.6,72
7.2,0.75,72
7.2,0.9,71
7.2,1.05,70
7.2,1.2,69
7.2,1.35,67
7.2,1.5,65
7.35,-1.5,77
7.35,-1.35,83
7.35,-1.2,76
7.35,-1.05,76
7.35,-0.9,75
7.35,-0.75,74
7.35,-0.6,52
7.35,-0.45,15
7.35,-0.3,73
7.35,-0.15,81
7.35,0.0,59
7.35,0.15,59
7.35,0.3,59
7.35,0.45,51
7.35,0.6,50
7.35,0.75,49
7.35,0.9,47
7.35,1.05,46
7.35,1.2,47
7.35,1.35,47
7.35,1.5,47
7.5,-1.5,90
7.5,-1.35,90
7.5,-1.2,75
7.5,-1.05,75
7.5,-0.9,103
7.5,-0.75,103
7.5,-0.6,74
7.5,-0.45,23
7.5,-0.3,15
7.5,-0.15,81
7.5,0.0,80
7.5,0.15,88
7.5,0.3,95
7.5,0.45,80
7.5,0.6,71
7.5,0.75,62
7.5,0.9,40
7.5,1.05,39
7.5,1.2,38
7.5,1.35,38
7.5,1.5,13
7.65,-1.5,94
7.65,-1.35,95
7.65,-1.2,97
7.65,-1.05,90
7.65,-0.9,90
7.65,-0.75,59
7.65,-0.6,52
7.65,-0.45,88
7.65,-0.3,44
7.65,-0.15,22
7.65,0.0,22
7.65,0.15,37
7.65,0.3,44
7.65,0.45,58
7.65,0.6,57
7.65,0.75,50
7.65,0.9,49
7.65,1.05,14
7.65,1.2,7
7.65,1.35,7
7.65,1.5,7
7.8,-1.5,152
7.8,-1.35,152
7.8,-1.2,145
7.8,-1.05,87
7.8,-0.9,52
7.8,-0.75,52
7.8,-0.6,73
7.8,-0.45,66
7.8,-0.3,52
7.8,-0.15,23
7.8,0.0,52
7.8,0.15,37
7.8,0.3,44
7.8,0.45,15
7.8,0.6,8
7.8,0.75,8
7.8,0.9,7
7.8,1.05,7
7.8,1.2,7
7.8,1.35,7
7.8,1.5,7
7.95,-1.5,71
7.95,-1.35,71
7.95,-1.2,86
7.95,-1.05,87
7.95,-0.9,88
7.95,-0.75,66
7.95,-0.6,88
7.95,-0.45,139
7.95,-0.3,52
7.95,-0.15,66
7.95,0.0,44
7.95,0.15,23
7.95,0.3,8
7.95,0.45,8
7.95,0.6,1
7.95,0.75,7
7.95,0.9,7
7.95,1.05,0
7.95,1.2,0
7.95,1.35,2
7.95,1.5,3
8.1,-1.5,95
8.1,-1.35,66
8.1,-1.2,66
8.1,-1.05,66
8.1,-0.9,88
8.1,-0.75,88
8.1,-0.6,95
8.1,-0.45,102
8.1,-0.3,52
8.1,-0.15,124
8.1,0.0,59
8.1,0.15,15
8.1,0.3,0
8.1,0.45,0
8.1,0.6,0
8.1,0.75,0
8.1,0.9,0
8.1,1.05,0
8.1,1.2,0
8.1,1.35,0
8.1,1.5,0
8.25,-1.5,102
8.25,-1.35,102
8.25,-1.2,102
8.25,-1.05,73
8.25,-0.9,73
8.25,-0.75,73
8.25,-0.6,81
8.25,-0.45,153
8.25,-0.3,73
8.25,-0.15,88
8.25,0.0,37
8.25,0.15,0
8.25,0.3,0
8.25,0.45,0
8.25,0.6,0
8.25,0.75,0
8.25,0.9,2
8.25,1.05,2
8.25,1.2,25
8.25,1.35,25
8.25,1.5,26
8.4,-1.5,102
8.4,-1.35,102
8.4,-1.2,102
8.4,-1.05,102
8.4,-0.9,131
8.4,-0.75,102
8.4,-0.6,73
8.4,-0.45,88
8.4,-0.3,66
8.4,-0.15,66
8.4,0.0,59
8.4,0.15,8
8.4,0.3,1
8.4,0.45,1
8.4,0.6,32
8.4,0.75,32
8.4,0.9,33
8.4,1.05,33
8.4,1.2,32
8.4,1.35,32
8.4,1.5,32
8.55,-1.5,102
8.55,-1.35,81
8.55,-1.2,81
8.55,-1.05,60
8.55,-0.9,60
8.55,-0.75,96
8.55,-0.6,95
8.55,-0.45,124
8.55,-0.3,81
8.55,-0.15,37
8.55,0.0,73
8.55,0.15,95
8.55,0.3,45
8.55,0.45,52
8.55,0.6,39
8.55,0.75,39
8.55,0.9,39
8.55,1.05,33
8.55,1.2,33
8.55,1.35,34
8.55,1.5,34
8.7,-1.5,67
8.7,-1.35,67
8.7,-1.2,68
8.7,-1.05,60
8.7,-0.9,60
8.7,-0.75,59
8.7,-0.6,44
8.7,-0.45,95
8.7,-0.3,88
8.7,-0.15,30
8.7,0.0,190
8.7,0.15,124
8.7,0.3,102
8.7,0.45,60
8.7,0.6,53
8.7,0.75,46
8.7,0.9,39
8.7,1.05,40
8.7,1.2,40
8.7,1.35,40
8.7,1.5,34
8.85,-1.5,76
8.85,-1.35,76
8.85,-1.2,47
8.85,-1.05,47
8.85,-0.9,53
8.85,-0.75,66
8.85,-0.6,37
8.85,-0.45,59
8.85,-0.3,102
8.85,-0.15,44
8.85,0.0,168
8.85,0.15,146
8.85,0.3,124
8.85,0.45,66
8.85,0.6,67
8.85,0.75,67
8.85,0.9,67
8.85,1.05,67
8.85,1.2,110
8.85,1.35,92
8.85,1.5,93
9.0,-1.5,105
9.0,-1.35,106
9.0,-1.2,105
9.0,-1.05,69
9.0,-0.9,68
9.0,-0.75,66
9.0,-0.6,95
9.0,-0.45,117
9.0,-0.3,102
9.0,-0.15,44
9.0,0.0,124
9.0,0.15,95
9.0,0.3,109
9.0,0.45,66
9.0,0.6,66
9.0,0.75,108
9.0,0.9,110
9.0,1.05,110
9.0,1.2,108
9.0,1.35,109
9.0,1.5,92
9.15,-1.5,160
9.15,-1.35,140
9.15,-1.2,140
9.15,-1.05,133
9.15,-0.9,161
9.15,-0.75,137
9.15,-0.6,80
9.15,-0.45,131
9.15,-0.3,59
9.15,-0.15,66
9.15,0.0,44
9.15,0.15,87
9.15,0.3,94
9.15,0.45,101
9.15,0.6,115
9.15,0.75,121
9.15,0.9,94
9.15,1.05,93
9.15,1.2,94
9.15,1.35,95
9.15,1.5,96
9.3,-1.5,162
9.3,-1.35,162
9.3,-1.2,138
9.3,-1.05,146
9.3,-0.9,139
9.3,-0.75,161
9.3,-0.6,161
9.3,-0.45,161
9.3,-0.3,131
9.3,-0.15,124
9.3,0.0,81
9.3,0.15,44
9.3,0.3,51
9.3,0.45,103
9.3,0.6,118
9.3,0.75,118
9.3,0.9,93
9.3,1.05,94
9.3,1.2,95
9.3,1.35,96
9.3,1.5,96
9.45,-1.5,144
9.45,-1.35,140
9.45,-1.2,148
9.45,-1.05,148
9.45,-0.9,147
9.45,-0.75,147
9.45,-0.6,139
9.45,-0.45,161
9.45,-0.3,139
9.45,-0.15,146
9.45,0.0,52
9.45,0.15,58
9.45,0.3,59
9.45,0.45,61
9.45,0.6,59
9.45,0.75,59
9.45,0.9,59
9.45,1.05,67
9.45,1.2,68
9.45,1.35,96
9.45,1.5,96
9.6,-1.5,224
9.6,-1.35,225
9.6,-1.2,225
9.6,-1.05,140
9.6,-0.9,126
9.6,-0.75,103
9.6,-0.6,52
9.6,-0.45,66
9.6,-0.3,168
9.6,-0.15,203
9.6,0.0,44
9.6,0.15,15
9.6,0.3,60
9.6,0.45,59
9.6,0.6,59
9.6,0.75,59
9.6,0.9,60
9.6,1.05,61
9.6,1.2,62
9.6,1.35,63
9.6,1.5,63
9.75,-1.5,225
9.75,-1.35,225
9.75,-1.2,220
9.75,-1.05,219
9.75,-0.9,190
9.75,-0.75,132
9.75,-0.6,81
9.75,-0.45,59
9.75,-0.3,175
9.75,-0.15,153
9.75,0.0,100
9.75,0.15,37
9.75,0.3,82
9.75,0.45,107
9.75,0.6,107
9.75,0.75,107
9.75,0.9,108
9.75,1.05,80
9.75,1.2,106
9.75,1.35,87
9.75,1.5,110
9.9,-1.5,220
9.9,-1.35,220
9.9,-1.2,191
9.9,-1.05,140
9.9,-0.9,140
9.9,-0.75,140
9.9,-0.6,132
9.9,-0.45,81
9.9,-0.3,117
9.9,-0.15,123
9.9,0.0,58
9.9,0.15,59
9.9,0.3,104
9.9,0.45,104
9.9,0.6,105
9.9,0.75,107
9.9,0.9,152
9.9,1.05,153
9.9,1.2,153
9.9,1.35,153
9.9,1.5,153
10.05,-1.5,171
10.05,-1.35,170
10.05,-1.2,140
10.05,-1.05,140
10.05,-0.9,140
10.05,-0.75,183
10.05,-0.6,255
10.05,-0.45,175
10.05,-0.3,203
10.05,-0.15,66
10.05,0.0,60
10.05,0.15,58
10.05,0.3,96
10.05,0.45,98
10.05,0.6,153
10.05,0.75,153
10.05,0.9,153
10.05,1.05,153
10.05,1.2,153
10.05,1.35,153
10.05,1.5,153
10.2,-1.5,161
10.2,-1.35,160
10.2,-1.2,147
10.2,-1.05,146
10.2,-0.9,175
10.2,-0.75,181
10.2,-0.6,152
10.2,-0.45,196
10.2,-0.3,203
10.2,-0.15,117
10.2,0.0,159
10.2,0.15,106
10.2,0.3,95
10.2,0.45,140
10.2,0.6,137
10.2,0.75,145
10.2,0.9,152
10.2,1.05,153
10.2,1.2,153
10.2,1.35,154
10.2,1.5,202
10.35,-1.5,134
10.35,-1.35,133
10.35,-1.2,135
10.35,-1.05,132
10.35,-0.9,144
10.35,-0.75,109
10.35,-0.6,124
10.35,-0.45,146
10.35,-0.3,219
10.35,-0.15,195
10.35,0.0,146
10.35,0.15,148
10.35,0.3,133
10.35,0.45,95
10.35,0.6,139
10.35,0.75,141
10.35,0.9,196
10.35,1.05,197
10.35,1.2,199
10.35,1.35,205
10.35,1.5,206
10.5,-1.5,92
10.5,-1.35,76
10.5,-1.2,75
10.5,-1.05,53
10.5,-0.9,74
10.5,-0.75,74
10.5,-0.6,80
10.5,-0.45,95
10.5,-0.3,139
10.5,-0.15,138
10.5,0.0,115
10.5,0.15,146
10.5,0.3,140
10.5,0.45,182
10.5,0.6,145
10.5,0.75,183
10.5,0.9,185
10.5,1.05,187
10.5,1.2,189
10.5,1.35,189
10.5,1.5,195
10.65,-1.5,77
10.65,-1.35,76
10.65,-1.2,76
10.65,-1.05,76
10.65,-0.9,68
10.65,-0.75,68
10.65,-0.6,74
10.65,-0.45,117
10.65,-0.3,103
10.65,-0.15,102
10.65,0.0,145
10.65,0.15,159
10.65,0.3,177
10.65,0.45,180
10.65,0.6,182
10.65,0.75,172
10.65,0.9,172
10.65,1.05,187
10.65,1.2,189
10.65,1.35,215
10.65,1.5,216
10.8,-1.5,75
10.8,-1.35,75
10.8,-1.2,75
10.8,-1.05,76
10.8,-0.9,76
10.8,-0.75,81
10.8,-0.6,81
10.8,-0.45,52
10.8,-0.3,80
10.8,-0.15,94
10.8,0.0,137
10.8,0.15,156
10.8,0.3,187
10.8,0.45,208
10.8,0.6,251
10.8,0.75,218
10.8,0.9,221
10.8,1.05,215
10.8,1.2,216
10.8,1.35,235
10.8,1.5,236
10.95,-1.5,75
10.95,-1.35,75
10.95,-1.2,82
10.95,-1.05,75
10.95,-0.9,68
10.95,-0.75,67
10.95,-0.6,66
10.95,-0.45,37
10.95,-0.3,37
10.95,-0.15,28
10.95,0.0,73
10.95,0.15,125
10.95,0.3,203
10.95,0.45,207
10.95,0.6,230
10.95,0.75,255
10.95,0.9,216
10.95,1.05,218
10.95,1.2,220
10.95,1.35,212
10.95,1.5,231
11.1,-1.5,99
11.1,-1.35,100
11.1,-1.2,101
11.1,-1.05,113
11.1,-0.9,112
11.1,-0.75,88
11.1,-0.6,82
11.1,-0.45,81
11.1,-0.3,37
11.1,-0.15,37
11.1,0.0,38
11.1,0.15,158
11.1,0.3,166
11.1,0.45,163
11.1,0.6,163
11.1,0.75,166
11.1,0.9,169
11.1,1.05,195
11.1,1.2,218
11.1,1.35,212
11.1,1.5,212
11.25,-1.5,99
11.25,-1.35,96
11.25,-1.2,96
11.25,-1.05,105
11.25,-0.9,111
11.25,-0.75,111
11.25,-0.6,110
11.25,-0.45,110
11.25,-0.3,71
11.25,-0.15,73
11.25,0.0,78
11.25,0.15,125
11.25,0.3,162
11.25,0.45,193
11.25,0.6,198
11.25,0.75,191
11.25,0.9,187
11.25,1.05,188
11.25,1.2,189
11.25,1.35,189
11.25,1.5,189
11.4,-1.5,99
11.4,-1.35,100
11.4,-1.2,102
11.4,-1.05,78
11.4,-0.9,79
11.4,-0.75,81
11.4,-0.6,81
11.4,-0.45,73
11.4,-0.3,79
11.4,-0.15,95
11.4,0.0,141
11.4,0.15,145
11.4,0.3,147
11.4,0.45,151
11.4,0.6,187
11.4,0.75,190
11.4,0.9,191
11.4,1.05,188
11.4,1.2,189
11.4,1.35,189
11.4,1.5,176
11.55,-1.5,98
11.55,-1.35,99
11.55,-1.2,69
11.55,-1.05,70
11.55,-0.9,72
11.55,-0.75,81
11.55,-0.6,89
11.55,-0.45,88
11.55,-0.3,73
11.55,-0.15,103
11.55,0.0,135
11.55,0.15,146
11.55,0.3,150
11.55,0.45,154
11.55,0.6,152
11.55,0.75,148
11.55,0.9,189
11.55,1.05,191
11.55,1.2,179
11.55,1.35,177
11.55,1.5,176
11.7,-1.5,98
11.7,-1.35,98
11.7,-1.2,99
11.7,-1.05,100
11.7,-0.9,101
11.7,-0.75,79
11.7,-0.6,81
11.7,-0.45,81
11.7,-0.3,73
11.7,-0.15,110
11.7,0.0,135
11.7,0.15,107
11.7,0.3,147
11.7,0.45,152
11.7,0.6,154
11.7,0.75,148
11.7,0.9,151
11.7,1.05,189
11.7,1.2,174
11.7,1.35,173
11.7,1.5,171
11.85,-1.5,111
11.85,-1.35,112
11.85,-1.2,112
11.85,-1.05,106
11.85,-0.9,106
11.85,-0.75,106
11.85,-0.6,44
11.85,-0.45,37
11.85,-0.3,37
11.85,-0.15,61
11.85,0.0,77
11.85,0.15,101
11.85,0.3,144
11.85,0.45,149
11.85,0.6,153
11.85,0.75,147
11.85,0.9,143
11.85,1.05,134
11.85,1.2,133
11.85,1.35,166
11.85,1.5,165
12.0,-1.5,49
12.0,-1.35,80
12.0,-1.2,80
12.0,-1.05,80
12.0,-0.9,53
12.0,-0.75,53
12.0,-0.6,53
12.0,-0.45,44
12.0,-0.3,45
12.0,-0.15,47
12.0,0.0,84
12.0,0.15,86
12.0,0.3,109
12.0,0.45,139
12.0,0.6,138
12.0,0.75,142
12.0,0.9,134
12.0,1.05,134
12.0,1.2,133
12.0,1.35,126
12.0,1.5,124
12.15,-1.5,75
12.15,-1.35,76
12.15,-1.2,62
12.15,-1.05,62
12.15,-0.9,54
12.15,-0.75,54
12.15,-0.6,82
12.15,-0.45,82
12.15,-0.3,89
12.15,-0.15,74
12.15,0.0,67
12.15,0.15,106
12.15,0.3,99
12.15,0.45,101
12.15,0.6,172
12.15,0.75,136
12.15,0.9,128
12.15,1.05,127
12.15,1.2,126
12.15,1.35,125
12.15,1.5,121
12.3,-1.5,69
12.3,-1.35,69
12.3,-1.2,70
12.3,-1.05,102
12.3,-0.9,104
12.3,-0.75,104
12.3,-0.6,103
12.3,-0.45,102
12.3,-0.3,72
12.3,-0.15,73
12.3,0.0,59
12.3,0.15,58
12.3,0.3,98
12.3,0.45,101
12.3,0.6,102
12.3,0.75,95
12.3,0.9,150
12.3,1.05,149
12.3,1.2,121
12.3,1.35,121
12.3,1.5,121
12.45,-1.5,90
12.45,-1.35,93
12.45,-1.2,95
12.45,-1.05,97
12.45,-0.9,102
12.45,-0.75,104
12.45,-0.6,104
12.45,-0.45,102
12.45,-0.3,73
12.45,-0.15,44
12.45,0.0,53
12.45,0.15,50
12.45,0.3,50
12.45,0.45,96
12.45,0.6,97
12.45,0.75,85
12.45,0.9,84
12.45,1.05,123
12.45,1.2,123
12.45,1.35,122
12.45,1.5,114
12.6,-1.5,121
12.6,-1.35,124
12.6,-1.2,127
12.6,-1.05,130
12.6,-0.9,140
12.6,-0.75,140
12.6,-0.6,141
12.6,-0.45,110
12.6,-0.3,109
12.6,-0.15,93
12.6,0.0,63
12.6,0.15,60
12.6,0.3,47
12.6,0.45,47
12.6,0.6,38
12.6,0.75,57
12.6,0.9,58
12.6,1.05,59
12.6,1.2,59
12.6,1.35,98
12.6,1.5,99
12.75,-1.5,94
12.75,-1.35,96
12.75,-1.2,98
12.75,-1.05,101
12.75,-0.9,134
12.75,-0.75,133
12.75,-0.6,111
12.75,-0.45,103
12.75,-0.3,95
12.75,-0.15,86
12.75,0.0,90
12.75,0.15,80
12.75,0.3,52
12.75,0.45,49
12.75,0.6,35
12.75,0.75,34
12.75,0.9,33
12.75,1.05,53
12.75,1.2,54
12.75,1.35,54
12.75,1.5,55
12.9,-1.5,94
12.9,-1.35,96
12.9,-1.2,100
12.9,-1.05,101
12.9,-0.9,102
12.9,-0.75,134
12.9,-0.6,104
12.9,-0.45,103
12.9,-0.3,87
12.9,-0.15,85
12.9,0.0,83
12.9,0.15,80
12.9,0.3,77
12.9,0.45,50
12.9,0.6,45
12.9,0.75,42
12.9,0.9,30
12.9,1.05,30
12.9,1.2,49
12.9,1.35,50
12.9,1.5,51
13.05,-1.5,94
13.05,-1.35,99
13.05,-1.2,100
13.05,-1.05,100
13.05,-0.9,101
13.05,-0.75,105
13.05,-0.6,104
13.05,-0.45,89
13.05,-0.3,87
13.05,-0.15,85
13.05,0.0,83
13.05,0.15,81
13.05,0.3,78
13.05,0.45,76
13.05,0.6,46
13.05,0.75,43
13.05,0.9,41
13.05,1.05,39
13.05,1.2,28
13.05,1.35,47
13.05,1.5,48
