-3.0,-1.5,123
-3.0,-1.35,122
-3.0,-1.2,122
-3.0,-1.05,121
-3.0,-0.9,121
-3.0,-0.75,120
-3.0,-0.6,120
-3.0,-0.45,120
-3.0,-0.3,119
-3.0,-0.15,119
-3.0,0.0,118
-3.0,0.15,118
-3.0,0.3,117
-3.0,0.45,117
-3.0,0.6,116
-3.0,0.75,116
-3.0,0.9,115
-3.0,1.05,152
-3.0,1.2,152
-3.0,1.35,152
-3.0,1.5,152
-2.85,-1.5,123
-2.85,-1.35,122
-2.85,-1.2,122
-2.85,-1.05,121
-2.85,-0.9,121
-2.85,-0.75,120
-2.85,-0.6,120
-2.85,-0.45,120
-2.85,-0.3,119
-2.85,-0.15,119
-2.85,0.0,118
-2.85,0.15,118
-2.85,0.3,117
-2.85,0.45,117
-2.85,0.6,116
-2.85,0.75,116
-2.85,0.9,153
-2.85,1.05,152
-2.85,1.2,152
-2.85,1.35,152
-2.85,1.5,152
-2.7,-1.5,123
-2.7,-1.35,122
-2.7,-1.2,122
-2.7,-1.05,121
-2.7,-0.9,121
-2.7,-0.75,120
-2.7,-0.6,120
-2.7,-0.45,119
-2.7,-0.3,119
-2.7,-0.15,119
-2.7,0.0,118
-2.7,0.15,118
-2.7,0.3,117
-2.7,0.45,117
-2.7,0.6,116
-2.7,0.75,154
-2.7,0.9,153
-2.7,1.05,152
-2.7,1.2,152
-2.7,1.35,152
-2.7,1.5,152
-2.55,-1.5,123
-2.55,-1.35,123
-2.55,-1.2,155
-2.55,-1.05,155
-2.55,-0.9,121
-2.55,-0.75,120
-2.55,-0.6,120
-2.55,-0.45,119
-2.55,-0.3,119
-2.55,-0.15,119
-2.55,0.0,118
-2.55,0.15,118
-2.55,0.3,117
-2.55,0.45,117
-2.55,0.6,154
-2.55,0.75,154
-2.55,0.9,153
-2.55,1.05,152
-2.55,1.2,152
-2.55,1.35,152
-2.55,1.5,177
-2.4,-1.5,123
-2.4,-1.35,123
-2.4,-1.2,123
-2.4,-1.05,155
-2.4,-0.9,155
-2.4,-0.75,155
-2.4,-0.6,156
-2.4,-0.45,119
-2.4,-0.3,119
-2.4,-0.15,119
-2.4,0.0,118
-2.4,0.15,118
-2.4,0.3,156
-2.4,0.45,155
-2.4,0.6,154
-2.4,0.75,154
-2.4,0.9,153
-2.4,1.05,152
-2.4,1.2,152
-2.4,1.35,152
-2.4,1.5,178
-2.25,-1.5,123
-2.25,-1.35,123
-2.25,-1.2,123
-2.25,-1.05,155
-2.25,-0.9,155
-2.25,-0.75,155
-2.25,-0.6,156
-2.25,-0.45,156
-2.25,-0.3,156
-2.25,-0.15,118
-2.25,0.0,118
-2.25,0.15,157
-2.25,0.3,156
-2.25,0.45,155
-2.25,0.6,155
-2.25,0.75,154
-2.25,0.9,153
-2.25,1.05,152
-2.25,1.2,152
-2.25,1.35,179
-2.25,1.5,178
-2.1,-1.5,123
-2.1,-1.35,123
-2.1,-1.2,123
-2.1,-1.05,123
-2.1,-0.9,155
-2.1,-0.75,156
-2.1,-0.6,156
-2.1,-0.45,156
-2.1,-0.3,156
-2.1,-0.15,156
-2.1,0.0,156
-2.1,0.15,157
-2.1,0.3,156
-2.1,0.45,155
-2.1,0.6,155
-2.1,0.75,154
-2.1,0.9,153
-2.1,1.05,152
-2.1,1.2,152
-2.1,1.35,180
-2.1,1.5,179
-1.95,-1.5,123
-1.95,-1.35,123
-1.95,-1.2,123
-1.95,-1.05,123
-1.95,-0.9,123
-1.95,-0.75,156
-1.95,-0.6,156
-1.95,-0.45,156
-1.95,-0.3,156
-1.95,-0.15,156
-1.95,0.0,195
-1.95,0.15,195
-1.95,0.3,156
-1.95,0.45,156
-1.95,0.6,155
-1.95,0.75,154
-1.95,0.9,153
-1.95,1.05,152
-1.95,1.2,181
-1.95,1.35,171
-1.95,1.5,171
-1.8,-1.5,123
-1.8,-1.35,123
-1.8,-1.2,123
-1.8,-1.05,123
-1.8,-0.9,123
-1.8,-0.75,123
-1.8,-0.6,156
-1.8,-0.45,156
-1.8,-0.3,160
-1.8,-0.15,160
-1.8,0.0,195
-1.8,0.15,195
-1.8,0.3,195
-1.8,0.45,195
-1.8,0.6,195
-1.8,0.75,154
-1.8,0.9,153
-1.8,1.05,152
-1.8,1.2,172
-1.8,1.35,172
-1.8,1.5,171
-1.65,-1.5,123
-1.65,-1.35,123
-1.65,-1.2,123
-1.65,-1.05,123
-1.65,-0.9,123
-1.65,-0.75,123
-1.65,-0.6,160
-1.65,-0.45,160
-1.65,-0.3,159
-1.65,-0.15,159
-1.65,0.0,159
-1.65,0.15,195
-1.65,0.3,195
-1.65,0.45,195
-1.65,0.6,195
-1.65,0.75,196
-1.65,0.9,196
-1.65,1.05,195
-1.65,1.2,153
-1.65,1.35,153
-1.65,1.5,153
-1.5,-1.5,123
-1.5,-1.35,123
-1.5,-1.2,123
-1.5,-1.05,123
-1.5,-0.9,123
-1.5,-0.75,160
-1.5,-0.6,159
-1.5,-0.45,159
-1.5,-0.3,159
-1.5,-0.15,158
-1.5,0.0,158
-1.5,0.15,195
-1.5,0.3,195
-1.5,0.45,195
-1.5,0.6,195
-1.5,0.75,176
-1.5,0.9,176
-1.5,1.05,176
-1.5,1.2,154
-1.5,1.35,154
-1.5,1.5,154
-1.35,-1.5,123
-1.35,-1.35,123
-1.35,-1.2,123
-1.35,-1.05,131
-1.35,-0.9,131
-1.35,-0.75,131
-1.35,-0.6,159
-1.35,-0.45,158
-1.35,-0.3,158
-1.35,-0.15,157
-1.35,0.0,157
-1.35,0.15,195
-1.35,0.3,195
-1.35,0.45,175
-1.35,0.6,176
-1.35,0.75,176
-1.35,0.9,176
-1.35,1.05,195
-1.35,1.2,195
-1.35,1.35,196
-1.35,1.5,196
-1.2,-1.5,123
-1.2,-1.35,123
-1.2,-1.2,131
-1.2,-1.05,131
-1.2,-0.9,130
-1.2,-0.75,129
-1.2,-0.6,129
-1.2,-0.45,157
-1.2,-0.3,157
-1.2,-0.15,137
-1.2,0.0,137
-1.2,0.15,137
-1.2,0.3,137
-1.2,0.45,177
-1.2,0.6,177
-1.2,0.75,196
-1.2,0.9,196
-1.2,1.05,196
-1.2,1.2,197
-1.2,1.35,197
-1.2,1.5,197
-1.05,-1.5,123
-1.05,-1.35,158
-1.05,-1.2,158
-1.05,-1.05,158
-1.05,-0.9,157
-1.05,-0.75,108
-1.05,-0.6,108
-1.05,-0.45,108
-1.05,-0.3,108
-1.05,-0.15,137
-1.05,0.0,138
-1.05,0.15,176
-1.05,0.3,176
-1.05,0.45,196
-1.05,0.6,196
-1.05,0.75,186
-1.05,0.9,187
-1.05,1.05,187
-1.05,1.2,188
-1.05,1.35,187
-1.05,1.5,130
-0.9,-1.5,158
-0.9,-1.35,195
-0.9,-1.2,195
-0.9,-1.05,174
-0.9,-0.9,174
-0.9,-0.75,174
-0.9,-0.6,175
-0.9,-0.45,175
-0.9,-0.3,175
-0.9,-0.15,176
-0.9,0.0,177
-0.9,0.15,177
-0.9,0.3,196
-0.9,0.45,196
-0.9,0.6,186
-0.9,0.75,187
-0.9,0.9,187
-0.9,1.05,187
-0.9,1.2,187
-0.9,1.35,131
-0.9,1.5,131
-0.75,-1.5,173
-0.75,-1.35,174
-0.75,-1.2,174
-0.75,-1.05,174
-0.75,-0.9,175
-0.75,-0.75,175
-0.75,-0.6,175
-0.75,-0.45,175
-0.75,-0.3,176
-0.75,-0.15,176
-0.75,0.0,176
-0.75,0.15,195
-0.75,0.3,196
-0.75,0.45,186
-0.75,0.6,187
-0.75,0.75,187
-0.75,0.9,187
-0.75,1.05,187
-0.75,1.2,187
-0.75,1.35,187
-0.75,1.5,187
-0.6,-1.5,145
-0.6,-1.35,145
-0.6,-1.2,174
-0.6,-1.05,175
-0.6,-0.9,175
-0.6,-0.75,175
-0.6,-0.6,175
-0.6,-0.45,166
-0.6,-0.3,166
-0.6,-0.15,166
-0.6,0.0,185
-0.6,0.15,186
-0.6,0.3,137
-0.6,0.45,138
-0.6,0.6,138
-0.6,0.75,139
-0.6,0.9,140
-0.6,1.05,141
-0.6,1.2,159
-0.6,1.35,149
-0.6,1.5,150
-0.45,-1.5,158
-0.45,-1.35,117
-0.45,-1.2,175
-0.45,-1.05,175
-0.45,-0.9,165
-0.45,-0.75,165
-0.45,-0.6,165
-0.45,-0.45,166
-0.45,-0.3,166
-0.45,-0.15,185
-0.45,0.0,185
-0.45,0.15,136
-0.45,0.3,147
-0.45,0.45,147
-0.45,0.6,148
-0.45,0.75,138
-0.45,0.9,139
-0.45,1.05,159
-0.45,1.2,149
-0.45,1.35,150
-0.45,1.5,150
-0.3,-1.5,167
-0.3,-1.35,167
-0.3,-1.2,167
-0.3,-1.05,137
-0.3,-0.9,143
-0.3,-0.75,145
-0.3,-0.6,145
-0.3,-0.45,146
-0.3,-0.3,126
-0.3,-0.15,155
-0.3,0.0,156
-0.3,0.15,156
-0.3,0.3,157
-0.3,0.45,157
-0.3,0.6,158
-0.3,0.75,159
-0.3,0.9,159
-0.3,1.05,160
-0.3,1.2,159
-0.3,1.35,160
-0.3,1.5,160
-0.15,-1.5,137
-0.15,-1.35,137
-0.15,-1.2,127
-0.15,-1.05,127
-0.15,-0.9,146
-0.15,-0.75,146
-0.15,-0.6,146
-0.15,-0.45,136
-0.15,-0.3,136
-0.15,-0.15,127
-0.15,0.0,155
-0.15,0.15,156
-0.15,0.3,177
-0.15,0.45,177
-0.15,0.6,178
-0.15,0.75,178
-0.15,0.9,159
-0.15,1.05,159
-0.15,1.2,169
-0.15,1.35,170
-0.15,1.5,170
0.0,-1.5,125
0.0,-1.35,155
0.0,-1.2,155
0.0,-1.05,155
0.0,-0.9,117
0.0,-0.75,146
0.0,-0.6,146
0.0,-0.45,146
0.0,-0.3,146
0.0,-0.15,137
0.0,0.0,137
0.0,0.15,176
0.0,0.3,176
0.0,0.45,177
0.0,0.6,177
0.0,0.75,178
0.0,0.9,178
0.0,1.05,179
0.0,1.2,179
0.0,1.35,180
0.0,1.5,170
0.15,-1.5,117
0.15,-1.35,117
0.15,-1.2,126
0.15,-1.05,126
0.15,-0.9,155
0.15,-0.75,155
0.15,-0.6,108
0.15,-0.45,108
0.15,-0.3,108
0.15,-0.15,108
0.15,0.0,118
0.15,0.15,147
0.15,0.3,148
0.15,0.45,177
0.15,0.6,177
0.15,0.75,178
0.15,0.9,178
0.15,1.05,179
0.15,1.2,179
0.15,1.35,170
0.15,1.5,171
0.3,-1.5,117
0.3,-1.35,117
0.3,-1.2,117
0.3,-1.05,117
0.3,-0.9,117
0.3,-0.75,156
0.3,-0.6,156
0.3,-0.45,147
0.3,-0.3,137
0.3,-0.15,118
0.3,0.0,117
0.3,0.15,118
0.3,0.3,118
0.3,0.45,147
0.3,0.6,176
0.3,0.75,177
0.3,0.9,177
0.3,1.05,168
0.3,1.2,168
0.3,1.35,169
0.3,1.5,169
0.45,-1.5,127
0.45,-1.35,127
0.45,-1.2,127
0.45,-1.05,117
0.45,-0.9,117
0.45,-0.75,117
0.45,-0.6,117
0.45,-0.45,117
0.45,-0.3,117
0.45,-0.15,117
0.45,0.0,117
0.45,0.15,117
0.45,0.3,117
0.45,0.45,118
0.45,0.6,108
0.45,0.75,138
0.45,0.9,138
0.45,1.05,167
0.45,1.2,168
0.45,1.35,168
0.45,1.5,168
0.6,-1.5,127
0.6,-1.35,127
0.6,-1.2,127
0.6,-1.05,127
0.6,-0.9,127
0.6,-0.75,127
0.6,-0.6,127
0.6,-0.45,118
0.6,-0.3,118
0.6,-0.15,137
0.6,0.0,127
0.6,0.15,117
0.6,0.3,78
0.6,0.45,68
0.6,0.6,98
0.6,0.75,98
0.6,0.9,100
0.6,1.05,128
0.6,1.2,129
0.6,1.35,129
0.6,1.5,129
0.75,-1.5,117
0.75,-1.35,117
0.75,-1.2,127
0.75,-1.05,127
0.75,-0.9,127
0.75,-0.75,127
0.75,-0.6,127
0.75,-0.45,127
0.75,-0.3,118
0.75,-0.15,118
0.75,0.0,127
0.75,0.15,118
0.75,0.3,108
0.75,0.45,68
0.75,0.6,68
0.75,0.75,68
0.75,0.9,97
0.75,1.05,99
0.75,1.2,99
0.75,1.35,90
0.75,1.5,90
0.9,-1.5,117
0.9,-1.35,117
0.9,-1.2,127
0.9,-1.05,127
0.9,-0.9,127
0.9,-0.75,127
0.9,-0.6,127
0.9,-0.45,127
0.9,-0.3,118
0.9,-0.15,118
0.9,0.0,108
0.9,0.15,118
0.9,0.3,108
0.9,0.45,78
0.9,0.6,97
0.9,0.75,97
0.9,0.9,97
0.9,1.05,58
0.9,1.2,48
0.9,1.35,10
0.9,1.5,10
1.05,-1.5,126
1.05,-1.35,127
1.05,-1.2,127
1.05,-1.05,127
1.05,-0.9,127
1.05,-0.75,127
1.05,-0.6,127
1.05,-0.45,118
1.05,-0.3,118
1.05,-0.15,118
1.05,0.0,108
1.05,0.15,108
1.05,0.3,78
1.05,0.45,108
1.05,0.6,107
1.05,0.75,97
1.05,0.9,59
1.05,1.05,59
1.05,1.2,49
1.05,1.35,49
1.05,1.5,29
1.2,-1.5,108
1.2,-1.35,108
1.2,-1.2,117
1.2,-1.05,117
1.2,-0.9,117
1.2,-0.75,117
1.2,-0.6,118
1.2,-0.45,118
1.2,-0.3,108
1.2,-0.15,108
1.2,0.0,98
1.2,0.15,127
1.2,0.3,137
1.2,0.45,108
1.2,0.6,98
1.2,0.75,59
1.2,0.9,88
1.2,1.05,68
1.2,1.2,68
1.2,1.35,68
1.2,1.5,58
1.35,-1.5,97
1.35,-1.35,107
1.35,-1.2,107
1.35,-1.05,108
1.35,-0.9,117
1.35,-0.75,117
1.35,-0.6,117
1.35,-0.45,118
1.35,-0.3,108
1.35,-0.15,108
1.35,0.0,88
1.35,0.15,127
1.35,0.3,88
1.35,0.45,98
1.35,0.6,108
1.35,0.75,68
1.35,0.9,59
1.35,1.05,58
1.35,1.2,58
1.35,1.35,58
1.35,1.5,58
1.5,-1.5,97
1.5,-1.35,97
1.5,-1.2,107
1.5,-1.05,107
1.5,-0.9,107
1.5,-0.75,108
1.5,-0.6,127
1.5,-0.45,127
1.5,-0.3,127
1.5,-0.15,118
1.5,0.0,147
1.5,0.15,98
1.5,0.3,98
1.5,0.45,98
1.5,0.6,59
1.5,0.75,49
1.5,0.9,49
1.5,1.05,59
1.5,1.2,59
1.5,1.35,88
1.5,1.5,126
1.65,-1.5,68
1.65,-1.35,68
1.65,-1.2,69
1.65,-1.05,69
1.65,-0.9,69
1.65,-0.75,69
1.65,-0.6,79
1.65,-0.45,79
1.65,-0.3,59
1.65,-0.15,59
1.65,0.0,79
1.65,0.15,108
1.65,0.3,78
1.65,0.45,49
1.65,0.6,49
1.65,0.75,49
1.65,0.9,78
1.65,1.05,107
1.65,1.2,107
1.65,1.35,107
1.65,1.5,107
1.8,-1.5,59
1.8,-1.35,59
1.8,-1.2,59
1.8,-1.05,59
1.8,-0.9,20
1.8,-0.75,39
1.8,-0.6,49
1.8,-0.45,49
1.8,-0.3,49
1.8,-0.15,49
1.8,0.0,59
1.8,0.15,79
1.8,0.3,98
1.8,0.45,69
1.8,0.6,40
1.8,0.75,127
1.8,0.9,117
1.8,1.05,117
1.8,1.2,117
1.8,1.35,97
1.8,1.5,97
1.95,-1.5,59
1.95,-1.35,59
1.95,-1.2,59
1.95,-1.05,20
1.95,-0.9,20
1.95,-0.75,29
1.95,-0.6,29
1.95,-0.45,39
1.95,-0.3,39
1.95,-0.15,49
1.95,0.0,39
1.95,0.15,39
1.95,0.3,59
1.95,0.45,59
1.95,0.6,88
1.95,0.75,88
1.95,0.9,88
1.95,1.05,88
1.95,1.2,98
1.95,1.35,98
1.95,1.5,97
2.1,-1.5,88
2.1,-1.35,88
2.1,-1.2,88
2.1,-1.05,59
2.1,-0.9,59
2.1,-0.75,59
2.1,-0.6,20
2.1,-0.45,39
2.1,-0.3,49
2.1,-0.15,49
2.1,0.0,39
2.1,0.15,20
2.1,0.3,39
2.1,0.45,88
2.1,0.6,108
2.1,0.75,88
2.1,0.9,59
2.1,1.05,59
2.1,1.2,59
2.1,1.35,59
2.1,1.5,59
2.25,-1.5,79
2.25,-1.35,79
2.25,-1.2,79
2.25,-1.05,79
2.25,-0.9,88
2.25,-0.75,59
2.25,-0.6,59
2.25,-0.45,59
2.25,-0.3,69
2.25,-0.15,39
2.25,0.0,39
2.25,0.15,30
2.25,0.3,39
2.25,0.45,78
2.25,0.6,118
2.25,0.75,108
2.25,0.9,108
2.25,1.05,69
2.25,1.2,69
2.25,1.35,69
2.25,1.5,68
2.4,-1.5,89
2.4,-1.35,89
2.4,-1.2,79
2.4,-1.05,79
2.4,-0.9,79
2.4,-0.75,69
2.4,-0.6,88
2.4,-0.45,49
2.4,-0.3,49
2.4,-0.15,88
2.4,0.0,39
2.4,0.15,98
2.4,0.3,98
2.4,0.45,118
2.4,0.6,118
2.4,0.75,78
2.4,0.9,78
2.4,1.05,78
2.4,1.2,78
2.4,1.35,78
2.4,1.5,78
2.55,-1.5,89
2.55,-1.35,89
2.55,-1.2,79
2.55,-1.05,79
2.55,-0.9,69
2.55,-0.75,79
2.55,-0.6,79
2.55,-0.45,79
2.55,-0.3,49
2.55,-0.15,98
2.55,0.0,88
2.55,0.15,137
2.55,0.3,127
2.55,0.45,98
2.55,0.6,88
2.55,0.75,88
2.55,0.9,88
2.55,1.05,88
2.55,1.2,88
2.55,1.35,68
2.55,1.5,68
2.7,-1.5,118
2.7,-1.35,118
2.7,-1.2,118
2.7,-1.05,118
2.7,-0.9,118
2.7,-0.75,79
2.7,-0.6,79
2.7,-0.45,88
2.7,-0.3,88
2.7,-0.15,108
2.7,0.0,69
2.7,0.15,127
2.7,0.3,118
2.7,0.45,98
2.7,0.6,98
2.7,0.75,98
2.7,0.9,88
2.7,1.05,88
2.7,1.2,97
2.7,1.35,39
2.7,1.5,39
2.85,-1.5,127
2.85,-1.35,127
2.85,-1.2,127
2.85,-1.05,137
2.85,-0.9,108
2.85,-0.75,108
2.85,-0.6,127
2.85,-0.45,118
2.85,-0.3,118
2.85,-0.15,108
2.85,0.0,88
2.85,0.15,39
2.85,0.3,39
2.85,0.45,127
2.85,0.6,127
2.85,0.75,137
2.85,0.9,166
2.85,1.05,166
2.85,1.2,126
2.85,1.35,87
2.85,1.5,87
3.0,-1.5,88
3.0,-1.35,88
3.0,-1.2,88
3.0,-1.05,88
3.0,-0.9,88
3.0,-0.75,88
3.0,-0.6,88
3.0,-0.45,88
3.0,-0.3,88
3.0,-0.15,108
3.0,0.0,69
3.0,0.15,0
3.0,0.3,118
3.0,0.45,167
3.0,0.6,166
3.0,0.75,186
3.0,0.9,146
3.0,1.05,136
3.0,1.2,165
3.0,1.35,164
3.0,1.5,164
3.15,-1.5,39
3.15,-1.35,39
3.15,-1.2,78
3.15,-1.05,78
3.15,-0.9,88
3.15,-0.75,88
3.15,-0.6,88
3.15,-0.45,88
3.15,-0.3,88
3.15,-0.15,69
3.15,0.0,49
3.15,0.15,30
3.15,0.3,88
3.15,0.45,206
3.15,0.6,206
3.15,0.75,186
3.15,0.9,166
3.15,1.05,165
3.15,1.2,165
3.15,1.35,164
3.15,1.5,107
3.3,-1.5,108
3.3,-1.35,108
3.3,-1.2,108
3.3,-1.05,49
3.3,-0.9,49
3.3,-0.75,49
3.3,-0.6,20
3.3,-0.45,30
3.3,-0.3,30
3.3,-0.15,39
3.3,0.0,127
3.3,0.15,88
3.3,0.3,59
3.3,0.45,147
3.3,0.6,176
3.3,0.75,156
3.3,0.9,127
3.3,1.05,127
3.3,1.2,87
3.3,1.35,87
3.3,1.5,87
3.45,-1.5,128
3.45,-1.35,128
3.45,-1.2,128
3.45,-1.05,79
3.45,-0.9,79
3.45,-0.75,78
3.45,-0.6,79
3.45,-0.45,30
3.45,-0.3,49
3.45,-0.15,69
3.45,0.0,147
3.45,0.15,157
3.45,0.3,108
3.45,0.45,147
3.45,0.6,127
3.45,0.75,108
3.45,0.9,107
3.45,1.05,107
3.45,1.2,97
3.45,1.35,97
3.45,1.5,97
3.6,-1.5,98
3.6,-1.35,98
3.6,-1.2,98
3.6,-1.05,98
3.6,-0.9,98
3.6,-0.75,98
3.6,-0.6,79
3.6,-0.45,108
3.6,-0.3,78
3.6,-0.15,147
3.6,0.0,186
3.6,0.15,176
3.6,0.3,176
3.6,0.45,176
3.6,0.6,205
3.6,0.75,117
3.6,0.9,78
3.6,1.05,78
3.6,1.2,78
3.6,1.35,106
3.6,1.5,96
3.75,-1.5,107
3.75,-1.35,108
3.75,-1.2,108
3.75,-1.05,108
3.75,-0.9,108
3.75,-0.75,108
3.75,-0.6,108
3.75,-0.45,127
3.75,-0.3,118
3.75,-0.15,176
3.75,0.0,255
3.75,0.15,196
3.75,0.3,98
3.75,0.45,98
3.75,0.6,147
3.75,0.75,108
3.75,0.9,107
3.75,1.05,136
3.75,1.2,116
3.75,1.35,116
3.75,1.5,77
3.9,-1.5,117
3.9,-1.35,117
3.9,-1.2,117
3.9,-1.05,117
3.9,-0.9,117
3.9,-0.75,118
3.9,-0.6,118
3.9,-0.45,108
3.9,-0.3,157
3.9,-0.15,137
3.9,0.0,147
3.9,0.15,157
3.9,0.3,137
3.9,0.45,215
3.9,0.6,176
3.9,0.75,108
3.9,0.9,127
3.9,1.05,127
3.9,1.2,88
3.9,1.35,77
3.9,1.5,77
4.05,-1.5,98
4.05,-1.35,98
4.05,-1.2,98
4.05,-1.05,98
4.05,-0.9,98
4.05,-0.75,108
4.05,-0.6,108
4.05,-0.45,108
4.05,-0.3,88
4.05,-0.15,147
4.05,0.0,98
4.05,0.15,98
4.05,0.3,176
4.05,0.45,186
4.05,0.6,157
4.05,0.75,157
4.05,0.9,156
4.05,1.05,117
4.05,1.2,97
4.05,1.35,106
4.05,1.5,106
4.2,-1.5,107
4.2,-1.35,107
4.2,-1.2,107
4.2,-1.05,108
4.2,-0.9,108
4.2,-0.75,59
4.2,-0.6,59
4.2,-0.45,49
4.2,-0.3,88
4.2,-0.15,49
4.2,0.0,59
4.2,0.15,78
4.2,0.3,157
4.2,0.45,147
4.2,0.6,88
4.2,0.75,127
4.2,0.9,88
4.2,1.05,49
4.2,1.2,59
4.2,1.35,48
4.2,1.5,29
4.35,-1.5,108
4.35,-1.35,108
4.35,-1.2,108
4.35,-1.05,108
4.35,-0.9,108
4.35,-0.75,69
4.35,-0.6,69
4.35,-0.45,69
4.35,-0.3,49
4.35,-0.15,78
4.35,0.0,98
4.35,0.15,186
4.35,0.3,245
4.35,0.45,127
4.35,0.6,78
4.35,0.75,40
4.35,0.9,98
4.35,1.05,78
4.35,1.2,78
4.35,1.35,78
4.35,1.5,97
4.5,-1.5,118
4.5,-1.35,118
4.5,-1.2,118
4.5,-1.05,128
4.5,-0.9,89
4.5,-0.75,79
4.5,-0.6,79
4.5,-0.45,88
4.5,-0.3,108
4.5,-0.15,167
4.5,0.0,98
4.5,0.15,196
4.5,0.3,186
4.5,0.45,127
4.5,0.6,186
4.5,0.75,137
4.5,0.9,156
4.5,1.05,156
4.5,1.2,137
4.5,1.35,136
4.5,1.5,136
4.65,-1.5,108
4.65,-1.35,108
4.65,-1.2,108
4.65,-1.05,108
4.65,-0.9,108
4.65,-0.75,118
4.65,-0.6,108
4.65,-0.45,79
4.65,-0.3,88
4.65,-0.15,59
4.65,0.0,78
4.65,0.15,118
4.65,0.3,147
4.65,0.45,255
4.65,0.6,206
4.65,0.75,225
4.65,0.9,127
4.65,1.05,137
4.65,1.2,146
4.65,1.35,107
4.65,1.5,107
4.8,-1.5,118
4.8,-1.35,118
4.8,-1.2,118
4.8,-1.05,118
4.8,-0.9,118
4.8,-0.75,118
4.8,-0.6,137
4.8,-0.45,137
4.8,-0.3,118
4.8,-0.15,59
4.8,0.0,98
4.8,0.15,88
4.8,0.3,147
4.8,0.45,108
4.8,0.6,196
4.8,0.75,157
4.8,0.9,117
4.8,1.05,137
4.8,1.2,117
4.8,1.35,117
4.8,1.5,126
4.95,-1.5,98
4.95,-1.35,98
4.95,-1.2,98
4.95,-1.05,98
4.95,-0.9,89
4.95,-0.75,89
4.95,-0.6,127
4.95,-0.45,108
4.95,-0.3,69
4.95,-0.15,59
4.95,0.0,137
4.95,0.15,88
4.95,0.3,147
4.95,0.45,78
4.95,0.6,59
4.95,0.75,108
4.95,0.9,108
4.95,1.05,107
4.95,1.2,107
4.95,1.35,107
4.95,1.5,117
5.1,-1.5,148
5.1,-1.35,148
5.1,-1.2,88
5.1,-1.05,69
5.1,-0.9,69
5.1,-0.75,69
5.1,-0.6,69
5.1,-0.45,39
5.1,-0.3,49
5.1,-0.15,186
5.1,0.0,118
5.1,0.15,59
5.1,0.3,20
5.1,0.45,157
5.1,0.6,176
5.1,0.75,137
5.1,0.9,98
5.1,1.05,97
5.1,1.2,146
5.1,1.35,146
5.1,1.5,145
5.25,-1.5,118
5.25,-1.35,118
5.25,-1.2,138
5.25,-1.05,138
5.25,-0.9,147
5.25,-0.75,147
5.25,-0.6,88
5.25,-0.45,59
5.25,-0.3,108
5.25,-0.15,176
5.25,0.0,78
5.25,0.15,108
5.25,0.3,79
5.25,0.45,176
5.25,0.6,127
5.25,0.75,117
5.25,0.9,98
5.25,1.05,98
5.25,1.2,97
5.25,1.35,97
5.25,1.5,97
5.4,-1.5,98
5.4,-1.35,98
5.4,-1.2,98
5.4,-1.05,147
5.4,-0.9,147
5.4,-0.75,118
5.4,-0.6,98
5.4,-0.45,118
5.4,-0.3,118
5.4,-0.15,206
5.4,0.0,69
5.4,0.15,78
5.4,0.3,147
5.4,0.45,127
5.4,0.6,127
5.4,0.75,98
5.4,0.9,98
5.4,1.05,98
5.4,1.2,78
5.4,1.35,68
5.4,1.5,68
5.55,-1.5,59
5.55,-1.35,69
5.55,-1.2,59
5.55,-1.05,59
5.55,-0.9,59
5.55,-0.75,69
5.55,-0.6,69
5.55,-0.45,118
5.55,-0.3,88
5.55,-0.15,59
5.55,0.0,118
5.55,0.15,10
5.55,0.3,157
5.55,0.45,78
5.55,0.6,30
5.55,0.75,88
5.55,0.9,88
5.55,1.05,59
5.55,1.2,78
5.55,1.35,98
5.55,1.5,97
5.7,-1.5,98
5.7,-1.35,59
5.7,-1.2,59
5.7,-1.05,59
5.7,-0.9,59
5.7,-0.75,69
5.7,-0.6,69
5.7,-0.45,79
5.7,-0.3,39
5.7,-0.15,137
5.7,0.0,78
5.7,0.15,88
5.7,0.3,88
5.7,0.45,108
5.7,0.6,176
5.7,0.75,176
5.7,0.9,176
5.7,1.05,186
5.7,1.2,186
5.7,1.35,185
5.7,1.5,146
5.85,-1.5,89
5.85,-1.35,88
5.85,-1.2,89
5.85,-1.05,98
5.85,-0.9,98
5.85,-0.75,98
5.85,-0.6,79
5.85,-0.45,88
5.85,-0.3,127
5.85,-0.15,176
5.85,0.0,157
5.85,0.15,88
5.85,0.3,69
5.85,0.45,176
5.85,0.6,225
5.85,0.75,196
5.85,0.9,166
5.85,1.05,176
5.85,1.2,185
5.85,1.35,185
5.85,1.5,156
6.0,-1.5,88
6.0,-1.35,98
6.0,-1.2,98
6.0,-1.05,98
6.0,-0.9,98
6.0,-0.75,108
6.0,-0.6,118
6.0,-0.45,118
6.0,-0.3,78
6.0,-0.15,78
6.0,0.0,0
6.0,0.15,88
6.0,0.3,0
6.0,0.45,147
6.0,0.6,176
6.0,0.75,147
6.0,0.9,147
6.0,1.05,156
6.0,1.2,108
6.0,1.35,108
6.0,1.5,107
6.15,-1.5,88
6.15,-1.35,88
6.15,-1.2,39
6.15,-1.05,39
6.15,-0.9,78
6.15,-0.75,78
6.15,-0.6,78
6.15,-0.45,78
6.15,-0.3,108
6.15,-0.15,49
6.15,0.0,69
6.15,0.15,59
6.15,0.3,78
6.15,0.45,49
6.15,0.6,108
6.15,0.75,59
6.15,0.9,69
6.15,1.05,69
6.15,1.2,78
6.15,1.35,78
6.15,1.5,78
6.3,-1.5,30
6.3,-1.35,30
6.3,-1.2,30
6.3,-1.05,30
6.3,-0.9,39
6.3,-0.75,39
6.3,-0.6,69
6.3,-0.45,88
6.3,-0.3,176
6.3,-0.15,176
6.3,0.0,137
6.3,0.15,167
6.3,0.3,147
6.3,0.45,69
6.3,0.6,20
6.3,0.75,30
6.3,0.9,69
6.3,1.05,59
6.3,1.2,59
6.3,1.35,88
6.3,1.5,88
6.45,-1.5,39
6.45,-1.35,30
6.45,-1.2,30
6.45,-1.05,30
6.45,-0.9,29
6.45,-0.75,59
6.45,-0.6,59
6.45,-0.45,39
6.45,-0.3,78
6.45,-0.15,147
6.45,0.0,30
6.45,0.15,98
6.45,0.3,127
6.45,0.45,0
6.45,0.6,10
6.45,0.75,20
6.45,0.9,30
6.45,1.05,40
6.45,1.2,40
6.45,1.35,79
6.45,1.5,78
6.6,-1.5,88
6.6,-1.35,88
6.6,-1.2,88
6.6,-1.05,88
6.6,-0.9,49
6.6,-0.75,20
6.6,-0.6,29
6.6,-0.45,10
6.6,-0.3,69
6.6,-0.15,88
6.6,0.0,157
6.6,0.15,98
6.6,0.3,59
6.6,0.45,30
6.6,0.6,59
6.6,0.75,88
6.6,0.9,78
6.6,1.05,78
6.6,1.2,49
6.6,1.35,49
6.6,1.5,49
6.75,-1.5,108
6.75,-1.35,108
6.75,-1.2,108
6.75,-1.05,88
6.75,-0.9,88
6.75,-0.75,69
6.75,-0.6,69
6.75,-0.45,20
6.75,-0.3,0
6.75,-0.15,10
6.75,0.0,39
6.75,0.15,59
6.75,0.3,20
6.75,0.45,108
6.75,0.6,78
6.75,0.75,88
6.75,0.9,49
6.75,1.05,69
6.75,1.2,78
6.75,1.35,107
6.75,1.5,68
6.9,-1.5,176
6.9,-1.35,176
6.9,-1.2,166
6.9,-1.05,166
6.9,-0.9,166
6.9,-0.75,147
6.9,-0.6,147
6.9,-0.45,127
6.9,-0.3,59
6.9,-0.15,20
6.9,0.0,39
6.9,0.15,49
6.9,0.3,78
6.9,0.45,118
6.9,0.6,88
6.9,0.75,127
6.9,0.9,118
6.9,1.05,88
6.9,1.2,78
6.9,1.35,78
6.9,1.5,78
7.05,-1.5,166
7.05,-1.35,166
7.05,-1.2,166
7.05,-1.05,166
7.05,-0.9,176
7.05,-0.75,157
7.05,-0.6,157
7.05,-0.45,176
7.05,-0.3,147
7.05,-0.15,39
7.05,0.0,137
7.05,0.15,147
7.05,0.3,20
7.05,0.45,0
7.05,0.6,30
7.05,0.75,59
7.05,0.9,59
7.05,1.05,59
7.05,1.2,59
7.05,1.35,98
7.05,1.5,107
7.2,-1.5,98
7.2,-1.35,98
7.2,-1.2,147
7.2,-1.05,147
7.2,-0.9,176
7.2,-0.75,176
7.2,-0.6,206
7.2,-0.45,206
7.2,-0.3,167
7.2,-0.15,88
7.2,0.0,59
7.2,0.15,49
7.2,0.3,20
7.2,0.45,49
7.2,0.6,49
7.2,0.75,49
7.2,0.9,59
7.2,1.05,98
7.2,1.2,98
7.2,1.35,98
7.2,1.5,98
7.35,-1.5,98
7.35,-1.35,98
7.35,-1.2,98
7.35,-1.05,98
7.35,-0.9,166
7.35,-0.75,167
7.35,-0.6,167
7.35,-0.45,157
7.35,-0.3,98
7.35,-0.15,59
7.35,0.0,10
7.35,0.15,137
7.35,0.3,78
7.35,0.45,20
7.35,0.6,39
7.35,0.75,10
7.35,0.9,49
7.35,1.05,69
7.35,1.2,69
7.35,1.35,69
7.35,1.5,69
7.5,-1.5,79
7.5,-1.35,79
7.5,-1.2,79
7.5,-1.05,79
7.5,-0.9,40
7.5,-0.75,40
7.5,-0.6,39
7.5,-0.45,69
7.5,-0.3,39
7.5,-0.15,88
7.5,0.0,30
7.5,0.15,98
7.5,0.3,30
7.5,0.45,69
7.5,0.6,78
7.5,0.75,69
7.5,0.9,69
7.5,1.05,69
7.5,1.2,69
7.5,1.35,69
7.5,1.5,69
7.65,-1.5,69
7.65,-1.35,69
7.65,-1.2,68
7.65,-1.05,20
7.65,-0.9,20
7.65,-0.75,20
7.65,-0.6,0
7.65,-0.45,0
7.65,-0.3,20
7.65,-0.15,147
7.65,0.0,78
7.65,0.15,0
7.65,0.3,59
7.65,0.45,98
7.65,0.6,108
7.65,0.75,118
7.65,0.9,69
7.65,1.05,78
7.65,1.2,78
7.65,1.35,78
7.65,1.5,39
7.8,-1.5,20
7.8,-1.35,20
7.8,-1.2,59
7.8,-1.05,59
7.8,-0.9,20
7.8,-0.75,30
7.8,-0.6,30
7.8,-0.45,20
7.8,-0.3,59
7.8,-0.15,59
7.8,0.0,127
7.8,0.15,10
7.8,0.3,59
7.8,0.45,59
7.8,0.6,108
7.8,0.75,78
7.8,0.9,78
7.8,1.05,78
7.8,1.2,88
7.8,1.35,88
7.8,1.5,88
7.95,-1.5,20
7.95,-1.35,59
7.95,-1.2,78
7.95,-1.05,78
7.95,-0.9,88
7.95,-0.75,127
7.95,-0.6,118
7.95,-0.45,118
7.95,-0.3,108
7.95,-0.15,108
7.95,0.0,0
7.95,0.15,78
7.95,0.3,88
7.95,0.45,59
7.95,0.6,78
7.95,0.75,39
7.95,0.9,59
7.95,1.05,49
7.95,1.2,49
7.95,1.35,49
7.95,1.5,49
8.1,-1.5,20
8.1,-1.35,20
8.1,-1.2,107
8.1,-1.05,98
8.1,-0.9,98
8.1,-0.75,98
8.1,-0.6,108
8.1,-0.45,108
8.1,-0.3,39
8.1,-0.15,108
8.1,0.0,78
8.1,0.15,137
8.1,0.3,49
8.1,0.45,69
8.1,0.6,69
8.1,0.75,10
8.1,0.9,10
8.1,1.05,29
8.1,1.2,29
8.1,1.35,20
8.1,1.5,20
8.25,-1.5,78
8.25,-1.35,78
8.25,-1.2,78
8.25,-1.05,69
8.25,-0.9,69
8.25,-0.75,69
8.25,-0.6,69
8.25,-0.45,88
8.25,-0.3,20
8.25,-0.15,127
8.25,0.0,0
8.25,0.15,69
8.25,0.3,0
8.25,0.45,59
8.25,0.6,59
8.25,0.75,59
8.25,0.9,10
8.25,1.05,10
8.25,1.2,0
8.25,1.35,0
8.25,1.5,0
8.4,-1.5,107
8.4,-1.35,98
8.4,-1.2,98
8.4,-1.05,98
8.4,-0.9,98
8.4,-0.75,98
8.4,-0.6,98
8.4,-0.45,98
8.4,-0.3,88
8.4,-0.15,98
8.4,0.0,78
8.4,0.15,30
8.4,0.3,0
8.4,0.45,0
8.4,0.6,98
8.4,0.75,10
8.4,0.9,10
8.4,1.05,0
8.4,1.2,0
8.4,1.35,0
8.4,1.5,0
8.55,-1.5,136
8.55,-1.35,136
8.55,-1.2,137
8.55,-1.05,137
8.55,-0.9,98
8.55,-0.75,98
8.55,-0.6,108
8.55,-0.45,88
8.55,-0.3,98
8.55,-0.15,59
8.55,0.0,10
8.55,0.15,39
8.55,0.3,69
8.55,0.45,147
8.55,0.6,49
8.55,0.75,20
8.55,0.9,10
8.55,1.05,20
8.55,1.2,10
8.55,1.35,0
8.55,1.5,0
8.7,-1.5,127
8.7,-1.35,127
8.7,-1.2,107
8.7,-1.05,107
8.7,-0.9,108
8.7,-0.75,108
8.7,-0.6,108
8.7,-0.45,98
8.7,-0.3,69
8.7,-0.15,0
8.7,0.0,49
8.7,0.15,98
8.7,0.3,78
8.7,0.45,118
8.7,0.6,59
8.7,0.75,10
8.7,0.9,10
8.7,1.05,0
8.7,1.2,29
8.7,1.35,20
8.7,1.5,20
8.85,-1.5,98
8.85,-1.35,98
8.85,-1.2,98
8.85,-1.05,68
8.85,-0.9,98
8.85,-0.75,69
8.85,-0.6,69
8.85,-0.45,69
8.85,-0.3,20
8.85,-0.15,10
8.85,0.0,59
8.85,0.15,49
8.85,0.3,10
8.85,0.45,59
8.85,0.6,69
8.85,0.75,39
8.85,0.9,30
8.85,1.05,20
8.85,1.2,20
8.85,1.35,20
8.85,1.5,20
9.0,-1.5,88
9.0,-1.35,88
9.0,-1.2,88
9.0,-1.05,108
9.0,-0.9,118
9.0,-0.75,69
9.0,-0.6,147
9.0,-0.45,98
9.0,-0.3,147
9.0,-0.15,39
9.0,0.0,69
9.0,0.15,59
9.0,0.3,49
9.0,0.45,10
9.0,0.6,69
9.0,0.75,49
9.0,0.9,49
9.0,1.05,39
9.0,1.2,39
9.0,1.35,39
9.0,1.5,20
9.15,-1.5,108
9.15,-1.35,108
9.15,-1.2,108
9.15,-1.05,108
9.15,-0.9,108
9.15,-0.75,69
9.15,-0.6,117
9.15,-0.45,166
9.15,-0.3,118
9.15,-0.15,30
9.15,0.0,147
9.15,0.15,215
9.15,0.3,118
9.15,0.45,69
9.15,0.6,98
9.15,0.75,39
9.15,0.9,39
9.15,1.05,49
9.15,1.2,49
9.15,1.35,49
9.15,1.5,49
9.3,-1.5,79
9.3,-1.35,79
9.3,-1.2,79
9.3,-1.05,79
9.3,-0.9,79
9.3,-0.75,88
9.3,-0.6,59
9.3,-0.45,30
9.3,-0.3,69
9.3,-0.15,78
9.3,0.0,147
9.3,0.15,215
9.3,0.3,245
9.3,0.45,108
9.3,0.6,118
9.3,0.75,88
9.3,0.9,118
9.3,1.05,127
9.3,1.2,127
9.3,1.35,117
9.3,1.5,117
9.45,-1.5,79
9.45,-1.35,79
9.45,-1.2,137
9.45,-1.05,88
9.45,-0.9,88
9.45,-0.75,59
9.45,-0.6,69
9.45,-0.45,39
9.45,-0.3,98
9.45,-0.15,118
9.45,0.0,167
9.45,0.15,147
9.45,0.3,108
9.45,0.45,69
9.45,0.6,147
9.45,0.75,127
9.45,0.9,88
9.45,1.05,78
9.45,1.2,108
9.45,1.35,117
9.45,1.5,127
9.6,-1.5,166
9.6,-1.35,166
9.6,-1.2,137
9.6,-1.05,137
9.6,-0.9,137
9.6,-0.75,137
9.6,-0.6,137
9.6,-0.45,78
9.6,-0.3,108
9.6,-0.15,118
9.6,0.0,98
9.6,0.15,88
9.6,0.3,88
9.6,0.45,30
9.6,0.6,98
9.6,0.75,108
9.6,0.9,88
9.6,1.05,88
9.6,1.2,88
9.6,1.35,78
9.6,1.5,78
9.75,-1.5,195
9.75,-1.35,195
9.75,-1.2,195
9.75,-1.05,166
9.75,-0.9,176
9.75,-0.75,176
9.75,-0.6,215
9.75,-0.45,196
9.75,-0.3,235
9.75,-0.15,196
9.75,0.0,98
9.75,0.15,108
9.75,0.3,39
9.75,0.45,69
9.75,0.6,137
9.75,0.75,108
9.75,0.9,108
9.75,1.05,108
9.75,1.2,88
9.75,1.35,98
9.75,1.5,78
9.9,-1.5,196
9.9,-1.35,205
9.9,-1.2,205
9.9,-1.05,205
9.9,-0.9,215
9.9,-0.75,215
9.9,-0.6,215
9.9,-0.45,215
9.9,-0.3,225
9.9,-0.15,176
9.9,0.0,108
9.9,0.15,98
9.9,0.3,78
9.9,0.45,108
9.9,0.6,118
9.9,0.75,166
9.9,0.9,118
9.9,1.05,118
9.9,1.2,117
9.9,1.35,117
9.9,1.5,107
10.05,-1.5,205
10.05,-1.35,205
10.05,-1.2,244
10.05,-1.05,244
10.05,-0.9,254
10.05,-0.75,255
10.05,-0.6,255
10.05,-0.45,225
10.05,-0.3,225
10.05,-0.15,118
10.05,0.0,69
10.05,0.15,59
10.05,0.3,69
10.05,0.45,88
10.05,0.6,108
10.05,0.75,108
10.05,0.9,69
10.05,1.05,69
10.05,1.2,69
10.05,1.35,79
10.05,1.5,137
10.2,-1.5,215
10.2,-1.35,215
10.2,-1.2,255
10.2,-1.05,244
10.2,-0.9,215
10.2,-0.75,157
10.2,-0.6,196
10.2,-0.45,157
10.2,-0.3,118
10.2,-0.15,30
10.2,0.0,30
10.2,0.15,20
10.2,0.3,30
10.2,0.45,0
10.2,0.6,69
10.2,0.75,30
10.2,0.9,69
10.2,1.05,79
10.2,1.2,79
10.2,1.35,59
10.2,1.5,59
10.35,-1.5,244
10.35,-1.35,215
10.35,-1.2,167
10.35,-1.05,167
10.35,-0.9,128
10.35,-0.75,128
10.35,-0.6,128
10.35,-0.45,127
10.35,-0.3,88
10.35,-0.15,69
10.35,0.0,20
10.35,0.15,30
10.35,0.3,59
10.35,0.45,39
10.35,0.6,20
10.35,0.75,59
10.35,0.9,69
10.35,1.05,69
10.35,1.2,69
10.35,1.35,69
10.35,1.5,69
10.5,-1.5,147
10.5,-1.35,186
10.5,-1.2,186
10.5,-1.05,186
10.5,-0.9,158
10.5,-0.75,108
10.5,-0.6,118
10.5,-0.45,98
10.5,-0.3,118
10.5,-0.15,98
10.5,0.0,98
10.5,0.15,137
10.5,0.3,108
10.5,0.45,118
10.5,0.6,137
10.5,0.75,108
10.5,0.9,108
10.5,1.05,118
10.5,1.2,157
10.5,1.35,108
10.5,1.5,108
10.65,-1.5,186
10.65,-1.35,186
10.65,-1.2,186
10.65,-1.05,186
10.65,-0.9,186
10.65,-0.75,157
10.65,-0.6,196
10.65,-0.45,216
10.65,-0.3,98
10.65,-0.15,118
10.65,0.0,108
10.65,0.15,147
10.65,0.3,166
10.65,0.45,157
10.65,0.6,147
10.65,0.75,98
10.65,0.9,108
10.65,1.05,147
10.65,1.2,147
10.65,1.35,99
10.65,1.5,99
10.8,-1.5,166
10.8,-1.35,176
10.8,-1.2,176
10.8,-1.05,176
10.8,-0.9,215
10.8,-0.75,186
10.8,-0.6,147
10.8,-0.45,235
10.8,-0.3,245
10.8,-0.15,186
10.8,0.0,206
10.8,0.15,176
10.8,0.3,255
10.8,0.45,215
10.8,0.6,255
10.8,0.75,196
10.8,0.9,148
10.8,1.05,147
10.8,1.2,147
10.8,1.35,156
10.8,1.5,137
10.95,-1.5,146
10.95,-1.35,185
10.95,-1.2,186
10.95,-1.05,196
10.95,-0.9,196
10.95,-0.75,167
10.95,-0.6,167
10.95,-0.45,206
10.95,-0.3,255
10.95,-0.15,255
10.95,0.0,225
10.95,0.15,206
10.95,0.3,245
10.95,0.45,206
10.95,0.6,215
10.95,0.75,206
10.95,0.9,215
10.95,1.05,167
10.95,1.2,186
10.95,1.35,128
10.95,1.5,118
11.1,-1.5,185
11.1,-1.35,137
11.1,-1.2,147
11.1,-1.05,147
11.1,-0.9,156
11.1,-0.75,166
11.1,-0.6,157
11.1,-0.45,167
11.1,-0.3,255
11.1,-0.15,167
11.1,0.0,186
11.1,0.15,255
11.1,0.3,235
11.1,0.45,206
11.1,0.6,186
11.1,0.75,147
11.1,0.9,235
11.1,1.05,235
11.1,1.2,216
11.1,1.35,196
11.1,1.5,196
11.25,-1.5,118
11.25,-1.35,118
11.25,-1.2,118
11.25,-1.05,69
11.25,-0.9,69
11.25,-0.75,69
11.25,-0.6,117
11.25,-0.45,98
11.25,-0.3,108
11.25,-0.15,118
11.25,0.0,147
11.25,0.15,255
11.25,0.3,245
11.25,0.45,245
11.25,0.6,225
11.25,0.75,215
11.25,0.9,215
11.25,1.05,215
11.25,1.2,196
11.25,1.35,196
11.25,1.5,196
11.4,-1.5,118
11.4,-1.35,118
11.4,-1.2,118
11.4,-1.05,59
11.4,-0.9,59
11.4,-0.75,20
11.4,-0.6,20
11.4,-0.45,59
11.4,-0.3,108
11.4,-0.15,88
11.4,0.0,78
11.4,0.15,167
11.4,0.3,176
11.4,0.45,167
11.4,0.6,166
11.4,0.75,206
11.4,0.9,167
11.4,1.05,128
11.4,1.2,128
11.4,1.35,128
11.4,1.5,128
11.55,-1.5,59
11.55,-1.35,59
11.55,-1.2,59
11.55,-1.05,59
11.55,-0.9,59
11.55,-0.75,69
11.55,-0.6,69
11.55,-0.45,39
11.55,-0.3,69
11.55,-0.15,78
11.55,0.0,118
11.55,0.15,167
11.55,0.3,176
11.55,0.45,196
11.55,0.6,167
11.55,0.75,127
11.55,0.9,88
11.55,1.05,88
11.55,1.2,128
11.55,1.35,118
11.55,1.5,118
11.7,-1.5,59
11.7,-1.35,59
11.7,-1.2,59
11.7,-1.05,30
11.7,-0.9,49
11.7,-0.75,49
11.7,-0.6,49
11.7,-0.45,59
11.7,-0.3,59
11.7,-0.15,69
11.7,0.0,59
11.7,0.15,147
11.7,0.3,166
11.7,0.45,206
11.7,0.6,147
11.7,0.75,79
11.7,0.9,88
11.7,1.05,88
11.7,1.2,88
11.7,1.35,79
11.7,1.5,138
11.85,-1.5,30
11.85,-1.35,30
11.85,-1.2,30
11.85,-1.05,30
11.85,-0.9,49
11.85,-0.75,59
11.85,-0.6,59
11.85,-0.45,98
11.85,-0.3,108
11.85,-0.15,118
11.85,0.0,88
11.85,0.15,98
11.85,0.3,127
11.85,0.45,118
11.85,0.6,98
11.85,0.75,69
11.85,0.9,69
11.85,1.05,128
11.85,1.2,128
11.85,1.35,128
11.85,1.5,128
12.0,-1.5,29
12.0,-1.35,29
12.0,-1.2,30
12.0,-1.05,40
12.0,-0.9,40
12.0,-0.75,49
12.0,-0.6,88
12.0,-0.45,98
12.0,-0.3,176
12.0,-0.15,176
12.0,0.0,215
12.0,0.15,127
12.0,0.3,49
12.0,0.45,39
12.0,0.6,117
12.0,0.75,98
12.0,0.9,98
12.0,1.05,118
12.0,1.2,118
12.0,1.35,118
12.0,1.5,118
12.15,-1.5,29
12.15,-1.35,29
12.15,-1.2,30
12.15,-1.05,30
12.15,-0.9,40
12.15,-0.75,49
12.15,-0.6,49
12.15,-0.45,98
12.15,-0.3,166
12.15,-0.15,167
12.15,0.0,255
12.15,0.15,157
12.15,0.3,39
12.15,0.45,0
12.15,0.6,49
12.15,0.75,49
12.15,0.9,50
12.15,1.05,50
12.15,1.2,50
12.15,1.35,88
12.15,1.5,108
12.3,-1.5,39
12.3,-1.35,39
12.3,-1.2,39
12.3,-1.05,50
12.3,-0.9,49
12.3,-0.75,49
12.3,-0.6,49
12.3,-0.45,78
12.3,-0.3,147
12.3,-0.15,186
12.3,0.0,176
12.3,0.15,108
12.3,0.3,79
12.3,0.45,59
12.3,0.6,49
12.3,0.75,49
12.3,0.9,10
12.3,1.05,50
12.3,1.2,89
12.3,1.35,89
12.3,1.5,89
12.45,-1.5,97
12.45,-1.35,107
12.45,-1.2,107
12.45,-1.05,107
12.45,-0.9,59
12.45,-0.75,59
12.45,-0.6,59
12.45,-0.45,20
12.45,-0.3,59
12.45,-0.15,137
12.45,0.0,78
12.45,0.15,108
12.45,0.3,79
12.45,0.45,0
12.45,0.6,20
12.45,0.75,10
12.45,0.9,50
12.45,1.05,50
12.45,1.2,50
12.45,1.35,50
12.45,1.5,50
12.6,-1.5,145
12.6,-1.35,87
12.6,-1.2,87
12.6,-1.05,97
12.6,-0.9,98
12.6,-0.75,98
12.6,-0.6,98
12.6,-0.45,98
12.6,-0.3,98
12.6,-0.15,137
12.6,0.0,108
12.6,0.15,118
12.6,0.3,39
12.6,0.45,39
12.6,0.6,49
12.6,0.75,88
12.6,0.9,60
12.6,1.05,59
12.6,1.2,59
12.6,1.35,59
12.6,1.5,60
12.75,-1.5,106
12.75,-1.35,106
12.75,-1.2,97
12.75,-1.05,97
12.75,-0.9,97
12.75,-0.75,108
12.75,-0.6,108
12.75,-0.45,108
12.75,-0.3,127
12.75,-0.15,117
12.75,0.0,88
12.75,0.15,69
12.75,0.3,10
12.75,0.45,10
12.75,0.6,40
12.75,0.75,98
12.75,0.9,98
12.75,1.05,98
12.75,1.2,59
12.75,1.35,60
12.75,1.5,60
12.9,-1.5,97
12.9,-1.35,97
12.9,-1.2,107
12.9,-1.05,107
12.9,-0.9,107
12.9,-0.75,127
12.9,-0.6,127
12.9,-0.45,127
12.9,-0.3,127
12.9,-0.15,117
12.9,0.0,59
12.9,0.15,39
12.9,0.3,30
12.9,0.45,49
12.9,0.6,40
12.9,0.75,98
12.9,0.9,98
12.9,1.05,98
12.9,1.2,98
12.9,1.35,98
12.9,1.5,98
13.05,-1.5,106
13.05,-1.35,106
13.05,-1.2,107
13.05,-1.05,107
13.05,-0.9,107
13.05,-0.75,127
13.05,-0.6,127
13.05,-0.45,127
13.05,-0.3,127
13.05,-0.15,117
13.05,0.0,59
13.05,0.15,39
13.05,0.3,79
13.05,0.45,50
13.05,0.6,40
13.05,0.75,98
13.05,0.9,98
13.05,1.05,98
13.05,1.2,98
13.05,1.35,98
13.05,1.5,98
