-3.0,-1.5,203
-3.0,-1.35,203
-3.0,-1.2,203
-3.0,-1.05,203
-3.0,-0.9,203
-3.0,-0.75,203
-3.0,-0.6,184
-3.0,-0.45,184
-3.0,-0.3,170
-3.0,-0.15,168
-3.0,0.0,167
-3.0,0.15,165
-3.0,0.3,144
-3.0,0.45,177
-3.0,0.6,154
-3.0,0.75,152
-3.0,0.9,150
-3.0,1.05,147
-3.0,1.2,121
-3.0,1.35,118
-3.0,1.5,117
-2.85,-1.5,204
-2.85,-1.35,205
-2.85,-1.2,205
-2.85,-1.05,205
-2.85,-0.9,204
-2.85,-0.75,204
-2.85,-0.6,185
-2.85,-0.45,185
-2.85,-0.3,184
-2.85,-0.15,170
-2.85,0.0,169
-2.85,0.15,183
-2.85,0.3,180
-2.85,0.45,156
-2.85,0.6,154
-2.85,0.75,152
-2.85,0.9,150
-2.85,1.05,122
-2.85,1.2,120
-2.85,1.35,118
-2.85,1.5,116
-2.7,-1.5,206
-2.7,-1.35,206
-2.7,-1.2,206
-2.7,-1.05,206
-2.7,-0.9,206
-2.7,-0.75,206
-2.7,-0.6,185
-2.7,-0.45,185
-2.7,-0.3,185
-2.7,-0.15,185
-2.7,0.0,184
-2.7,0.15,184
-2.7,0.3,181
-2.7,0.45,157
-2.7,0.6,154
-2.7,0.75,152
-2.7,0.9,150
-2.7,1.05,122
-2.7,1.2,119
-2.7,1.35,117
-2.7,1.5,115
-2.55,-1.5,207
-2.55,-1.35,207
-2.55,-1.2,207
-2.55,-1.05,207
-2.55,-0.9,207
-2.55,-0.75,207
-2.55,-0.6,207
-2.55,-0.45,186
-2.55,-0.3,186
-2.55,-0.15,185
-2.55,0.0,201
-2.55,0.15,184
-2.55,0.3,159
-2.55,0.45,157
-2.55,0.6,155
-2.55,0.75,152
-2.55,0.9,123
-2.55,1.05,121
-2.55,1.2,119
-2.55,1.35,117
-2.55,1.5,115
-2.4,-1.5,209
-2.4,-1.35,209
-2.4,-1.2,209
-2.4,-1.05,209
-2.4,-0.9,209
-2.4,-0.75,209
-2.4,-0.6,208
-2.4,-0.45,186
-2.4,-0.3,186
-2.4,-0.15,202
-2.4,0.0,200
-2.4,0.15,198
-2.4,0.3,159
-2.4,0.45,157
-2.4,0.6,155
-2.4,0.75,152
-2.4,0.9,122
-2.4,1.05,120
-2.4,1.2,118
-2.4,1.35,116
-2.4,1.5,114
-2.25,-1.5,212
-2.25,-1.35,210
-2.25,-1.2,210
-2.25,-1.05,210
-2.25,-0.9,210
-2.25,-0.75,210
-2.25,-0.6,210
-2.25,-0.45,227
-2.25,-0.3,203
-2.25,-0.15,201
-2.25,0.0,199
-2.25,0.15,197
-2.25,0.3,195
-2.25,0.45,157
-2.25,0.6,155
-2.25,0.75,124
-2.25,0.9,122
-2.25,1.05,120
-2.25,1.2,117
-2.25,1.35,115
-2.25,1.5,113
-2.1,-1.5,212
-2.1,-1.35,212
-2.1,-1.2,212
-2.1,-1.05,212
-2.1,-0.9,212
-2.1,-0.75,211
-2.1,-0.6,228
-2.1,-0.45,227
-2.1,-0.3,202
-2.1,-0.15,200
-2.1,0.0,198
-2.1,0.15,196
-2.1,0.3,173
-2.1,0.45,163
-2.1,0.6,155
-2.1,0.75,123
-2.1,0.9,121
-2.1,1.05,119
-2.1,1.2,117
-2.1,1.35,94
-2.1,1.5,92
-1.95,-1.5,210
-1.95,-1.35,210
-1.95,-1.2,211
-1.95,-1.05,212
-1.95,-0.9,220
-1.95,-0.75,230
-1.95,-0.6,228
-1.95,-0.45,226
-1.95,-0.3,201
-1.95,-0.15,199
-1.95,0.0,197
-1.95,0.15,172
-1.95,0.3,171
-1.95,0.45,162
-1.95,0.6,160
-1.95,0.75,158
-1.95,0.9,120
-1.95,1.05,96
-1.95,1.2,95
-1.95,1.35,93
-1.95,1.5,106
-1.8,-1.5,203
-1.8,-1.35,204
-1.8,-1.2,204
-1.8,-1.05,212
-1.8,-0.9,231
-1.8,-0.75,223
-1.8,-0.6,221
-1.8,-0.45,219
-1.8,-0.3,217
-1.8,-0.15,198
-1.8,0.0,196
-1.8,0.15,171
-1.8,0.3,170
-1.8,0.45,160
-1.8,0.6,158
-1.8,0.75,134
-1.8,0.9,119
-1.8,1.05,96
-1.8,1.2,109
-1.8,1.35,107
-1.8,1.5,106
-1.65,-1.5,203
-1.65,-1.35,204
-1.65,-1.2,204
-1.65,-1.05,224
-1.65,-0.9,229
-1.65,-0.75,228
-1.65,-0.6,220
-1.65,-0.45,218
-1.65,-0.3,216
-1.65,-0.15,190
-1.65,0.0,188
-1.65,0.15,171
-1.65,0.3,169
-1.65,0.45,135
-1.65,0.6,134
-1.65,0.75,118
-1.65,0.9,117
-1.65,1.05,117
-1.65,1.2,109
-1.65,1.35,107
-1.65,1.5,106
-1.5,-1.5,203
-1.5,-1.35,203
-1.5,-1.2,224
-1.5,-1.05,222
-1.5,-0.9,221
-1.5,-0.75,219
-1.5,-0.6,218
-1.5,-0.45,220
-1.5,-0.3,190
-1.5,-0.15,189
-1.5,0.0,170
-1.5,0.15,169
-1.5,0.3,136
-1.5,0.45,134
-1.5,0.6,133
-1.5,0.75,117
-1.5,0.9,116
-1.5,1.05,115
-1.5,1.2,115
-1.5,1.35,107
-1.5,1.5,105
-1.35,-1.5,203
-1.35,-1.35,219
-1.35,-1.2,224
-1.35,-1.05,224
-1.35,-0.9,224
-1.35,-0.75,224
-1.35,-0.6,216
-1.35,-0.45,199
-1.35,-0.3,180
-1.35,-0.15,171
-1.35,0.0,170
-1.35,0.15,136
-1.35,0.3,135
-1.35,0.45,133
-1.35,0.6,132
-1.35,0.75,131
-1.35,0.9,130
-1.35,1.05,114
-1.35,1.2,114
-1.35,1.35,113
-1.35,1.5,78
-1.2,-1.5,221
-1.2,-1.35,203
-1.2,-1.2,216
-1.2,-1.05,224
-1.2,-0.9,224
-1.2,-0.75,200
-1.2,-0.6,199
-1.2,-0.45,197
-1.2,-0.3,179
-1.2,-0.15,162
-1.2,0.0,170
-1.2,0.15,135
-1.2,0.3,134
-1.2,0.45,132
-1.2,0.6,131
-1.2,0.75,130
-1.2,0.9,129
-1.2,1.05,128
-1.2,1.2,127
-1.2,1.35,112
-1.2,1.5,111
-1.05,-1.5,243
-1.05,-1.35,203
-1.05,-1.2,202
-1.05,-1.05,176
-1.05,-0.9,175
-1.05,-0.75,198
-1.05,-0.6,171
-1.05,-0.45,171
-1.05,-0.3,170
-1.05,-0.15,169
-1.05,0.0,136
-1.05,0.15,126
-1.05,0.3,108
-1.05,0.45,108
-1.05,0.6,107
-1.05,0.75,106
-1.05,0.9,105
-1.05,1.05,105
-1.05,1.2,83
-1.05,1.35,82
-1.05,1.5,82
-0.9,-1.5,242
-0.9,-1.35,242
-0.9,-1.2,241
-0.9,-1.05,201
-0.9,-0.9,199
-0.9,-0.75,174
-0.9,-0.6,145
-0.9,-0.45,169
-0.9,-0.3,145
-0.9,-0.15,136
-0.9,0.0,135
-0.9,0.15,134
-0.9,0.3,100
-0.9,0.45,107
-0.9,0.6,83
-0.9,0.75,83
-0.9,0.9,82
-0.9,1.05,82
-0.9,1.2,82
-0.9,1.35,83
-0.9,1.5,83
-0.75,-1.5,218
-0.75,-1.35,218
-0.75,-1.2,217
-0.75,-1.05,217
-0.75,-0.9,197
-0.75,-0.75,172
-0.75,-0.6,171
-0.75,-0.45,145
-0.75,-0.3,145
-0.75,-0.15,119
-0.75,0.0,101
-0.75,0.15,100
-0.75,0.3,100
-0.75,0.45,67
-0.75,0.6,67
-0.75,0.75,75
-0.75,0.9,74
-0.75,1.05,74
-0.75,1.2,74
-0.75,1.35,74
-0.75,1.5,83
-0.6,-1.5,199
-0.6,-1.35,199
-0.6,-1.2,210
-0.6,-1.05,189
-0.6,-0.9,189
-0.6,-0.75,189
-0.6,-0.6,188
-0.6,-0.45,162
-0.6,-0.3,161
-0.6,-0.15,136
-0.6,0.0,102
-0.6,0.15,101
-0.6,0.3,99
-0.6,0.45,98
-0.6,0.6,66
-0.6,0.75,66
-0.6,0.9,75
-0.6,1.05,75
-0.6,1.2,71
-0.6,1.35,70
-0.6,1.5,70
-0.45,-1.5,199
-0.45,-1.35,162
-0.45,-1.2,171
-0.45,-1.05,182
-0.45,-0.9,199
-0.45,-0.75,172
-0.45,-0.6,171
-0.45,-0.45,171
-0.45,-0.3,170
-0.45,-0.15,169
-0.45,0.0,135
-0.45,0.15,109
-0.45,0.3,76
-0.45,0.45,75
-0.45,0.6,73
-0.45,0.75,72
-0.45,0.9,31
-0.45,1.05,64
-0.45,1.2,63
-0.45,1.35,63
-0.45,1.5,38
-0.3,-1.5,195
-0.3,-1.35,170
-0.3,-1.2,147
-0.3,-1.05,147
-0.3,-0.9,179
-0.3,-0.75,173
-0.3,-0.6,172
-0.3,-0.45,171
-0.3,-0.3,170
-0.3,-0.15,169
-0.3,0.0,134
-0.3,0.15,134
-0.3,0.3,132
-0.3,0.45,74
-0.3,0.6,73
-0.3,0.75,97
-0.3,0.9,73
-0.3,1.05,73
-0.3,1.2,72
-0.3,1.35,72
-0.3,1.5,71
-0.15,-1.5,169
-0.15,-1.35,170
-0.15,-1.2,170
-0.15,-1.05,170
-0.15,-0.9,146
-0.15,-0.75,179
-0.15,-0.6,179
-0.15,-0.45,196
-0.15,-0.3,170
-0.15,-0.15,169
-0.15,0.0,143
-0.15,0.15,177
-0.15,0.3,133
-0.15,0.45,99
-0.15,0.6,98
-0.15,0.75,97
-0.15,0.9,73
-0.15,1.05,73
-0.15,1.2,73
-0.15,1.35,72
-0.15,1.5,72
0.0,-1.5,168
0.0,-1.35,169
0.0,-1.2,169
0.0,-1.05,143
0.0,-0.9,144
0.0,-0.75,144
0.0,-0.6,144
0.0,-0.45,153
0.0,-0.3,194
0.0,-0.15,194
0.0,0.0,194
0.0,0.15,184
0.0,0.3,167
0.0,0.45,99
0.0,0.6,98
0.0,0.75,74
0.0,0.9,74
0.0,1.05,73
0.0,1.2,73
0.0,1.35,72
0.0,1.5,72
0.15,-1.5,157
0.15,-1.35,135
0.15,-1.2,135
0.15,-1.05,143
0.15,-0.9,144
0.15,-0.75,144
0.15,-0.6,144
0.15,-0.45,144
0.15,-0.3,187
0.15,-0.15,186
0.15,0.0,185
0.15,0.15,184
0.15,0.3,149
0.15,0.45,116
0.15,0.6,81
0.15,0.75,81
0.15,0.9,66
0.15,1.05,73
0.15,1.2,65
0.15,1.35,63
0.15,1.5,63
0.3,-1.5,125
0.3,-1.35,126
0.3,-1.2,126
0.3,-1.05,136
0.3,-0.9,136
0.3,-0.75,136
0.3,-0.6,136
0.3,-0.45,136
0.3,-0.3,178
0.3,-0.15,187
0.3,0.0,178
0.3,0.15,143
0.3,0.3,142
0.3,0.45,116
0.3,0.6,115
0.3,0.75,81
0.3,0.9,49
0.3,1.05,48
0.3,1.2,48
0.3,1.35,47
0.3,1.5,47
0.45,-1.5,118
0.45,-1.35,118
0.45,-1.2,127
0.45,-1.05,127
0.45,-0.9,128
0.45,-0.75,127
0.45,-0.6,168
0.45,-0.45,169
0.45,-0.3,178
0.45,-0.15,170
0.45,0.0,177
0.45,0.15,142
0.45,0.3,141
0.45,0.45,116
0.45,0.6,83
0.45,0.75,82
0.45,0.9,81
0.45,1.05,48
0.45,1.2,48
0.45,1.35,47
0.45,1.5,47
0.6,-1.5,115
0.6,-1.35,116
0.6,-1.2,116
0.6,-1.05,125
0.6,-0.9,125
0.6,-0.75,126
0.6,-0.6,158
0.6,-0.45,168
0.6,-0.3,160
0.6,-0.15,169
0.6,0.0,110
0.6,0.15,117
0.6,0.3,84
0.6,0.45,83
0.6,0.6,82
0.6,0.75,82
0.6,0.9,81
0.6,1.05,80
0.6,1.2,50
0.6,1.35,50
0.6,1.5,47
0.75,-1.5,98
0.75,-1.35,90
0.75,-1.2,91
0.75,-1.05,91
0.75,-0.9,92
0.75,-0.75,100
0.75,-0.6,102
0.75,-0.45,109
0.75,-0.3,110
0.75,-0.15,110
0.75,0.0,110
0.75,0.15,84
0.75,0.3,84
0.75,0.45,83
0.75,0.6,82
0.75,0.75,74
0.75,0.9,50
0.75,1.05,42
0.75,1.2,42
0.75,1.35,42
0.75,1.5,42
0.9,-1.5,98
0.9,-1.35,98
0.9,-1.2,66
0.9,-1.05,92
0.9,-0.9,68
0.9,-0.75,68
0.9,-0.6,68
0.9,-0.45,76
0.9,-0.3,76
0.9,-0.15,85
0.9,0.0,76
0.9,0.15,85
0.9,0.3,76
0.9,0.45,75
0.9,0.6,43
0.9,0.75,43
0.9,0.9,42
0.9,1.05,42
0.9,1.2,42
0.9,1.35,40
0.9,1.5,41
1.05,-1.5,64
1.05,-1.35,64
1.05,-1.2,65
1.05,-1.05,66
1.05,-0.9,41
1.05,-0.75,41
1.05,-0.6,42
1.05,-0.45,42
1.05,-0.3,84
1.05,-0.15,94
1.05,0.0,85
1.05,0.15,59
1.05,0.3,51
1.05,0.45,42
1.05,0.6,42
1.05,0.75,42
1.05,0.9,41
1.05,1.05,41
1.05,1.2,41
1.05,1.35,40
1.05,1.5,40
1.2,-1.5,40
1.2,-1.35,40
1.2,-1.2,41
1.2,-1.05,40
1.2,-0.9,41
1.2,-0.75,41
1.2,-0.6,42
1.2,-0.45,42
1.2,-0.3,51
1.2,-0.15,25
1.2,0.0,68
1.2,0.15,51
1.2,0.3,42
1.2,0.45,42
1.2,0.6,42
1.2,0.75,41
1.2,0.9,41
1.2,1.05,41
1.2,1.2,40
1.2,1.35,40
1.2,1.5,40
1.35,-1.5,39
1.35,-1.35,39
1.35,-1.2,15
1.35,-1.05,15
1.35,-0.9,24
1.35,-0.75,16
1.35,-0.6,16
1.35,-0.45,25
1.35,-0.3,25
1.35,-0.15,17
1.35,0.0,33
1.35,0.15,33
1.35,0.3,33
1.35,0.45,50
1.35,0.6,7
1.35,0.75,7
1.35,0.9,40
1.35,1.05,40
1.35,1.2,39
1.35,1.35,39
1.35,1.5,38
1.5,-1.5,15
1.5,-1.35,15
1.5,-1.2,15
1.5,-1.05,15
1.5,-0.9,16
1.5,-0.75,33
1.5,-0.6,42
1.5,-0.45,50
1.5,-0.3,50
1.5,-0.15,51
1.5,0.0,42
1.5,0.15,42
1.5,0.3,41
1.5,0.45,33
1.5,0.6,23
1.5,0.75,23
1.5,0.9,7
1.5,1.05,7
1.5,1.2,7
1.5,1.35,0
1.5,1.5,0
1.65,-1.5,15
1.65,-1.35,15
1.65,-1.2,16
1.65,-1.05,33
1.65,-0.9,33
1.65,-0.75,33
1.65,-0.6,50
1.65,-0.45,50
1.65,-0.3,59
1.65,-0.15,51
1.65,0.0,42
1.65,0.15,42
1.65,0.3,33
1.65,0.45,32
1.65,0.6,32
1.65,0.75,32
1.65,0.9,6
1.65,1.05,6
1.65,1.2,6
1.65,1.35,6
1.65,1.5,0
1.8,-1.5,24
1.8,-1.35,24
1.8,-1.2,25
1.8,-1.05,24
1.8,-0.9,25
1.8,-0.75,33
1.8,-0.6,42
1.8,-0.45,59
1.8,-0.3,59
1.8,-0.15,51
1.8,0.0,51
1.8,0.15,42
1.8,0.3,33
1.8,0.45,33
1.8,0.6,32
1.8,0.75,16
1.8,0.9,15
1.8,1.05,15
1.8,1.2,6
1.8,1.35,6
1.8,1.5,6
1.95,-1.5,52
1.95,-1.35,52
1.95,-1.2,17
1.95,-1.05,25
1.95,-0.9,16
1.95,-0.75,25
1.95,-0.6,25
1.95,-0.45,42
1.95,-0.3,51
1.95,-0.15,59
1.95,0.0,42
1.95,0.15,51
1.95,0.3,42
1.95,0.45,33
1.95,0.6,16
1.95,0.75,16
1.95,0.9,15
1.95,1.05,15
1.95,1.2,56
1.95,1.35,55
1.95,1.5,6
2.1,-1.5,77
2.1,-1.35,51
2.1,-1.2,52
2.1,-1.05,17
2.1,-0.9,17
2.1,-0.75,8
2.1,-0.6,17
2.1,-0.45,25
2.1,-0.3,42
2.1,-0.15,51
2.1,0.0,59
2.1,0.15,51
2.1,0.3,42
2.1,0.45,16
2.1,0.6,16
2.1,0.75,58
2.1,0.9,57
2.1,1.05,57
2.1,1.2,48
2.1,1.35,39
2.1,1.5,38
2.25,-1.5,94
2.25,-1.35,93
2.25,-1.2,78
2.25,-1.05,52
2.25,-0.9,51
2.25,-0.75,17
2.25,-0.6,17
2.25,-0.45,17
2.25,-0.3,25
2.25,-0.15,17
2.25,0.0,34
2.25,0.15,42
2.25,0.3,67
2.25,0.45,58
2.25,0.6,58
2.25,0.75,57
2.25,0.9,66
2.25,1.05,57
2.25,1.2,40
2.25,1.35,40
2.25,1.5,39
2.4,-1.5,156
2.4,-1.35,78
2.4,-1.2,77
2.4,-1.05,76
2.4,-0.9,77
2.4,-0.75,51
2.4,-0.6,8
2.4,-0.45,8
2.4,-0.3,8
2.4,-0.15,0
2.4,0.0,59
2.4,0.15,59
2.4,0.3,59
2.4,0.45,59
2.4,0.6,58
2.4,0.75,58
2.4,0.9,58
2.4,1.05,57
2.4,1.2,57
2.4,1.35,57
2.4,1.5,56
2.55,-1.5,158
2.55,-1.35,158
2.55,-1.2,158
2.55,-1.05,158
2.55,-0.9,77
2.55,-0.75,84
2.55,-0.6,51
2.55,-0.45,34
2.55,-0.3,25
2.55,-0.15,25
2.55,0.0,59
2.55,0.15,59
2.55,0.3,59
2.55,0.45,50
2.55,0.6,50
2.55,0.75,50
2.55,0.9,58
2.55,1.05,57
2.55,1.2,57
2.55,1.35,47
2.55,1.5,47
2.7,-1.5,191
2.7,-1.35,160
2.7,-1.2,160
2.7,-1.05,160
2.7,-0.9,152
2.7,-0.75,160
2.7,-0.6,135
2.7,-0.45,93
2.7,-0.3,51
2.7,-0.15,93
2.7,0.0,102
2.7,0.15,93
2.7,0.3,101
2.7,0.45,92
2.7,0.6,91
2.7,0.75,91
2.7,0.9,90
2.7,1.05,40
2.7,1.2,40
2.7,1.35,40
2.7,1.5,38
2.85,-1.5,217
2.85,-1.35,217
2.85,-1.2,194
2.85,-1.05,194
2.85,-0.9,194
2.85,-0.75,228
2.85,-0.6,237
2.85,-0.45,203
2.85,-0.3,102
2.85,-0.15,119
2.85,0.0,136
2.85,0.15,102
2.85,0.3,93
2.85,0.45,101
2.85,0.6,100
2.85,0.75,91
2.85,0.9,81
2.85,1.05,40
2.85,1.2,47
2.85,1.35,47
2.85,1.5,54
3.0,-1.5,219
3.0,-1.35,219
3.0,-1.2,255
3.0,-1.05,255
3.0,-0.9,245
3.0,-0.75,246
3.0,-0.6,255
3.0,-0.45,204
3.0,-0.3,161
3.0,-0.15,127
3.0,0.0,110
3.0,0.15,101
3.0,0.3,135
3.0,0.45,109
3.0,0.6,99
3.0,0.75,58
3.0,0.9,65
3.0,1.05,47
3.0,1.2,55
3.0,1.35,54
3.0,1.5,81
3.15,-1.5,219
3.15,-1.35,219
3.15,-1.2,220
3.15,-1.05,255
3.15,-0.9,255
3.15,-0.75,255
3.15,-0.6,229
3.15,-0.45,187
3.15,-0.3,110
3.15,-0.15,93
3.15,0.0,93
3.15,0.15,118
3.15,0.3,59
3.15,0.45,33
3.15,0.6,25
3.15,0.75,25
3.15,0.9,66
3.15,1.05,49
3.15,1.2,49
3.15,1.35,58
3.15,1.5,54
3.3,-1.5,219
3.3,-1.35,219
3.3,-1.2,255
3.3,-1.05,255
3.3,-0.9,255
3.3,-0.75,255
3.3,-0.6,255
3.3,-0.45,247
3.3,-0.3,153
3.3,-0.15,93
3.3,0.0,85
3.3,0.15,76
3.3,0.3,76
3.3,0.45,42
3.3,0.6,33
3.3,0.75,41
3.3,0.9,67
3.3,1.05,58
3.3,1.2,58
3.3,1.35,58
3.3,1.5,59
3.45,-1.5,220
3.45,-1.35,236
3.45,-1.2,236
3.45,-1.05,237
3.45,-0.9,228
3.45,-0.75,255
3.45,-0.6,238
3.45,-0.45,221
3.45,-0.3,153
3.45,-0.15,76
3.45,0.0,59
3.45,0.15,76
3.45,0.3,67
3.45,0.45,76
3.45,0.6,84
3.45,0.75,84
3.45,0.9,84
3.45,1.05,84
3.45,1.2,76
3.45,1.35,76
3.45,1.5,67
3.6,-1.5,213
3.6,-1.35,187
3.6,-1.2,228
3.6,-1.05,203
3.6,-0.9,245
3.6,-0.75,221
3.6,-0.6,213
3.6,-0.45,195
3.6,-0.3,136
3.6,-0.15,153
3.6,0.0,127
3.6,0.15,76
3.6,0.3,76
3.6,0.45,85
3.6,0.6,85
3.6,0.75,93
3.6,0.9,93
3.6,1.05,93
3.6,1.2,93
3.6,1.35,93
3.6,1.5,93
3.75,-1.5,204
3.75,-1.35,204
3.75,-1.2,220
3.75,-1.05,244
3.75,-0.9,213
3.75,-0.75,229
3.75,-0.6,195
3.75,-0.45,144
3.75,-0.3,85
3.75,-0.15,76
3.75,0.0,93
3.75,0.15,85
3.75,0.3,93
3.75,0.45,101
3.75,0.6,101
3.75,0.75,101
3.75,0.9,101
3.75,1.05,101
3.75,1.2,101
3.75,1.35,101
3.75,1.5,101
3.9,-1.5,220
3.9,-1.35,213
3.9,-1.2,213
3.9,-1.05,212
3.9,-0.9,212
3.9,-0.75,203
3.9,-0.6,144
3.9,-0.45,204
3.9,-0.3,110
3.9,-0.15,76
3.9,0.0,93
3.9,0.15,76
3.9,0.3,153
3.9,0.45,102
3.9,0.6,102
3.9,0.75,102
3.9,0.9,102
3.9,1.05,151
3.9,1.2,150
3.9,1.35,150
3.9,1.5,150
4.05,-1.5,255
4.05,-1.35,255
4.05,-1.2,230
4.05,-1.05,229
4.05,-0.9,179
4.05,-0.75,178
4.05,-0.6,195
4.05,-0.45,195
4.05,-0.3,170
4.05,-0.15,102
4.05,0.0,153
4.05,0.15,136
4.05,0.3,195
4.05,0.45,195
4.05,0.6,186
4.05,0.75,152
4.05,0.9,152
4.05,1.05,176
4.05,1.2,176
4.05,1.35,175
4.05,1.5,167
4.2,-1.5,214
4.2,-1.35,213
4.2,-1.2,213
4.2,-1.05,213
4.2,-0.9,221
4.2,-0.75,255
4.2,-0.6,161
4.2,-0.45,119
4.2,-0.3,68
4.2,-0.15,144
4.2,0.0,153
4.2,0.15,187
4.2,0.3,179
4.2,0.45,221
4.2,0.6,221
4.2,0.75,220
4.2,0.9,211
4.2,1.05,210
4.2,1.2,168
4.2,1.35,167
4.2,1.5,167
4.35,-1.5,214
4.35,-1.35,214
4.35,-1.2,213
4.35,-1.05,221
4.35,-0.9,246
4.35,-0.75,255
4.35,-0.6,246
4.35,-0.45,110
4.35,-0.3,8
4.35,-0.15,102
4.35,0.0,127
4.35,0.15,170
4.35,0.3,170
4.35,0.45,221
4.35,0.6,211
4.35,0.75,211
4.35,0.9,210
4.35,1.05,200
4.35,1.2,200
4.35,1.35,148
4.35,1.5,148
4.5,-1.5,196
4.5,-1.35,205
4.5,-1.2,205
4.5,-1.05,222
4.5,-0.9,221
4.5,-0.75,212
4.5,-0.6,128
4.5,-0.45,68
4.5,-0.3,25
4.5,-0.15,85
4.5,0.0,76
4.5,0.15,119
4.5,0.3,111
4.5,0.45,154
4.5,0.6,180
4.5,0.75,211
4.5,0.9,168
4.5,1.05,167
4.5,1.2,167
4.5,1.35,167
4.5,1.5,148
4.65,-1.5,171
4.65,-1.35,171
4.65,-1.2,170
4.65,-1.05,170
4.65,-0.9,154
4.65,-0.75,103
4.65,-0.6,51
4.65,-0.45,8
4.65,-0.3,25
4.65,-0.15,17
4.65,0.0,85
4.65,0.15,102
4.65,0.3,136
4.65,0.45,170
4.65,0.6,120
4.65,0.75,154
4.65,0.9,167
4.65,1.05,166
4.65,1.2,166
4.65,1.35,165
4.65,1.5,165
4.8,-1.5,246
4.8,-1.35,195
4.8,-1.2,195
4.8,-1.05,195
4.8,-0.9,161
4.8,-0.75,187
4.8,-0.6,68
4.8,-0.45,76
4.8,-0.3,17
4.8,-0.15,0
4.8,0.0,68
4.8,0.15,93
4.8,0.3,119
4.8,0.45,110
4.8,0.6,118
4.8,0.75,68
4.8,0.9,104
4.8,1.05,141
4.8,1.2,141
4.8,1.35,91
4.8,1.5,91
4.95,-1.5,178
4.95,-1.35,196
4.95,-1.2,170
4.95,-1.05,135
4.95,-0.9,84
4.95,-0.75,127
4.95,-0.6,144
4.95,-0.45,153
4.95,-0.3,102
4.95,-0.15,127
4.95,0.0,42
4.95,0.15,8
4.95,0.3,25
4.95,0.45,25
4.95,0.6,51
4.95,0.75,60
4.95,0.9,76
4.95,1.05,59
4.95,1.2,93
4.95,1.35,82
4.95,1.5,82
5.1,-1.5,127
5.1,-1.35,127
5.1,-1.2,144
5.1,-1.05,144
5.1,-0.9,119
5.1,-0.75,110
5.1,-0.6,51
5.1,-0.45,25
5.1,-0.3,0
5.1,-0.15,76
5.1,0.0,34
5.1,0.15,17
5.1,0.3,42
5.1,0.45,34
5.1,0.6,34
5.1,0.75,33
5.1,0.9,33
5.1,1.05,17
5.1,1.2,17
5.1,1.35,25
5.1,1.5,25
5.25,-1.5,168
5.25,-1.35,202
5.25,-1.2,202
5.25,-1.05,203
5.25,-0.9,170
5.25,-0.75,170
5.25,-0.6,144
5.25,-0.45,51
5.25,-0.3,51
5.25,-0.15,76
5.25,0.0,68
5.25,0.15,17
5.25,0.3,8
5.25,0.45,42
5.25,0.6,8
5.25,0.75,8
5.25,0.9,25
5.25,1.05,25
5.25,1.2,25
5.25,1.35,33
5.25,1.5,33
5.4,-1.5,193
5.4,-1.35,193
5.4,-1.2,194
5.4,-1.05,152
5.4,-0.9,153
5.4,-0.75,136
5.4,-0.6,111
5.4,-0.45,34
5.4,-0.3,0
5.4,-0.15,110
5.4,0.0,25
5.4,0.15,17
5.4,0.3,17
5.4,0.45,8
5.4,0.6,8
5.4,0.75,8
5.4,0.9,0
5.4,1.05,0
5.4,1.2,0
5.4,1.35,0
5.4,1.5,7
5.55,-1.5,185
5.55,-1.35,178
5.55,-1.2,160
5.55,-1.05,161
5.55,-0.9,136
5.55,-0.75,136
5.55,-0.6,93
5.55,-0.45,25
5.55,-0.3,0
5.55,-0.15,34
5.55,0.0,8
5.55,0.15,8
5.55,0.3,0
5.55,0.45,0
5.55,0.6,0
5.55,0.75,8
5.55,0.9,7
5.55,1.05,7
5.55,1.2,7
5.55,1.35,7
5.55,1.5,7
5.7,-1.5,203
5.7,-1.35,203
5.7,-1.2,204
5.7,-1.05,203
5.7,-0.9,128
5.7,-0.75,51
5.7,-0.6,42
5.7,-0.45,17
5.7,-0.3,85
5.7,-0.15,42
5.7,0.0,51
5.7,0.15,34
5.7,0.3,25
5.7,0.45,25
5.7,0.6,16
5.7,0.75,16
5.7,0.9,16
5.7,1.05,16
5.7,1.2,16
5.7,1.35,7
5.7,1.5,7
5.85,-1.5,211
5.85,-1.35,212
5.85,-1.2,212
5.85,-1.05,162
5.85,-0.9,119
5.85,-0.75,94
5.85,-0.6,93
5.85,-0.45,51
5.85,-0.3,68
5.85,-0.15,51
5.85,0.0,25
5.85,0.15,34
5.85,0.3,34
5.85,0.45,51
5.85,0.6,50
5.85,0.75,16
5.85,0.9,16
5.85,1.05,16
5.85,1.2,16
5.85,1.35,16
5.85,1.5,16
6.0,-1.5,169
6.0,-1.35,169
6.0,-1.2,136
6.0,-1.05,170
6.0,-0.9,128
6.0,-0.75,102
6.0,-0.6,144
6.0,-0.45,76
6.0,-0.3,34
6.0,-0.15,76
6.0,0.0,25
6.0,0.15,68
6.0,0.3,93
6.0,0.45,84
6.0,0.6,75
6.0,0.75,75
6.0,0.9,75
6.0,1.05,41
6.0,1.2,8
6.0,1.35,16
6.0,1.5,16
6.15,-1.5,136
6.15,-1.35,128
6.15,-1.2,128
6.15,-1.05,137
6.15,-0.9,111
6.15,-0.75,119
6.15,-0.6,102
6.15,-0.45,68
6.15,-0.3,25
6.15,-0.15,76
6.15,0.0,85
6.15,0.15,68
6.15,0.3,85
6.15,0.45,101
6.15,0.6,84
6.15,0.75,83
6.15,0.9,83
6.15,1.05,83
6.15,1.2,57
6.15,1.35,57
6.15,1.5,24
6.3,-1.5,145
6.3,-1.35,145
6.3,-1.2,145
6.3,-1.05,145
6.3,-0.9,145
6.3,-0.75,76
6.3,-0.6,85
6.3,-0.45,118
6.3,-0.3,42
6.3,-0.15,85
6.3,0.0,76
6.3,0.15,51
6.3,0.3,76
6.3,0.45,93
6.3,0.6,93
6.3,0.75,58
6.3,0.9,58
6.3,1.05,57
6.3,1.2,40
6.3,1.35,39
6.3,1.5,24
6.45,-1.5,96
6.45,-1.35,95
6.45,-1.2,95
6.45,-1.05,94
6.45,-0.9,94
6.45,-0.75,118
6.45,-0.6,118
6.45,-0.45,93
6.45,-0.3,0
6.45,-0.15,17
6.45,0.0,102
6.45,0.15,119
6.45,0.3,76
6.45,0.45,76
6.45,0.6,67
6.45,0.75,34
6.45,0.9,25
6.45,1.05,16
6.45,1.2,16
6.45,1.35,16
6.45,1.5,16
6.6,-1.5,111
6.6,-1.35,111
6.6,-1.2,111
6.6,-1.05,111
6.6,-0.9,111
6.6,-0.75,93
6.6,-0.6,93
6.6,-0.45,34
6.6,-0.3,8
6.6,-0.15,17
6.6,0.0,93
6.6,0.15,102
6.6,0.3,101
6.6,0.45,101
6.6,0.6,84
6.6,0.75,17
6.6,0.9,26
6.6,1.05,26
6.6,1.2,26
6.6,1.35,25
6.6,1.5,24
6.75,-1.5,78
6.75,-1.35,78
6.75,-1.2,102
6.75,-1.05,102
6.75,-0.9,59
6.75,-0.75,68
6.75,-0.6,68
6.75,-0.45,68
6.75,-0.3,59
6.75,-0.15,102
6.75,0.0,68
6.75,0.15,76
6.75,0.3,84
6.75,0.45,50
6.75,0.6,50
6.75,0.75,25
6.75,0.9,50
6.75,1.05,50
6.75,1.2,50
6.75,1.35,51
6.75,1.5,58
6.9,-1.5,37
6.9,-1.35,37
6.9,-1.2,36
6.9,-1.05,34
6.9,-0.9,34
6.9,-0.75,25
6.9,-0.6,25
6.9,-0.45,42
6.9,-0.3,68
6.9,-0.15,51
6.9,0.0,34
6.9,0.15,51
6.9,0.3,59
6.9,0.45,50
6.9,0.6,59
6.9,0.75,59
6.9,0.9,59
6.9,1.05,59
6.9,1.2,59
6.9,1.35,58
6.9,1.5,58
7.05,-1.5,46
7.05,-1.35,0
7.05,-1.2,0
7.05,-1.05,34
7.05,-0.9,34
7.05,-0.75,34
7.05,-0.6,17
7.05,-0.45,76
7.05,-0.3,59
7.05,-0.15,59
7.05,0.0,34
7.05,0.15,8
7.05,0.3,42
7.05,0.45,59
7.05,0.6,59
7.05,0.75,59
7.05,0.9,59
7.05,1.05,59
7.05,1.2,59
7.05,1.35,59
7.05,1.5,76
7.2,-1.5,19
7.2,-1.35,18
7.2,-1.2,51
7.2,-1.05,34
7.2,-0.9,34
7.2,-0.75,42
7.2,-0.6,42
7.2,-0.45,42
7.2,-0.3,34
7.2,-0.15,68
7.2,0.0,0
7.2,0.15,76
7.2,0.3,42
7.2,0.45,59
7.2,0.6,59
7.2,0.75,59
7.2,0.9,76
7.2,1.05,76
7.2,1.2,76
7.2,1.35,76
7.2,1.5,84
7.35,-1.5,52
7.35,-1.35,52
7.35,-1.2,51
7.35,-1.05,76
7.35,-0.9,51
7.35,-0.75,59
7.35,-0.6,34
7.35,-0.45,17
7.35,-0.3,34
7.35,-0.15,161
7.35,0.0,102
7.35,0.15,76
7.35,0.3,51
7.35,0.45,51
7.35,0.6,68
7.35,0.75,76
7.35,0.9,76
7.35,1.05,76
7.35,1.2,76
7.35,1.35,69
7.35,1.5,69
7.5,-1.5,51
7.5,-1.35,43
7.5,-1.2,76
7.5,-1.05,76
7.5,-0.9,51
7.5,-0.75,25
7.5,-0.6,42
7.5,-0.45,25
7.5,-0.3,17
7.5,-0.15,34
7.5,0.0,102
7.5,0.15,110
7.5,0.3,102
7.5,0.45,77
7.5,0.6,68
7.5,0.75,69
7.5,0.9,69
7.5,1.05,69
7.5,1.2,69
7.5,1.35,69
7.5,1.5,69
7.65,-1.5,76
7.65,-1.35,76
7.65,-1.2,76
7.65,-1.05,76
7.65,-0.9,93
7.65,-0.75,93
7.65,-0.6,42
7.65,-0.45,42
7.65,-0.3,102
7.65,-0.15,85
7.65,0.0,76
7.65,0.15,68
7.65,0.3,102
7.65,0.45,93
7.65,0.6,101
7.65,0.75,77
7.65,0.9,69
7.65,1.05,69
7.65,1.2,69
7.65,1.35,69
7.65,1.5,69
7.8,-1.5,85
7.8,-1.35,85
7.8,-1.2,93
7.8,-1.05,85
7.8,-0.9,93
7.8,-0.75,76
7.8,-0.6,59
7.8,-0.45,17
7.8,-0.3,85
7.8,-0.15,85
7.8,0.0,25
7.8,0.15,34
7.8,0.3,34
7.8,0.45,35
7.8,0.6,69
7.8,0.75,86
7.8,0.9,86
7.8,1.05,78
7.8,1.2,78
7.8,1.35,77
7.8,1.5,77
7.95,-1.5,86
7.95,-1.35,77
7.95,-1.2,77
7.95,-1.05,77
7.95,-0.9,102
7.95,-0.75,110
7.95,-0.6,93
7.95,-0.45,34
7.95,-0.3,17
7.95,-0.15,42
7.95,0.0,34
7.95,0.15,51
7.95,0.3,77
7.95,0.45,43
7.95,0.6,52
7.95,0.75,86
7.95,0.9,77
7.95,1.05,77
7.95,1.2,77
7.95,1.35,85
7.95,1.5,85
8.1,-1.5,86
8.1,-1.35,86
8.1,-1.2,77
8.1,-1.05,102
8.1,-0.9,102
8.1,-0.75,85
8.1,-0.6,51
8.1,-0.45,51
8.1,-0.3,8
8.1,-0.15,102
8.1,0.0,127
8.1,0.15,68
8.1,0.3,93
8.1,0.45,93
8.1,0.6,102
8.1,0.75,134
8.1,0.9,134
8.1,1.05,85
8.1,1.2,110
8.1,1.35,111
8.1,1.5,111
8.25,-1.5,86
8.25,-1.35,85
8.25,-1.2,110
8.25,-1.05,102
8.25,-0.9,102
8.25,-0.75,102
8.25,-0.6,68
8.25,-0.45,42
8.25,-0.3,34
8.25,-0.15,136
8.25,0.0,127
8.25,0.15,85
8.25,0.3,68
8.25,0.45,127
8.25,0.6,127
8.25,0.75,127
8.25,0.9,86
8.25,1.05,87
8.25,1.2,87
8.25,1.35,87
8.25,1.5,77
8.4,-1.5,69
8.4,-1.35,69
8.4,-1.2,60
8.4,-1.05,76
8.4,-0.9,76
8.4,-0.75,102
8.4,-0.6,127
8.4,-0.45,76
8.4,-0.3,42
8.4,-0.15,59
8.4,0.0,85
8.4,0.15,76
8.4,0.3,102
8.4,0.45,102
8.4,0.6,101
8.4,0.75,127
8.4,0.9,86
8.4,1.05,87
8.4,1.2,87
8.4,1.35,113
8.4,1.5,113
8.55,-1.5,69
8.55,-1.35,77
8.55,-1.2,68
8.55,-1.05,68
8.55,-0.9,68
8.55,-0.75,102
8.55,-0.6,102
8.55,-0.45,93
8.55,-0.3,68
8.55,-0.15,51
8.55,0.0,17
8.55,0.15,51
8.55,0.3,102
8.55,0.45,51
8.55,0.6,60
8.55,0.75,94
8.55,0.9,94
8.55,1.05,94
8.55,1.2,113
8.55,1.35,113
8.55,1.5,113
8.7,-1.5,60
8.7,-1.35,52
8.7,-1.2,60
8.7,-1.05,60
8.7,-0.9,60
8.7,-0.75,42
8.7,-0.6,59
8.7,-0.45,68
8.7,-0.3,93
8.7,-0.15,51
8.7,0.0,51
8.7,0.15,34
8.7,0.3,51
8.7,0.45,77
8.7,0.6,86
8.7,0.75,86
8.7,0.9,86
8.7,1.05,86
8.7,1.2,87
8.7,1.35,95
8.7,1.5,95
8.85,-1.5,60
8.85,-1.35,60
8.85,-1.2,34
8.85,-1.05,34
8.85,-0.9,34
8.85,-0.75,25
8.85,-0.6,17
8.85,-0.45,85
8.85,-0.3,93
8.85,-0.15,25
8.85,0.0,17
8.85,0.15,34
8.85,0.3,68
8.85,0.45,69
8.85,0.6,119
8.85,0.75,120
8.85,0.9,95
8.85,1.05,128
8.85,1.2,128
8.85,1.35,128
8.85,1.5,128
9.0,-1.5,34
9.0,-1.35,34
9.0,-1.2,34
9.0,-1.05,34
9.0,-0.9,34
9.0,-0.75,34
9.0,-0.6,17
9.0,-0.45,51
9.0,-0.3,51
9.0,-0.15,0
9.0,0.0,51
9.0,0.15,84
9.0,0.3,119
9.0,0.45,128
9.0,0.6,144
9.0,0.75,144
9.0,0.9,144
9.0,1.05,153
9.0,1.2,153
9.0,1.35,153
9.0,1.5,160
9.15,-1.5,51
9.15,-1.35,51
9.15,-1.2,43
9.15,-1.05,43
9.15,-0.9,59
9.15,-0.75,51
9.15,-0.6,68
9.15,-0.45,68
9.15,-0.3,59
9.15,-0.15,76
9.15,0.0,76
9.15,0.15,127
9.15,0.3,128
9.15,0.45,136
9.15,0.6,144
9.15,0.75,145
9.15,0.9,145
9.15,1.05,152
9.15,1.2,152
9.15,1.35,152
9.15,1.5,152
9.3,-1.5,51
9.3,-1.35,51
9.3,-1.2,51
9.3,-1.05,51
9.3,-0.9,51
9.3,-0.75,51
9.3,-0.6,51
9.3,-0.45,42
9.3,-0.3,110
9.3,-0.15,102
9.3,0.0,178
9.3,0.15,136
9.3,0.3,144
9.3,0.45,144
9.3,0.6,152
9.3,0.75,119
9.3,0.9,152
9.3,1.05,152
9.3,1.2,152
9.3,1.35,152
9.3,1.5,152
9.45,-1.5,136
9.45,-1.35,93
9.45,-1.2,85
9.45,-1.05,85
9.45,-0.9,59
9.45,-0.75,51
9.45,-0.6,34
9.45,-0.45,127
9.45,-0.3,127
9.45,-0.15,144
9.45,0.0,195
9.45,0.15,204
9.45,0.3,178
9.45,0.45,152
9.45,0.6,152
9.45,0.75,152
9.45,0.9,152
9.45,1.05,160
9.45,1.2,160
9.45,1.35,151
9.45,1.5,151
9.6,-1.5,153
9.6,-1.35,120
9.6,-1.2,119
9.6,-1.05,128
9.6,-0.9,119
9.6,-0.75,76
9.6,-0.6,102
9.6,-0.45,102
9.6,-0.3,144
9.6,-0.15,161
9.6,0.0,136
9.6,0.15,136
9.6,0.3,144
9.6,0.45,177
9.6,0.6,177
9.6,0.75,143
9.6,0.9,143
9.6,1.05,143
9.6,1.2,151
9.6,1.35,152
9.6,1.5,152
9.75,-1.5,127
9.75,-1.35,127
9.75,-1.2,145
9.75,-1.05,145
9.75,-0.9,145
9.75,-0.75,119
9.75,-0.6,85
9.75,-0.45,85
9.75,-0.3,85
9.75,-0.15,76
9.75,0.0,144
9.75,0.15,152
9.75,0.3,152
9.75,0.45,152
9.75,0.6,152
9.75,0.75,160
9.75,0.9,160
9.75,1.05,160
9.75,1.2,152
9.75,1.35,151
9.75,1.5,151
9.9,-1.5,161
9.9,-1.35,161
9.9,-1.2,135
9.9,-1.05,135
9.9,-0.9,153
9.9,-0.75,178
9.9,-0.6,144
9.9,-0.45,85
9.9,-0.3,59
9.9,-0.15,93
9.9,0.0,136
9.9,0.15,136
9.9,0.3,144
9.9,0.45,144
9.9,0.6,144
9.9,0.75,144
9.9,0.9,177
9.9,1.05,177
9.9,1.2,210
9.9,1.35,201
9.9,1.5,168
10.05,-1.5,161
10.05,-1.35,186
10.05,-1.2,186
10.05,-1.05,186
10.05,-0.9,186
10.05,-0.75,204
10.05,-0.6,195
10.05,-0.45,85
10.05,-0.3,42
10.05,-0.15,68
10.05,0.0,102
10.05,0.15,153
10.05,0.3,153
10.05,0.45,153
10.05,0.6,153
10.05,0.75,152
10.05,0.9,151
10.05,1.05,151
10.05,1.2,151
10.05,1.35,183
10.05,1.5,183
10.2,-1.5,177
10.2,-1.35,178
10.2,-1.2,186
10.2,-1.05,203
10.2,-0.9,203
10.2,-0.75,178
10.2,-0.6,195
10.2,-0.45,93
10.2,-0.3,42
10.2,-0.15,102
10.2,0.0,153
10.2,0.15,153
10.2,0.3,162
10.2,0.45,162
10.2,0.6,169
10.2,0.75,168
10.2,0.9,168
10.2,1.05,143
10.2,1.2,142
10.2,1.35,141
10.2,1.5,141
10.35,-1.5,161
10.35,-1.35,194
10.35,-1.2,195
10.35,-1.05,186
10.35,-0.9,144
10.35,-0.75,110
10.35,-0.6,136
10.35,-0.45,144
10.35,-0.3,119
10.35,-0.15,144
10.35,0.0,170
10.35,0.15,187
10.35,0.3,162
10.35,0.45,178
10.35,0.6,169
10.35,0.75,168
10.35,0.9,168
10.35,1.05,168
10.35,1.2,158
10.35,1.35,158
10.35,1.5,148
10.5,-1.5,86
10.5,-1.35,86
10.5,-1.2,86
10.5,-1.05,60
10.5,-0.9,68
10.5,-0.75,93
10.5,-0.6,93
10.5,-0.45,85
10.5,-0.3,178
10.5,-0.15,153
10.5,0.0,204
10.5,0.15,212
10.5,0.3,144
10.5,0.45,161
10.5,0.6,160
10.5,0.75,151
10.5,0.9,150
10.5,1.05,150
10.5,1.2,149
10.5,1.35,149
10.5,1.5,149
10.65,-1.5,119
10.65,-1.35,119
10.65,-1.2,60
10.65,-1.05,60
10.65,-0.9,68
10.65,-0.75,77
10.65,-0.6,68
10.65,-0.45,93
10.65,-0.3,161
10.65,-0.15,195
10.65,0.0,186
10.65,0.15,178
10.65,0.3,136
10.65,0.45,127
10.65,0.6,119
10.65,0.75,126
10.65,0.9,118
10.65,1.05,116
10.65,1.2,116
10.65,1.35,115
10.65,1.5,115
10.8,-1.5,94
10.8,-1.35,94
10.8,-1.2,94
10.8,-1.05,94
10.8,-0.9,85
10.8,-0.75,85
10.8,-0.6,85
10.8,-0.45,102
10.8,-0.3,187
10.8,-0.15,187
10.8,0.0,178
10.8,0.15,102
10.8,0.3,102
10.8,0.45,93
10.8,0.6,126
10.8,0.75,126
10.8,0.9,126
10.8,1.05,125
10.8,1.2,117
10.8,1.35,115
10.8,1.5,114
10.95,-1.5,94
10.95,-1.35,94
10.95,-1.2,93
10.95,-1.05,93
10.95,-0.9,94
10.95,-0.75,76
10.95,-0.6,135
10.95,-0.45,127
10.95,-0.3,119
10.95,-0.15,127
10.95,0.0,76
10.95,0.15,67
10.95,0.3,67
10.95,0.45,84
10.95,0.6,83
10.95,0.75,83
10.95,0.9,58
10.95,1.05,74
10.95,1.2,73
10.95,1.35,114
10.95,1.5,114
11.1,-1.5,119
11.1,-1.35,119
11.1,-1.2,119
11.1,-1.05,93
11.1,-0.9,94
11.1,-0.75,76
11.1,-0.6,118
11.1,-0.45,119
11.1,-0.3,127
11.1,-0.15,110
11.1,0.0,76
11.1,0.15,50
11.1,0.3,50
11.1,0.45,50
11.1,0.6,66
11.1,0.75,66
11.1,0.9,66
11.1,1.05,66
11.1,1.2,66
11.1,1.35,84
11.1,1.5,84
11.25,-1.5,162
11.25,-1.35,163
11.25,-1.2,163
11.25,-1.05,127
11.25,-0.9,102
11.25,-0.75,101
11.25,-0.6,102
11.25,-0.45,110
11.25,-0.3,119
11.25,-0.15,127
11.25,0.0,76
11.25,0.15,75
11.25,0.3,33
11.25,0.45,68
11.25,0.6,68
11.25,0.75,68
11.25,0.9,68
11.25,1.05,68
11.25,1.2,68
11.25,1.35,92
11.25,1.5,92
11.4,-1.5,164
11.4,-1.35,129
11.4,-1.2,128
11.4,-1.05,128
11.4,-0.9,127
11.4,-0.75,102
11.4,-0.6,76
11.4,-0.45,68
11.4,-0.3,59
11.4,-0.15,85
11.4,0.0,51
11.4,0.15,68
11.4,0.3,60
11.4,0.45,61
11.4,0.6,69
11.4,0.75,69
11.4,0.9,69
11.4,1.05,69
11.4,1.2,69
11.4,1.35,68
11.4,1.5,54
11.55,-1.5,130
11.55,-1.35,130
11.55,-1.2,129
11.55,-1.05,129
11.55,-0.9,86
11.55,-0.75,77
11.55,-0.6,34
11.55,-0.45,42
11.55,-0.3,42
11.55,-0.15,76
11.55,0.0,94
11.55,0.15,86
11.55,0.3,86
11.55,0.45,69
11.55,0.6,69
11.55,0.75,69
11.55,0.9,69
11.55,1.05,68
11.55,1.2,68
11.55,1.35,54
11.55,1.5,54
11.7,-1.5,95
11.7,-1.35,95
11.7,-1.2,120
11.7,-1.05,112
11.7,-0.9,112
11.7,-0.75,153
11.7,-0.6,110
11.7,-0.45,76
11.7,-0.3,119
11.7,-0.15,110
11.7,0.0,94
11.7,0.15,93
11.7,0.3,86
11.7,0.45,86
11.7,0.6,69
11.7,0.75,69
11.7,0.9,69
11.7,1.05,69
11.7,1.2,55
11.7,1.35,55
11.7,1.5,54
11.85,-1.5,104
11.85,-1.35,103
11.85,-1.2,161
11.85,-1.05,161
11.85,-0.9,162
11.85,-0.75,162
11.85,-0.6,127
11.85,-0.45,93
11.85,-0.3,85
11.85,-0.15,137
11.85,0.0,136
11.85,0.15,145
11.85,0.3,69
11.85,0.45,69
11.85,0.6,85
11.85,0.75,69
11.85,0.9,62
11.85,1.05,49
11.85,1.2,56
11.85,1.35,55
11.85,1.5,54
12.0,-1.5,102
12.0,-1.35,104
12.0,-1.2,136
12.0,-1.05,177
12.0,-0.9,178
12.0,-0.75,161
12.0,-0.6,136
12.0,-0.45,93
12.0,-0.3,102
12.0,-0.15,136
12.0,0.0,144
12.0,0.15,110
12.0,0.3,118
12.0,0.45,77
12.0,0.6,61
12.0,0.75,61
12.0,0.9,57
12.0,1.05,48
12.0,1.2,48
12.0,1.35,47
12.0,1.5,47
12.15,-1.5,102
12.15,-1.35,111
12.15,-1.2,111
12.15,-1.05,102
12.15,-0.9,152
12.15,-0.75,152
12.15,-0.6,152
12.15,-0.45,110
12.15,-0.3,119
12.15,-0.15,136
12.15,0.0,136
12.15,0.15,110
12.15,0.3,70
12.15,0.45,70
12.15,0.6,69
12.15,0.75,65
12.15,0.9,56
12.15,1.05,56
12.15,1.2,55
12.15,1.35,46
12.15,1.5,47
12.3,-1.5,99
12.3,-1.35,101
12.3,-1.2,109
12.3,-1.05,102
12.3,-0.9,76
12.3,-0.75,77
12.3,-0.6,76
12.3,-0.45,84
12.3,-0.3,93
12.3,-0.15,93
12.3,0.0,119
12.3,0.15,111
12.3,0.3,70
12.3,0.45,70
12.3,0.6,70
12.3,0.75,65
12.3,0.9,64
12.3,1.05,64
12.3,1.2,55
12.3,1.35,54
12.3,1.5,54
12.45,-1.5,98
12.45,-1.35,98
12.45,-1.2,66
12.45,-1.05,75
12.45,-0.9,33
12.45,-0.75,33
12.45,-0.6,34
12.45,-0.45,42
12.45,-0.3,51
12.45,-0.15,51
12.45,0.0,77
12.45,0.15,78
12.45,0.3,78
12.45,0.45,70
12.45,0.6,66
12.45,0.75,66
12.45,0.9,66
12.45,1.05,63
12.45,1.2,63
12.45,1.35,62
12.45,1.5,54
12.6,-1.5,96
12.6,-1.35,64
12.6,-1.2,24
12.6,-1.05,24
12.6,-0.9,33
12.6,-0.75,33
12.6,-0.6,34
12.6,-0.45,34
12.6,-0.3,51
12.6,-0.15,51
12.6,0.0,77
12.6,0.15,77
12.6,0.3,78
12.6,0.45,74
12.6,0.6,58
12.6,0.75,65
12.6,0.9,65
12.6,1.05,64
12.6,1.2,62
12.6,1.35,62
12.6,1.5,61
12.75,-1.5,62
12.75,-1.35,23
12.75,-1.2,23
12.75,-1.05,24
12.75,-0.9,32
12.75,-0.75,33
12.75,-0.6,34
12.75,-0.45,34
12.75,-0.3,42
12.75,-0.15,51
12.75,0.0,51
12.75,0.15,77
12.75,0.3,77
12.75,0.45,73
12.75,0.6,73
12.75,0.75,57
12.75,0.9,56
12.75,1.05,64
12.75,1.2,63
12.75,1.35,63
12.75,1.5,61
12.9,-1.5,22
12.9,-1.35,22
12.9,-1.2,31
12.9,-1.05,31
12.9,-0.9,32
12.9,-0.75,33
12.9,-0.6,34
12.9,-0.45,34
12.9,-0.3,42
12.9,-0.15,43
12.9,0.0,43
12.9,0.15,51
12.9,0.3,77
12.9,0.45,57
12.9,0.6,72
12.9,0.75,72
12.9,0.9,56
12.9,1.05,56
12.9,1.2,63
12.9,1.35,62
12.9,1.5,62
13.05,-1.5,22
13.05,-1.35,30
13.05,-1.2,30
13.05,-1.05,31
13.05,-0.9,32
13.05,-0.75,32
13.05,-0.6,34
13.05,-0.45,34
13.05,-0.3,42
13.05,-0.15,43
13.05,0.0,43
13.05,0.15,43
13.05,0.3,51
13.05,0.45,56
13.05,0.6,56
13.05,0.75,56
13.05,0.9,56
13.05,1.05,56
13.05,1.2,56
13.05,1.35,56
13.05,1.5,61
