-3.0,-1.5,91
-3.0,-1.35,91
-3.0,-1.2,92
-3.0,-1.05,92
-3.0,-0.9,93
-3.0,-0.75,94
-3.0,-0.6,95
-3.0,-0.45,96
-3.0,-0.3,96
-3.0,-0.15,97
-3.0,0.0,97
-3.0,0.15,97
-3.0,0.3,97
-3.0,0.45,97
-3.0,0.6,97
-3.0,0.75,97
-3.0,0.9,97
-3.0,1.05,97
-3.0,1.2,97
-3.0,1.35,97
-3.0,1.5,97
-2.85,-1.5,91
-2.85,-1.35,91
-2.85,-1.2,92
-2.85,-1.05,93
-2.85,-0.9,93
-2.85,-0.75,94
-2.85,-0.6,95
-2.85,-0.45,96
-2.85,-0.3,97
-2.85,-0.15,97
-2.85,0.0,97
-2.85,0.15,97
-2.85,0.3,97
-2.85,0.45,97
-2.85,0.6,97
-2.85,0.75,97
-2.85,0.9,97
-2.85,1.05,97
-2.85,1.2,97
-2.85,1.35,97
-2.85,1.5,97
-2.7,-1.5,92
-2.7,-1.35,92
-2.7,-1.2,92
-2.7,-1.05,93
-2.7,-0.9,94
-2.7,-0.75,95
-2.7,-0.6,95
-2.7,-0.45,96
-2.7,-0.3,97
-2.7,-0.15,98
-2.7,0.0,97
-2.7,0.15,97
-2.7,0.3,97
-2.7,0.45,97
-2.7,0.6,97
-2.7,0.75,97
-2.7,0.9,97
-2.7,1.05,97
-2.7,1.2,97
-2.7,1.35,97
-2.7,1.5,97
-2.55,-1.5,92
-2.55,-1.35,93
-2.55,-1.2,93
-2.55,-1.05,94
-2.55,-0.9,94
-2.55,-0.75,95
-2.55,-0.6,96
-2.55,-0.45,97
-2.55,-0.3,97
-2.55,-0.15,98
-2.55,0.0,97
-2.55,0.15,98
-2.55,0.3,98
-2.55,0.45,99
-2.55,0.6,99
-2.55,0.75,99
-2.55,0.9,99
-2.55,1.05,98
-2.55,1.2,97
-2.55,1.35,97
-2.55,1.5,97
-2.4,-1.5,93
-2.4,-1.35,93
-2.4,-1.2,94
-2.4,-1.05,94
-2.4,-0.9,95
-2.4,-0.75,96
-2.4,-0.6,96
-2.4,-0.45,97
-2.4,-0.3,98
-2.4,-0.15,99
-2.4,0.0,98
-2.4,0.15,99
-2.4,0.3,100
-2.4,0.45,101
-2.4,0.6,101
-2.4,0.75,102
-2.4,0.9,102
-2.4,1.05,101
-2.4,1.2,100
-2.4,1.35,100
-2.4,1.5,99
-2.25,-1.5,94
-2.25,-1.35,94
-2.25,-1.2,95
-2.25,-1.05,95
-2.25,-0.9,95
-2.25,-0.75,96
-2.25,-0.6,97
-2.25,-0.45,97
-2.25,-0.3,98
-2.25,-0.15,99
-2.25,0.0,98
-2.25,0.15,100
-2.25,0.3,101
-2.25,0.45,102
-2.25,0.6,103
-2.25,0.75,104
-2.25,0.9,104
-2.25,1.05,105
-2.25,1.2,104
-2.25,1.35,103
-2.25,1.5,101
-2.1,-1.5,106
-2.1,-1.35,106
-2.1,-1.2,95
-2.1,-1.05,96
-2.1,-0.9,96
-2.1,-0.75,96
-2.1,-0.6,97
-2.1,-0.45,98
-2.1,-0.3,99
-2.1,-0.15,100
-2.1,0.0,99
-2.1,0.15,101
-2.1,0.3,102
-2.1,0.45,104
-2.1,0.6,105
-2.1,0.75,106
-2.1,0.9,108
-2.1,1.05,107
-2.1,1.2,106
-2.1,1.35,105
-2.1,1.5,104
-1.95,-1.5,107
-1.95,-1.35,107
-1.95,-1.2,107
-1.95,-1.05,107
-1.95,-0.9,107
-1.95,-0.75,97
-1.95,-0.6,97
-1.95,-0.45,98
-1.95,-0.3,99
-1.95,-0.15,100
-1.95,0.0,99
-1.95,0.15,101
-1.95,0.3,103
-1.95,0.45,105
-1.95,0.6,108
-1.95,0.75,108
-1.95,0.9,108
-1.95,1.05,108
-1.95,1.2,108
-1.95,1.35,107
-1.95,1.5,105
-1.8,-1.5,107
-1.8,-1.35,107
-1.8,-1.2,107
-1.8,-1.05,108
-1.8,-0.9,108
-1.8,-0.75,108
-1.8,-0.6,108
-1.8,-0.45,98
-1.8,-0.3,99
-1.8,-0.15,100
-1.8,0.0,100
-1.8,0.15,101
-1.8,0.3,103
-1.8,0.45,106
-1.8,0.6,108
-1.8,0.75,108
-1.8,0.9,108
-1.8,1.05,108
-1.8,1.2,108
-1.8,1.35,108
-1.8,1.5,106
-1.65,-1.5,108
-1.65,-1.35,108
-1.65,-1.2,108
-1.65,-1.05,108
-1.65,-0.9,108
-1.65,-0.75,108
-1.65,-0.6,108
-1.65,-0.45,109
-1.65,-0.3,109
-1.65,-0.15,138
-1.65,0.0,100
-1.65,0.15,139
-1.65,0.3,104
-1.65,0.45,106
-1.65,0.6,108
-1.65,0.75,108
-1.65,0.9,108
-1.65,1.05,108
-1.65,1.2,108
-1.65,1.35,108
-1.65,1.5,106
-1.5,-1.5,108
-1.5,-1.35,108
-1.5,-1.2,108
-1.5,-1.05,108
-1.5,-0.9,108
-1.5,-0.75,108
-1.5,-0.6,108
-1.5,-0.45,108
-1.5,-0.3,108
-1.5,-0.15,147
-1.5,0.0,148
-1.5,0.15,140
-1.5,0.3,104
-1.5,0.45,105
-1.5,0.6,107
-1.5,0.75,108
-1.5,0.9,108
-1.5,1.05,108
-1.5,1.2,108
-1.5,1.35,107
-1.5,1.5,106
-1.35,-1.5,158
-1.35,-1.35,108
-1.35,-1.2,108
-1.35,-1.05,108
-1.35,-0.9,108
-1.35,-0.75,108
-1.35,-0.6,108
-1.35,-0.45,108
-1.35,-0.3,146
-1.35,-0.15,146
-1.35,0.0,146
-1.35,0.15,138
-1.35,0.3,136
-1.35,0.45,136
-1.35,0.6,115
-1.35,0.75,107
-1.35,0.9,108
-1.35,1.05,108
-1.35,1.2,107
-1.35,1.35,106
-1.35,1.5,106
-1.2,-1.5,118
-1.2,-1.35,118
-1.2,-1.2,101
-1.2,-1.05,108
-1.2,-0.9,108
-1.2,-0.75,108
-1.2,-0.6,109
-1.2,-0.45,109
-1.2,-0.3,144
-1.2,-0.15,144
-1.2,0.0,143
-1.2,0.15,135
-1.2,0.3,133
-1.2,0.45,135
-1.2,0.6,112
-1.2,0.75,114
-1.2,0.9,114
-1.2,1.05,114
-1.2,1.2,114
-1.2,1.35,114
-1.2,1.5,106
-1.05,-1.5,118
-1.05,-1.35,118
-1.05,-1.2,118
-1.05,-1.05,70
-1.05,-0.9,108
-1.05,-0.75,110
-1.05,-0.6,109
-1.05,-0.45,108
-1.05,-0.3,143
-1.05,-0.15,141
-1.05,0.0,141
-1.05,0.15,140
-1.05,0.3,131
-1.05,0.45,132
-1.05,0.6,110
-1.05,0.75,111
-1.05,0.9,112
-1.05,1.05,113
-1.05,1.2,114
-1.05,1.35,113
-1.05,1.5,113
-0.9,-1.5,118
-0.9,-1.35,118
-0.9,-1.2,129
-0.9,-1.05,129
-0.9,-0.9,128
-0.9,-0.75,108
-0.9,-0.6,108
-0.9,-0.45,108
-0.9,-0.3,108
-0.9,-0.15,139
-0.9,0.0,138
-0.9,0.15,135
-0.9,0.3,128
-0.9,0.45,129
-0.9,0.6,107
-0.9,0.75,108
-0.9,0.9,110
-0.9,1.05,111
-0.9,1.2,112
-0.9,1.35,112
-0.9,1.5,112
-0.75,-1.5,118
-0.75,-1.35,159
-0.75,-1.2,158
-0.75,-1.05,158
-0.75,-0.9,156
-0.75,-0.75,155
-0.75,-0.6,108
-0.75,-0.45,108
-0.75,-0.3,129
-0.75,-0.15,128
-0.75,0.0,134
-0.75,0.15,133
-0.75,0.3,125
-0.75,0.45,127
-0.75,0.6,104
-0.75,0.75,106
-0.75,0.9,108
-0.75,1.05,109
-0.75,1.2,110
-0.75,1.35,110
-0.75,1.5,118
-0.6,-1.5,159
-0.6,-1.35,159
-0.6,-1.2,159
-0.6,-1.05,158
-0.6,-0.9,157
-0.6,-0.75,155
-0.6,-0.6,153
-0.6,-0.45,115
-0.6,-0.3,130
-0.6,-0.15,128
-0.6,0.0,134
-0.6,0.15,117
-0.6,0.3,90
-0.6,0.45,99
-0.6,0.6,100
-0.6,0.75,78
-0.6,0.9,79
-0.6,1.05,79
-0.6,1.2,117
-0.6,1.35,118
-0.6,1.5,118
-0.45,-1.5,159
-0.45,-1.35,160
-0.45,-1.2,160
-0.45,-1.05,159
-0.45,-0.9,158
-0.45,-0.75,157
-0.45,-0.6,154
-0.45,-0.45,151
-0.45,-0.3,115
-0.45,-0.15,128
-0.45,0.0,135
-0.45,0.15,134
-0.45,0.3,98
-0.45,0.45,107
-0.45,0.6,109
-0.45,0.75,110
-0.45,0.9,103
-0.45,1.05,104
-0.45,1.2,105
-0.45,1.35,114
-0.45,1.5,118
-0.3,-1.5,173
-0.3,-1.35,173
-0.3,-1.2,148
-0.3,-1.05,177
-0.3,-0.9,159
-0.3,-0.75,157
-0.3,-0.6,155
-0.3,-0.45,152
-0.3,-0.3,115
-0.3,-0.15,115
-0.3,0.0,136
-0.3,0.15,98
-0.3,0.3,99
-0.3,0.45,109
-0.3,0.6,110
-0.3,0.75,111
-0.3,0.9,113
-0.3,1.05,114
-0.3,1.2,123
-0.3,1.35,123
-0.3,1.5,124
-0.15,-1.5,174
-0.15,-1.35,174
-0.15,-1.2,175
-0.15,-1.05,175
-0.15,-0.9,178
-0.15,-0.75,160
-0.15,-0.6,158
-0.15,-0.45,156
-0.15,-0.3,152
-0.15,-0.15,148
-0.15,0.0,128
-0.15,0.15,89
-0.15,0.3,90
-0.15,0.45,92
-0.15,0.6,93
-0.15,0.75,94
-0.15,0.9,115
-0.15,1.05,115
-0.15,1.2,116
-0.15,1.35,116
-0.15,1.5,124
0.0,-1.5,193
0.0,-1.35,194
0.0,-1.2,195
0.0,-1.05,196
0.0,-0.9,196
0.0,-0.75,195
0.0,-0.6,186
0.0,-0.45,160
0.0,-0.3,157
0.0,-0.15,153
0.0,0.0,131
0.0,0.15,100
0.0,0.3,93
0.0,0.45,104
0.0,0.6,105
0.0,0.75,106
0.0,0.9,106
0.0,1.05,131
0.0,1.2,132
0.0,1.35,132
0.0,1.5,133
0.15,-1.5,193
0.15,-1.35,195
0.15,-1.2,196
0.15,-1.05,197
0.15,-0.9,198
0.15,-0.75,198
0.15,-0.6,197
0.15,-0.45,195
0.15,-0.3,195
0.15,-0.15,191
0.15,0.0,188
0.15,0.15,103
0.15,0.3,115
0.15,0.45,116
0.15,0.6,107
0.15,0.75,107
0.15,0.9,133
0.15,1.05,133
0.15,1.2,133
0.15,1.35,133
0.15,1.5,133
0.3,-1.5,163
0.3,-1.35,192
0.3,-1.2,197
0.3,-1.05,198
0.3,-0.9,200
0.3,-0.75,200
0.3,-0.6,201
0.3,-0.45,199
0.3,-0.3,197
0.3,-0.15,221
0.3,0.0,229
0.3,0.15,226
0.3,0.3,143
0.3,0.45,143
0.3,0.6,144
0.3,0.75,144
0.3,0.9,169
0.3,1.05,134
0.3,1.2,134
0.3,1.35,162
0.3,1.5,162
0.45,-1.5,163
0.45,-1.35,165
0.45,-1.2,168
0.45,-1.05,170
0.45,-0.9,218
0.45,-0.75,219
0.45,-0.6,211
0.45,-0.45,248
0.45,-0.3,245
0.45,-0.15,243
0.45,0.0,240
0.45,0.15,230
0.45,0.3,173
0.45,0.45,172
0.45,0.6,172
0.45,0.75,171
0.45,0.9,171
0.45,1.05,173
0.45,1.2,198
0.45,1.35,199
0.45,1.5,200
0.6,-1.5,165
0.6,-1.35,167
0.6,-1.2,169
0.6,-1.05,175
0.6,-0.9,177
0.6,-0.75,221
0.6,-0.6,255
0.6,-0.45,255
0.6,-0.3,247
0.6,-0.15,244
0.6,0.0,242
0.6,0.15,212
0.6,0.3,196
0.6,0.45,175
0.6,0.6,175
0.6,0.75,201
0.6,0.9,201
0.6,1.05,201
0.6,1.2,200
0.6,1.35,200
0.6,1.5,172
0.75,-1.5,176
0.75,-1.35,177
0.75,-1.2,177
0.75,-1.05,177
0.75,-0.9,176
0.75,-0.75,177
0.75,-0.6,178
0.75,-0.45,203
0.75,-0.3,255
0.75,-0.15,253
0.75,0.0,214
0.75,0.15,214
0.75,0.3,250
0.75,0.45,180
0.75,0.6,204
0.75,0.75,204
0.75,0.9,204
0.75,1.05,204
0.75,1.2,174
0.75,1.35,174
0.75,1.5,173
0.9,-1.5,175
0.9,-1.35,176
0.9,-1.2,177
0.9,-1.05,177
0.9,-0.9,177
0.9,-0.75,175
0.9,-0.6,175
0.9,-0.45,174
0.9,-0.3,173
0.9,-0.15,160
0.9,0.0,177
0.9,0.15,176
0.9,0.3,242
0.9,0.45,186
0.9,0.6,177
0.9,0.75,204
0.9,0.9,201
0.9,1.05,200
0.9,1.2,201
0.9,1.35,201
0.9,1.5,240
1.05,-1.5,148
1.05,-1.35,149
1.05,-1.2,150
1.05,-1.05,151
1.05,-0.9,177
1.05,-0.75,177
1.05,-0.6,177
1.05,-0.45,177
1.05,-0.3,142
1.05,-0.15,167
1.05,0.0,157
1.05,0.15,194
1.05,0.3,202
1.05,0.45,158
1.05,0.6,195
1.05,0.75,213
1.05,0.9,175
1.05,1.05,240
1.05,1.2,239
1.05,1.35,199
1.05,1.5,198
1.2,-1.5,137
1.2,-1.35,137
1.2,-1.2,146
1.2,-1.05,146
1.2,-0.9,137
1.2,-0.75,137
1.2,-0.6,136
1.2,-0.45,134
1.2,-0.3,134
1.2,-0.15,133
1.2,0.0,131
1.2,0.15,147
1.2,0.3,185
1.2,0.45,187
1.2,0.6,217
1.2,0.75,207
1.2,0.9,178
1.2,1.05,169
1.2,1.2,172
1.2,1.35,190
1.2,1.5,189
1.35,-1.5,136
1.35,-1.35,136
1.35,-1.2,135
1.35,-1.05,135
1.35,-0.9,95
1.35,-0.75,102
1.35,-0.6,101
1.35,-0.45,101
1.35,-0.3,111
1.35,-0.15,50
1.35,0.0,50
1.35,0.15,106
1.35,0.3,117
1.35,0.45,147
1.35,0.6,179
1.35,0.75,181
1.35,0.9,182
1.35,1.05,169
1.35,1.2,173
1.35,1.35,161
1.35,1.5,160
1.5,-1.5,128
1.5,-1.35,134
1.5,-1.2,103
1.5,-1.05,40
1.5,-0.9,40
1.5,-0.75,40
1.5,-0.6,40
1.5,-0.45,49
1.5,-0.3,50
1.5,-0.15,59
1.5,0.0,49
1.5,0.15,49
1.5,0.3,107
1.5,0.45,137
1.5,0.6,140
1.5,0.75,143
1.5,0.9,140
1.5,1.05,129
1.5,1.2,165
1.5,1.35,163
1.5,1.5,160
1.65,-1.5,41
1.65,-1.35,41
1.65,-1.2,40
1.65,-1.05,30
1.65,-0.9,20
1.65,-0.75,29
1.65,-0.6,29
1.65,-0.45,20
1.65,-0.3,20
1.65,-0.15,39
1.65,0.0,39
1.65,0.15,40
1.65,0.3,78
1.65,0.45,109
1.65,0.6,140
1.65,0.75,131
1.65,0.9,129
1.65,1.05,127
1.65,1.2,127
1.65,1.35,133
1.65,1.5,131
1.8,-1.5,31
1.8,-1.35,31
1.8,-1.2,31
1.8,-1.05,29
1.8,-0.9,29
1.8,-0.75,29
1.8,-0.6,29
1.8,-0.45,29
1.8,-0.3,20
1.8,-0.15,30
1.8,0.0,30
1.8,0.15,40
1.8,0.3,88
1.8,0.45,118
1.8,0.6,121
1.8,0.75,126
1.8,0.9,125
1.8,1.05,134
1.8,1.2,133
1.8,1.35,127
1.8,1.5,161
1.95,-1.5,31
1.95,-1.35,31
1.95,-1.2,31
1.95,-1.05,31
1.95,-0.9,30
1.95,-0.75,20
1.95,-0.6,29
1.95,-0.45,29
1.95,-0.3,29
1.95,-0.15,30
1.95,0.0,30
1.95,0.15,30
1.95,0.3,69
1.95,0.45,117
1.95,0.6,117
1.95,0.75,106
1.95,0.9,106
1.95,1.05,159
1.95,1.2,159
1.95,1.35,159
1.95,1.5,159
2.1,-1.5,30
2.1,-1.35,30
2.1,-1.2,30
2.1,-1.05,30
2.1,-0.9,30
2.1,-0.75,30
2.1,-0.6,30
2.1,-0.45,20
2.1,-0.3,20
2.1,-0.15,20
2.1,0.0,30
2.1,0.15,30
2.1,0.3,30
2.1,0.45,95
2.1,0.6,105
2.1,0.75,123
2.1,0.9,123
2.1,1.05,122
2.1,1.2,121
2.1,1.35,121
2.1,1.5,121
2.25,-1.5,48
2.25,-1.35,39
2.25,-1.2,39
2.25,-1.05,39
2.25,-0.9,39
2.25,-0.75,39
2.25,-0.6,39
2.25,-0.45,31
2.25,-0.3,30
2.25,-0.15,30
2.25,0.0,19
2.25,0.15,20
2.25,0.3,20
2.25,0.45,87
2.25,0.6,89
2.25,0.75,114
2.25,0.9,121
2.25,1.05,121
2.25,1.2,120
2.25,1.35,121
2.25,1.5,121
2.4,-1.5,57
2.4,-1.35,57
2.4,-1.2,57
2.4,-1.05,57
2.4,-0.9,57
2.4,-0.75,49
2.4,-0.6,49
2.4,-0.45,49
2.4,-0.3,40
2.4,-0.15,39
2.4,0.0,39
2.4,0.15,10
2.4,0.3,39
2.4,0.45,49
2.4,0.6,51
2.4,0.75,87
2.4,0.9,87
2.4,1.05,87
2.4,1.2,87
2.4,1.35,94
2.4,1.5,121
2.55,-1.5,77
2.55,-1.35,77
2.55,-1.2,67
2.55,-1.05,67
2.55,-0.9,67
2.55,-0.75,67
2.55,-0.6,67
2.55,-0.45,67
2.55,-0.3,69
2.55,-0.15,59
2.55,0.0,58
2.55,0.15,20
2.55,0.3,59
2.55,0.45,61
2.55,0.6,60
2.55,0.75,59
2.55,0.9,59
2.55,1.05,87
2.55,1.2,87
2.55,1.35,94
2.55,1.5,94
2.7,-1.5,77
2.7,-1.35,77
2.7,-1.2,77
2.7,-1.05,78
2.7,-0.9,67
2.7,-0.75,68
2.7,-0.6,78
2.7,-0.45,78
2.7,-0.3,78
2.7,-0.15,68
2.7,0.0,78
2.7,0.15,49
2.7,0.3,39
2.7,0.45,70
2.7,0.6,70
2.7,0.75,71
2.7,0.9,60
2.7,1.05,87
2.7,1.2,87
2.7,1.35,87
2.7,1.5,124
2.85,-1.5,67
2.85,-1.35,67
2.85,-1.2,67
2.85,-1.05,67
2.85,-0.9,89
2.85,-0.75,89
2.85,-0.6,89
2.85,-0.45,78
2.85,-0.3,78
2.85,-0.15,78
2.85,0.0,68
2.85,0.15,49
2.85,0.3,40
2.85,0.45,70
2.85,0.6,80
2.85,0.75,81
2.85,0.9,101
2.85,1.05,97
2.85,1.2,97
2.85,1.35,96
2.85,1.5,111
3.0,-1.5,76
3.0,-1.35,76
3.0,-1.2,78
3.0,-1.05,79
3.0,-0.9,79
3.0,-0.75,79
3.0,-0.6,89
3.0,-0.45,89
3.0,-0.3,78
3.0,-0.15,68
3.0,0.0,107
3.0,0.15,88
3.0,0.3,78
3.0,0.45,67
3.0,0.6,109
3.0,0.75,119
3.0,0.9,129
3.0,1.05,118
3.0,1.2,115
3.0,1.35,113
3.0,1.5,113
3.15,-1.5,76
3.15,-1.35,69
3.15,-1.2,69
3.15,-1.05,69
3.15,-0.9,69
3.15,-0.75,69
3.15,-0.6,69
3.15,-0.45,69
3.15,-0.3,78
3.15,-0.15,87
3.15,0.0,144
3.15,0.15,145
3.15,0.3,134
3.15,0.45,116
3.15,0.6,144
3.15,0.75,176
3.15,0.9,195
3.15,1.05,165
3.15,1.2,173
3.15,1.35,150
3.15,1.5,149
3.3,-1.5,76
3.3,-1.35,69
3.3,-1.2,69
3.3,-1.05,69
3.3,-0.9,59
3.3,-0.75,59
3.3,-0.6,59
3.3,-0.45,50
3.3,-0.3,50
3.3,-0.15,78
3.3,0.0,144
3.3,0.15,97
3.3,0.3,145
3.3,0.45,145
3.3,0.6,146
3.3,0.75,163
3.3,0.9,154
3.3,1.05,153
3.3,1.2,193
3.3,1.35,193
3.3,1.5,200
3.45,-1.5,50
3.45,-1.35,50
3.45,-1.2,50
3.45,-1.05,59
3.45,-0.9,59
3.45,-0.75,59
3.45,-0.6,50
3.45,-0.45,50
3.45,-0.3,50
3.45,-0.15,78
3.45,0.0,116
3.45,0.15,155
3.45,0.3,126
3.45,0.45,183
3.45,0.6,192
3.45,0.75,182
3.45,0.9,182
3.45,1.05,181
3.45,1.2,193
3.45,1.35,181
3.45,1.5,198
3.6,-1.5,41
3.6,-1.35,50
3.6,-1.2,50
3.6,-1.05,50
3.6,-0.9,50
3.6,-0.75,50
3.6,-0.6,68
3.6,-0.45,77
3.6,-0.3,68
3.6,-0.15,78
3.6,0.0,59
3.6,0.15,78
3.6,0.3,164
3.6,0.45,255
3.6,0.6,211
3.6,0.75,200
3.6,0.9,182
3.6,1.05,191
3.6,1.2,190
3.6,1.35,190
3.6,1.5,190
3.75,-1.5,41
3.75,-1.35,41
3.75,-1.2,41
3.75,-1.05,41
3.75,-0.9,50
3.75,-0.75,58
3.75,-0.6,58
3.75,-0.45,58
3.75,-0.3,68
3.75,-0.15,59
3.75,0.0,49
3.75,0.15,78
3.75,0.3,145
3.75,0.45,164
3.75,0.6,183
3.75,0.75,182
3.75,0.9,190
3.75,1.05,190
3.75,1.2,190
3.75,1.35,190
3.75,1.5,190
3.9,-1.5,31
3.9,-1.35,31
3.9,-1.2,31
3.9,-1.05,40
3.9,-0.9,40
3.9,-0.75,40
3.9,-0.6,58
3.9,-0.45,76
3.9,-0.3,39
3.9,-0.15,59
3.9,0.0,68
3.9,0.15,68
3.9,0.3,164
3.9,0.45,255
3.9,0.6,220
3.9,0.75,219
3.9,0.9,199
3.9,1.05,172
3.9,1.2,159
3.9,1.35,158
3.9,1.5,158
4.05,-1.5,30
4.05,-1.35,30
4.05,-1.2,31
4.05,-1.05,31
4.05,-0.9,31
4.05,-0.75,67
4.05,-0.6,56
4.05,-0.45,57
4.05,-0.3,68
4.05,-0.15,68
4.05,0.0,68
4.05,0.15,183
4.05,0.3,221
4.05,0.45,202
4.05,0.6,183
4.05,0.75,182
4.05,0.9,172
4.05,1.05,150
4.05,1.2,157
4.05,1.35,157
4.05,1.5,131
4.2,-1.5,39
4.2,-1.35,39
4.2,-1.2,19
4.2,-1.05,19
4.2,-0.9,29
4.2,-0.75,29
4.2,-0.6,83
4.2,-0.45,86
4.2,-0.3,86
4.2,-0.15,78
4.2,0.0,126
4.2,0.15,116
4.2,0.3,212
4.2,0.45,231
4.2,0.6,201
4.2,0.75,144
4.2,0.9,123
4.2,1.05,122
4.2,1.2,167
4.2,1.35,167
4.2,1.5,167
4.35,-1.5,39
4.35,-1.35,39
4.35,-1.2,29
4.35,-1.05,39
4.35,-0.9,39
4.35,-0.75,30
4.35,-0.6,30
4.35,-0.45,30
4.35,-0.3,58
4.35,-0.15,49
4.35,0.0,87
4.35,0.15,59
4.35,0.3,117
4.35,0.45,203
4.35,0.6,221
4.35,0.75,200
4.35,0.9,224
4.35,1.05,210
4.35,1.2,178
4.35,1.35,178
4.35,1.5,178
4.5,-1.5,81
4.5,-1.35,49
4.5,-1.2,49
4.5,-1.05,49
4.5,-0.9,49
4.5,-0.75,40
4.5,-0.6,67
4.5,-0.45,67
4.5,-0.3,58
4.5,-0.15,59
4.5,0.0,30
4.5,0.15,59
4.5,0.3,97
4.5,0.45,165
4.5,0.6,203
4.5,0.75,162
4.5,0.9,153
4.5,1.05,161
4.5,1.2,188
4.5,1.35,176
4.5,1.5,176
4.65,-1.5,109
4.65,-1.35,109
4.65,-1.2,108
4.65,-1.05,70
4.65,-0.9,70
4.65,-0.75,40
4.65,-0.6,67
4.65,-0.45,67
4.65,-0.3,68
4.65,-0.15,154
4.65,0.0,116
4.65,0.15,78
4.65,0.3,69
4.65,0.45,118
4.65,0.6,125
4.65,0.75,173
4.65,0.9,171
4.65,1.05,171
4.65,1.2,170
4.65,1.35,158
4.65,1.5,167
4.8,-1.5,126
4.8,-1.35,107
4.8,-1.2,107
4.8,-1.05,107
4.8,-0.9,98
4.8,-0.75,98
4.8,-0.6,97
4.8,-0.45,134
4.8,-0.3,68
4.8,-0.15,145
4.8,0.0,107
4.8,0.15,78
4.8,0.3,30
4.8,0.45,109
4.8,0.6,164
4.8,0.75,164
4.8,0.9,181
4.8,1.05,169
4.8,1.2,168
4.8,1.35,141
4.8,1.5,141
4.95,-1.5,134
4.95,-1.35,163
4.95,-1.2,153
4.95,-1.05,153
4.95,-0.9,181
4.95,-0.75,181
4.95,-0.6,126
4.95,-0.45,135
4.95,-0.3,134
4.95,-0.15,49
4.95,0.0,78
4.95,0.15,68
4.95,0.3,97
4.95,0.45,156
4.95,0.6,164
4.95,0.75,117
4.95,0.9,116
4.95,1.05,107
4.95,1.2,106
4.95,1.35,115
4.95,1.5,105
5.1,-1.5,230
5.1,-1.35,255
5.1,-1.2,255
5.1,-1.05,208
5.1,-0.9,201
5.1,-0.75,201
5.1,-0.6,203
5.1,-0.45,174
5.1,-0.3,174
5.1,-0.15,163
5.1,0.0,97
5.1,0.15,59
5.1,0.3,135
5.1,0.45,146
5.1,0.6,154
5.1,0.75,107
5.1,0.9,106
5.1,1.05,106
5.1,1.2,96
5.1,1.35,96
5.1,1.5,96
5.25,-1.5,179
5.25,-1.35,179
5.25,-1.2,255
5.25,-1.05,255
5.25,-0.9,255
5.25,-0.75,255
5.25,-0.6,255
5.25,-0.45,251
5.25,-0.3,251
5.25,-0.15,97
5.25,0.0,126
5.25,0.15,68
5.25,0.3,97
5.25,0.45,135
5.25,0.6,126
5.25,0.75,79
5.25,0.9,69
5.25,1.05,69
5.25,1.2,104
5.25,1.35,104
5.25,1.5,104
5.4,-1.5,179
5.4,-1.35,180
5.4,-1.2,223
5.4,-1.05,224
5.4,-0.9,224
5.4,-0.75,224
5.4,-0.6,224
5.4,-0.45,203
5.4,-0.3,155
5.4,-0.15,154
5.4,0.0,107
5.4,0.15,145
5.4,0.3,78
5.4,0.45,20
5.4,0.6,11
5.4,0.75,41
5.4,0.9,78
5.4,1.05,67
5.4,1.2,67
5.4,1.35,67
5.4,1.5,66
5.55,-1.5,164
5.55,-1.35,164
5.55,-1.2,165
5.55,-1.05,165
5.55,-0.9,184
5.55,-0.75,184
5.55,-0.6,193
5.55,-0.45,203
5.55,-0.3,202
5.55,-0.15,59
5.55,0.0,40
5.55,0.15,97
5.55,0.3,97
5.55,0.45,49
5.55,0.6,58
5.55,0.75,11
5.55,0.9,50
5.55,1.05,77
5.55,1.2,50
5.55,1.35,39
5.55,1.5,49
5.7,-1.5,89
5.7,-1.35,89
5.7,-1.2,79
5.7,-1.05,79
5.7,-0.9,79
5.7,-0.75,79
5.7,-0.6,98
5.7,-0.45,107
5.7,-0.3,69
5.7,-0.15,164
5.7,0.0,49
5.7,0.15,40
5.7,0.3,77
5.7,0.45,78
5.7,0.6,67
5.7,0.75,66
5.7,0.9,65
5.7,1.05,65
5.7,1.2,96
5.7,1.35,97
5.7,1.5,120
5.85,-1.5,110
5.85,-1.35,110
5.85,-1.2,109
5.85,-1.05,69
5.85,-0.9,69
5.85,-0.75,70
5.85,-0.6,69
5.85,-0.45,60
5.85,-0.3,115
5.85,-0.15,154
5.85,0.0,59
5.85,0.15,11
5.85,0.3,49
5.85,0.45,59
5.85,0.6,68
5.85,0.75,67
5.85,0.9,66
5.85,1.05,97
5.85,1.2,97
5.85,1.35,98
5.85,1.5,90
6.0,-1.5,159
6.0,-1.35,158
6.0,-1.2,157
6.0,-1.05,156
6.0,-0.9,155
6.0,-0.75,49
6.0,-0.6,49
6.0,-0.45,58
6.0,-0.3,39
6.0,-0.15,49
6.0,0.0,40
6.0,0.15,97
6.0,0.3,87
6.0,0.45,107
6.0,0.6,59
6.0,0.75,97
6.0,0.9,97
6.0,1.05,90
6.0,1.2,90
6.0,1.35,90
6.0,1.5,90
6.15,-1.5,97
6.15,-1.35,97
6.15,-1.2,97
6.15,-1.05,97
6.15,-0.9,97
6.15,-0.75,97
6.15,-0.6,97
6.15,-0.45,107
6.15,-0.3,116
6.15,-0.15,78
6.15,0.0,116
6.15,0.15,87
6.15,0.3,68
6.15,0.45,97
6.15,0.6,87
6.15,0.75,89
6.15,0.9,90
6.15,1.05,91
6.15,1.2,91
6.15,1.35,122
6.15,1.5,113
6.3,-1.5,97
6.3,-1.35,101
6.3,-1.2,101
6.3,-1.05,102
6.3,-0.9,105
6.3,-0.75,126
6.3,-0.6,126
6.3,-0.45,126
6.3,-0.3,136
6.3,-0.15,97
6.3,0.0,116
6.3,0.15,97
6.3,0.3,145
6.3,0.45,59
6.3,0.6,98
6.3,0.75,98
6.3,0.9,88
6.3,1.05,78
6.3,1.2,85
6.3,1.35,85
6.3,1.5,85
6.45,-1.5,123
6.45,-1.35,123
6.45,-1.2,123
6.45,-1.05,122
6.45,-0.9,113
6.45,-0.75,114
6.45,-0.6,135
6.45,-0.45,146
6.45,-0.3,145
6.45,-0.15,116
6.45,0.0,97
6.45,0.15,164
6.45,0.3,183
6.45,0.45,116
6.45,0.6,87
6.45,0.75,90
6.45,0.9,88
6.45,1.05,94
6.45,1.2,112
6.45,1.35,113
6.45,1.5,86
6.6,-1.5,104
6.6,-1.35,104
6.6,-1.2,104
6.6,-1.05,104
6.6,-0.9,113
6.6,-0.75,113
6.6,-0.6,114
6.6,-0.45,162
6.6,-0.3,173
6.6,-0.15,193
6.6,0.0,107
6.6,0.15,183
6.6,0.3,255
6.6,0.45,116
6.6,0.6,78
6.6,0.75,70
6.6,0.9,112
6.6,1.05,115
6.6,1.2,124
6.6,1.35,158
6.6,1.5,158
6.75,-1.5,104
6.75,-1.35,104
6.75,-1.2,104
6.75,-1.05,104
6.75,-0.9,104
6.75,-0.75,104
6.75,-0.6,105
6.75,-0.45,106
6.75,-0.3,155
6.75,-0.15,145
6.75,0.0,68
6.75,0.15,40
6.75,0.3,154
6.75,0.45,107
6.75,0.6,107
6.75,0.75,193
6.75,0.9,194
6.75,1.05,159
6.75,1.2,160
6.75,1.35,169
6.75,1.5,168
6.9,-1.5,95
6.9,-1.35,95
6.9,-1.2,95
6.9,-1.05,95
6.9,-0.9,95
6.9,-0.75,104
6.9,-0.6,114
6.9,-0.45,115
6.9,-0.3,135
6.9,-0.15,59
6.9,0.0,97
6.9,0.15,107
6.9,0.3,87
6.9,0.45,136
6.9,0.6,136
6.9,0.75,183
6.9,0.9,164
6.9,1.05,186
6.9,1.2,186
6.9,1.35,187
6.9,1.5,187
7.05,-1.5,84
7.05,-1.35,103
7.05,-1.2,103
7.05,-1.05,103
7.05,-0.9,103
7.05,-0.75,104
7.05,-0.6,105
7.05,-0.45,96
7.05,-0.3,59
7.05,-0.15,97
7.05,0.0,78
7.05,0.15,78
7.05,0.3,126
7.05,0.45,164
7.05,0.6,174
7.05,0.75,183
7.05,0.9,146
7.05,1.05,193
7.05,1.2,194
7.05,1.35,233
7.05,1.5,198
7.2,-1.5,38
7.2,-1.35,38
7.2,-1.2,38
7.2,-1.05,38
7.2,-0.9,47
7.2,-0.75,48
7.2,-0.6,48
7.2,-0.45,39
7.2,-0.3,78
7.2,-0.15,59
7.2,0.0,59
7.2,0.15,58
7.2,0.3,49
7.2,0.45,68
7.2,0.6,107
7.2,0.75,164
7.2,0.9,166
7.2,1.05,168
7.2,1.2,195
7.2,1.35,195
7.2,1.5,198
7.35,-1.5,29
7.35,-1.35,29
7.35,-1.2,29
7.35,-1.05,29
7.35,-0.9,20
7.35,-0.75,38
7.35,-0.6,29
7.35,-0.45,49
7.35,-0.3,49
7.35,-0.15,49
7.35,0.0,30
7.35,0.15,11
7.35,0.3,1
7.35,0.45,40
7.35,0.6,127
7.35,0.75,137
7.35,0.9,214
7.35,1.05,195
7.35,1.2,196
7.35,1.35,196
7.35,1.5,196
7.5,-1.5,10
7.5,-1.35,10
7.5,-1.2,10
7.5,-1.05,10
7.5,-0.9,29
7.5,-0.75,29
7.5,-0.6,39
7.5,-0.45,40
7.5,-0.3,30
7.5,-0.15,40
7.5,0.0,59
7.5,0.15,59
7.5,0.3,0
7.5,0.45,97
7.5,0.6,175
7.5,0.75,176
7.5,0.9,185
7.5,1.05,216
7.5,1.2,162
7.5,1.35,162
7.5,1.5,182
7.65,-1.5,0
7.65,-1.35,10
7.65,-1.2,10
7.65,-1.05,11
7.65,-0.9,20
7.65,-0.75,20
7.65,-0.6,20
7.65,-0.45,20
7.65,-0.3,20
7.65,-0.15,40
7.65,0.0,68
7.65,0.15,126
7.65,0.3,97
7.65,0.45,59
7.65,0.6,118
7.65,0.75,155
7.65,0.9,181
7.65,1.05,162
7.65,1.2,193
7.65,1.35,183
7.65,1.5,182
7.8,-1.5,19
7.8,-1.35,19
7.8,-1.2,20
7.8,-1.05,20
7.8,-0.9,20
7.8,-0.75,20
7.8,-0.6,20
7.8,-0.45,20
7.8,-0.3,68
7.8,-0.15,88
7.8,0.0,30
7.8,0.15,49
7.8,0.3,126
7.8,0.45,164
7.8,0.6,78
7.8,0.75,117
7.8,0.9,126
7.8,1.05,132
7.8,1.2,104
7.8,1.35,142
7.8,1.5,143
7.95,-1.5,20
7.95,-1.35,20
7.95,-1.2,10
7.95,-1.05,10
7.95,-0.9,0
7.95,-0.75,0
7.95,-0.6,1
7.95,-0.45,58
7.95,-0.3,78
7.95,-0.15,107
7.95,0.0,0
7.95,0.15,49
7.95,0.3,126
7.95,0.45,106
7.95,0.6,76
7.95,0.75,1
7.95,0.9,104
7.95,1.05,104
7.95,1.2,71
7.95,1.35,43
7.95,1.5,44
8.1,-1.5,10
8.1,-1.35,19
8.1,-1.2,19
8.1,-1.05,19
8.1,-0.9,20
8.1,-0.75,20
8.1,-0.6,20
8.1,-0.45,20
8.1,-0.3,78
8.1,-0.15,116
8.1,0.0,126
8.1,0.15,126
8.1,0.3,68
8.1,0.45,87
8.1,0.6,10
8.1,0.75,1
8.1,0.9,0
8.1,1.05,10
8.1,1.2,10
8.1,1.35,40
8.1,1.5,41
8.25,-1.5,37
8.25,-1.35,47
8.25,-1.2,48
8.25,-1.05,48
8.25,-0.9,48
8.25,-0.75,48
8.25,-0.6,49
8.25,-0.45,49
8.25,-0.3,30
8.25,-0.15,40
8.25,0.0,154
8.25,0.15,116
8.25,0.3,40
8.25,0.45,0
8.25,0.6,0
8.25,0.75,0
8.25,0.9,0
8.25,1.05,0
8.25,1.2,0
8.25,1.35,0
8.25,1.5,0
8.4,-1.5,89
8.4,-1.35,88
8.4,-1.2,88
8.4,-1.05,87
8.4,-0.9,87
8.4,-0.75,38
8.4,-0.6,39
8.4,-0.45,49
8.4,-0.3,68
8.4,-0.15,30
8.4,0.0,97
8.4,0.15,107
8.4,0.3,69
8.4,0.45,96
8.4,0.6,85
8.4,0.75,20
8.4,0.9,18
8.4,1.05,0
8.4,1.2,0
8.4,1.35,0
8.4,1.5,0
8.55,-1.5,89
8.55,-1.35,89
8.55,-1.2,89
8.55,-1.05,98
8.55,-0.9,88
8.55,-0.75,88
8.55,-0.6,98
8.55,-0.45,58
8.55,-0.3,68
8.55,-0.15,59
8.55,0.0,59
8.55,0.15,59
8.55,0.3,107
8.55,0.45,87
8.55,0.6,86
8.55,0.75,83
8.55,0.9,19
8.55,1.05,18
8.55,1.2,18
8.55,1.35,18
8.55,1.5,0
8.7,-1.5,151
8.7,-1.35,161
8.7,-1.2,193
8.7,-1.05,193
8.7,-0.9,193
8.7,-0.75,193
8.7,-0.6,193
8.7,-0.45,154
8.7,-0.3,135
8.7,-0.15,49
8.7,0.0,11
8.7,0.15,30
8.7,0.3,97
8.7,0.45,96
8.7,0.6,39
8.7,0.75,38
8.7,0.9,37
8.7,1.05,28
8.7,1.2,27
8.7,1.35,27
8.7,1.5,18
8.85,-1.5,177
8.85,-1.35,177
8.85,-1.2,178
8.85,-1.05,179
8.85,-0.9,182
8.85,-0.75,183
8.85,-0.6,193
8.85,-0.45,175
8.85,-0.3,174
8.85,-0.15,116
8.85,0.0,49
8.85,0.15,49
8.85,0.3,39
8.85,0.45,39
8.85,0.6,48
8.85,0.75,48
8.85,0.9,47
8.85,1.05,37
8.85,1.2,58
8.85,1.35,58
8.85,1.5,32
9.0,-1.5,221
9.0,-1.35,221
9.0,-1.2,220
9.0,-1.05,220
9.0,-0.9,191
9.0,-0.75,191
9.0,-0.6,201
9.0,-0.45,202
9.0,-0.3,183
9.0,-0.15,154
9.0,0.0,116
9.0,0.15,78
9.0,0.3,68
9.0,0.45,20
9.0,0.6,40
9.0,0.75,49
9.0,0.9,68
9.0,1.05,75
9.0,1.2,76
9.0,1.35,76
9.0,1.5,77
9.15,-1.5,183
9.15,-1.35,137
9.15,-1.2,137
9.15,-1.05,174
9.15,-0.9,174
9.15,-0.75,174
9.15,-0.6,193
9.15,-0.45,191
9.15,-0.3,174
9.15,-0.15,164
9.15,0.0,87
9.15,0.15,39
9.15,0.3,20
9.15,0.45,69
9.15,0.6,77
9.15,0.75,68
9.15,0.9,77
9.15,1.05,121
9.15,1.2,111
9.15,1.35,112
9.15,1.5,112
9.3,-1.5,129
9.3,-1.35,129
9.3,-1.2,163
9.3,-1.05,163
9.3,-0.9,174
9.3,-0.75,135
9.3,-0.6,145
9.3,-0.45,98
9.3,-0.3,97
9.3,-0.15,87
9.3,0.0,39
9.3,0.15,126
9.3,0.3,183
9.3,0.45,126
9.3,0.6,144
9.3,0.75,125
9.3,0.9,124
9.3,1.05,133
9.3,1.2,141
9.3,1.35,141
9.3,1.5,141
9.45,-1.5,129
9.45,-1.35,129
9.45,-1.2,129
9.45,-1.05,129
9.45,-0.9,128
9.45,-0.75,77
9.45,-0.6,69
9.45,-0.45,88
9.45,-0.3,88
9.45,-0.15,78
9.45,0.0,117
9.45,0.15,194
9.45,0.3,203
9.45,0.45,183
9.45,0.6,192
9.45,0.75,182
9.45,0.9,208
9.45,1.05,154
9.45,1.2,153
9.45,1.35,153
9.45,1.5,151
9.6,-1.5,137
9.6,-1.35,166
9.6,-1.2,166
9.6,-1.05,166
9.6,-0.9,138
9.6,-0.75,137
9.6,-0.6,136
9.6,-0.45,98
9.6,-0.3,194
9.6,-0.15,184
9.6,0.0,174
9.6,0.15,212
9.6,0.3,231
9.6,0.45,223
9.6,0.6,220
9.6,0.75,210
9.6,0.9,209
9.6,1.05,209
9.6,1.2,155
9.6,1.35,154
9.6,1.5,161
9.75,-1.5,166
9.75,-1.35,166
9.75,-1.2,166
9.75,-1.05,127
9.75,-0.9,138
9.75,-0.75,138
9.75,-0.6,220
9.75,-0.45,249
9.75,-0.3,250
9.75,-0.15,252
9.75,0.0,251
9.75,0.15,246
9.75,0.3,200
9.75,0.45,126
9.75,0.6,183
9.75,0.75,183
9.75,0.9,182
9.75,1.05,190
9.75,1.2,192
9.75,1.35,192
9.75,1.5,192
9.9,-1.5,177
9.9,-1.35,217
9.9,-1.2,217
9.9,-1.05,216
9.9,-0.9,178
9.9,-0.75,228
9.9,-0.6,229
9.9,-0.45,192
9.9,-0.3,231
9.9,-0.15,203
9.9,0.0,213
9.9,0.15,180
9.9,0.3,134
9.9,0.45,137
9.9,0.6,165
9.9,0.75,136
9.9,0.9,174
9.9,1.05,174
9.9,1.2,174
9.9,1.35,174
9.9,1.5,212
10.05,-1.5,218
10.05,-1.35,218
10.05,-1.2,217
10.05,-1.05,216
10.05,-0.9,215
10.05,-0.75,229
10.05,-0.6,229
10.05,-0.45,229
10.05,-0.3,191
10.05,-0.15,201
10.05,0.0,60
10.05,0.15,58
10.05,0.3,163
10.05,0.45,203
10.05,0.6,213
10.05,0.75,195
10.05,0.9,198
10.05,1.05,177
10.05,1.2,177
10.05,1.35,176
10.05,1.5,176
10.2,-1.5,219
10.2,-1.35,219
10.2,-1.2,219
10.2,-1.05,219
10.2,-0.9,218
10.2,-0.75,229
10.2,-0.6,229
10.2,-0.45,185
10.2,-0.3,145
10.2,-0.15,142
10.2,0.0,87
10.2,0.15,96
10.2,0.3,98
10.2,0.45,129
10.2,0.6,168
10.2,0.75,178
10.2,0.9,179
10.2,1.05,198
10.2,1.2,215
10.2,1.35,214
10.2,1.5,213
10.35,-1.5,221
10.35,-1.35,221
10.35,-1.2,221
10.35,-1.05,221
10.35,-0.9,221
10.35,-0.75,220
10.35,-0.6,219
10.35,-0.45,187
10.35,-0.3,146
10.35,-0.15,79
10.35,0.0,106
10.35,0.15,125
10.35,0.3,117
10.35,0.45,147
10.35,0.6,149
10.35,0.75,149
10.35,0.9,148
10.35,1.05,148
10.35,1.2,184
10.35,1.35,192
10.35,1.5,201
10.5,-1.5,202
10.5,-1.35,203
10.5,-1.2,204
10.5,-1.05,205
10.5,-0.9,205
10.5,-0.75,205
10.5,-0.6,212
10.5,-0.45,217
10.5,-0.3,121
10.5,-0.15,77
10.5,0.0,97
10.5,0.15,97
10.5,0.3,135
10.5,0.45,137
10.5,0.6,147
10.5,0.75,148
10.5,0.9,149
10.5,1.05,155
10.5,1.2,155
10.5,1.35,183
10.5,1.5,183
10.65,-1.5,202
10.65,-1.35,202
10.65,-1.2,202
10.65,-1.05,202
10.65,-0.9,201
10.65,-0.75,209
10.65,-0.6,163
10.65,-0.45,160
10.65,-0.3,147
10.65,-0.15,81
10.65,0.0,77
10.65,0.15,86
10.65,0.3,133
10.65,0.45,135
10.65,0.6,127
10.65,0.75,127
10.65,0.9,145
10.65,1.05,146
10.65,1.2,154
10.65,1.35,152
10.65,1.5,142
10.8,-1.5,229
10.8,-1.35,230
10.8,-1.2,231
10.8,-1.05,231
10.8,-0.9,231
10.8,-0.75,164
10.8,-0.6,154
10.8,-0.45,151
10.8,-0.3,147
10.8,-0.15,127
10.8,0.0,40
10.8,0.15,58
10.8,0.3,95
10.8,0.45,132
10.8,0.6,123
10.8,0.75,124
10.8,0.9,125
10.8,1.05,126
10.8,1.2,153
10.8,1.35,154
10.8,1.5,154
10.95,-1.5,220
10.95,-1.35,221
10.95,-1.2,221
10.95,-1.05,176
10.95,-0.9,175
10.95,-0.75,183
10.95,-0.6,180
10.95,-0.45,179
10.95,-0.3,146
10.95,-0.15,89
10.95,0.0,49
10.95,0.15,30
10.95,0.3,39
10.95,0.45,76
10.95,0.6,95
10.95,0.75,95
10.95,0.9,123
10.95,1.05,124
10.95,1.2,125
10.95,1.35,152
10.95,1.5,153
11.1,-1.5,171
11.1,-1.35,172
11.1,-1.2,175
11.1,-1.05,175
11.1,-0.9,174
11.1,-0.75,219
11.1,-0.6,215
11.1,-0.45,186
11.1,-0.3,146
11.1,-0.15,106
11.1,0.0,78
11.1,0.15,78
11.1,0.3,77
11.1,0.45,59
11.1,0.6,77
11.1,0.75,96
11.1,0.9,95
11.1,1.05,95
11.1,1.2,123
11.1,1.35,125
11.1,1.5,125
11.25,-1.5,202
11.25,-1.35,163
11.25,-1.2,204
11.25,-1.05,203
11.25,-0.9,175
11.25,-0.75,173
11.25,-0.6,170
11.25,-0.45,139
11.25,-0.3,137
11.25,-0.15,97
11.25,0.0,68
11.25,0.15,50
11.25,0.3,60
11.25,0.45,60
11.25,0.6,59
11.25,0.75,59
11.25,0.9,98
11.25,1.05,125
11.25,1.2,125
11.25,1.35,124
11.25,1.5,125
11.4,-1.5,176
11.4,-1.35,177
11.4,-1.2,205
11.4,-1.05,204
11.4,-0.9,202
11.4,-0.75,171
11.4,-0.6,141
11.4,-0.45,139
11.4,-0.3,137
11.4,-0.15,99
11.4,0.0,88
11.4,0.15,61
11.4,0.3,61
11.4,0.45,70
11.4,0.6,69
11.4,0.75,68
11.4,0.9,59
11.4,1.05,59
11.4,1.2,89
11.4,1.35,117
11.4,1.5,125
11.55,-1.5,169
11.55,-1.35,176
11.55,-1.2,176
11.55,-1.05,173
11.55,-0.9,172
11.55,-0.75,171
11.55,-0.6,168
11.55,-0.45,138
11.55,-0.3,101
11.55,-0.15,91
11.55,0.0,90
11.55,0.15,89
11.55,0.3,62
11.55,0.45,70
11.55,0.6,69
11.55,0.75,69
11.55,0.9,69
11.55,1.05,68
11.55,1.2,58
11.55,1.35,54
11.55,1.5,77
11.7,-1.5,186
11.7,-1.35,150
11.7,-1.2,191
11.7,-1.05,191
11.7,-0.9,190
11.7,-0.75,170
11.7,-0.6,168
11.7,-0.45,137
11.7,-0.3,119
11.7,-0.15,99
11.7,0.0,89
11.7,0.15,96
11.7,0.3,95
11.7,0.45,69
11.7,0.6,69
11.7,0.75,68
11.7,0.9,67
11.7,1.05,67
11.7,1.2,55
11.7,1.35,54
11.7,1.5,54
11.85,-1.5,137
11.85,-1.35,121
11.85,-1.2,132
11.85,-1.05,146
11.85,-0.9,145
11.85,-0.75,141
11.85,-0.6,140
11.85,-0.45,138
11.85,-0.3,137
11.85,-0.15,137
11.85,0.0,115
11.85,0.15,95
11.85,0.3,94
11.85,0.45,69
11.85,0.6,68
11.85,0.75,68
11.85,0.9,57
11.85,1.05,55
11.85,1.2,54
11.85,1.35,44
11.85,1.5,44
12.0,-1.5,129
12.0,-1.35,131
12.0,-1.2,132
12.0,-1.05,93
12.0,-0.9,132
12.0,-0.75,141
12.0,-0.6,140
12.0,-0.45,138
12.0,-0.3,136
12.0,-0.15,134
12.0,0.0,137
12.0,0.15,137
12.0,0.3,112
12.0,0.45,78
12.0,0.6,58
12.0,0.75,57
12.0,0.9,55
12.0,1.05,54
12.0,1.2,53
12.0,1.35,53
12.0,1.5,43
12.15,-1.5,128
12.15,-1.35,129
12.15,-1.2,131
12.15,-1.05,129
12.15,-0.9,130
12.15,-0.75,141
12.15,-0.6,139
12.15,-0.45,137
12.15,-0.3,135
12.15,-0.15,133
12.15,0.0,131
12.15,0.15,130
12.15,0.3,102
12.15,0.45,67
12.15,0.6,66
12.15,0.75,64
12.15,0.9,63
12.15,1.05,53
12.15,1.2,53
12.15,1.35,53
12.15,1.5,52
12.3,-1.5,126
12.3,-1.35,128
12.3,-1.2,126
12.3,-1.05,127
12.3,-0.9,128
12.3,-0.75,128
12.3,-0.6,128
12.3,-0.45,136
12.3,-0.3,125
12.3,-0.15,122
12.3,0.0,120
12.3,0.15,93
12.3,0.3,100
12.3,0.45,99
12.3,0.6,99
12.3,0.75,63
12.3,0.9,63
12.3,1.05,61
12.3,1.2,61
12.3,1.35,61
12.3,1.5,52
12.45,-1.5,125
12.45,-1.35,123
12.45,-1.2,124
12.45,-1.05,125
12.45,-0.9,126
12.45,-0.75,127
12.45,-0.6,126
12.45,-0.45,126
12.45,-0.3,123
12.45,-0.15,121
12.45,0.0,118
12.45,0.15,92
12.45,0.3,99
12.45,0.45,98
12.45,0.6,61
12.45,0.75,61
12.45,0.9,61
12.45,1.05,61
12.45,1.2,61
12.45,1.35,61
12.45,1.5,42
12.6,-1.5,120
12.6,-1.35,121
12.6,-1.2,122
12.6,-1.05,89
12.6,-0.9,91
12.6,-0.75,92
12.6,-0.6,92
12.6,-0.45,91
12.6,-0.3,122
12.6,-0.15,119
12.6,0.0,116
12.6,0.15,91
12.6,0.3,90
12.6,0.45,87
12.6,0.6,60
12.6,0.75,60
12.6,0.9,60
12.6,1.05,60
12.6,1.2,60
12.6,1.35,60
12.6,1.5,60
12.75,-1.5,85
12.75,-1.35,85
12.75,-1.2,85
12.75,-1.05,87
12.75,-0.9,88
12.75,-0.75,89
12.75,-0.6,89
12.75,-0.45,88
12.75,-0.3,87
12.75,-0.15,118
12.75,0.0,116
12.75,0.15,90
12.75,0.3,87
12.75,0.45,86
12.75,0.6,85
12.75,0.75,60
12.75,0.9,60
12.75,1.05,60
12.75,1.2,60
12.75,1.35,60
12.75,1.5,60
12.9,-1.5,85
12.9,-1.35,85
12.9,-1.2,85
12.9,-1.05,85
12.9,-0.9,86
12.9,-0.75,87
12.9,-0.6,87
12.9,-0.45,86
12.9,-0.3,85
12.9,-0.15,83
12.9,0.0,115
12.9,0.15,88
12.9,0.3,86
12.9,0.45,85
12.9,0.6,84
12.9,0.75,60
12.9,0.9,60
12.9,1.05,60
12.9,1.2,60
12.9,1.35,60
12.9,1.5,60
13.05,-1.5,85
13.05,-1.35,85
13.05,-1.2,85
13.05,-1.05,85
13.05,-0.9,85
13.05,-0.75,85
13.05,-0.6,85
13.05,-0.45,84
13.05,-0.3,83
13.05,-0.15,82
13.05,0.0,79
13.05,0.15,87
13.05,0.3,86
13.05,0.45,85
13.05,0.6,84
13.05,0.75,60
13.05,0.9,60
13.05,1.05,60
13.05,1.2,60
13.05,1.35,60
13.05,1.5,60
