-3.0,-1.5,117
-3.0,-1.35,117
-3.0,-1.2,117
-3.0,-1.05,118
-3.0,-0.9,118
-3.0,-0.75,118
-3.0,-0.6,119
-3.0,-0.45,119
-3.0,-0.3,119
-3.0,-0.15,119
-3.0,0.0,119
-3.0,0.15,119
-3.0,0.3,119
-3.0,0.45,119
-3.0,0.6,119
-3.0,0.75,119
-3.0,0.9,119
-3.0,1.05,119
-3.0,1.2,119
-3.0,1.35,119
-3.0,1.5,119
-2.85,-1.5,117
-2.85,-1.35,117
-2.85,-1.2,118
-2.85,-1.05,118
-2.85,-0.9,119
-2.85,-0.75,119
-2.85,-0.6,119
-2.85,-0.45,120
-2.85,-0.3,120
-2.85,-0.15,120
-2.85,0.0,120
-2.85,0.15,120
-2.85,0.3,120
-2.85,0.45,120
-2.85,0.6,120
-2.85,0.75,120
-2.85,0.9,120
-2.85,1.05,120
-2.85,1.2,119
-2.85,1.35,119
-2.85,1.5,119
-2.7,-1.5,109
-2.7,-1.35,118
-2.7,-1.2,118
-2.7,-1.05,119
-2.7,-0.9,119
-2.7,-0.75,120
-2.7,-0.6,120
-2.7,-0.45,120
-2.7,-0.3,120
-2.7,-0.15,121
-2.7,0.0,121
-2.7,0.15,121
-2.7,0.3,121
-2.7,0.45,121
-2.7,0.6,121
-2.7,0.75,121
-2.7,0.9,120
-2.7,1.05,120
-2.7,1.2,120
-2.7,1.35,120
-2.7,1.5,119
-2.55,-1.5,109
-2.55,-1.35,118
-2.55,-1.2,119
-2.55,-1.05,119
-2.55,-0.9,120
-2.55,-0.75,120
-2.55,-0.6,121
-2.55,-0.45,121
-2.55,-0.3,121
-2.55,-0.15,121
-2.55,0.0,121
-2.55,0.15,121
-2.55,0.3,122
-2.55,0.45,121
-2.55,0.6,121
-2.55,0.75,121
-2.55,0.9,121
-2.55,1.05,121
-2.55,1.2,121
-2.55,1.35,120
-2.55,1.5,120
-2.4,-1.5,120
-2.4,-1.35,121
-2.4,-1.2,119
-2.4,-1.05,120
-2.4,-0.9,120
-2.4,-0.75,121
-2.4,-0.6,121
-2.4,-0.45,121
-2.4,-0.3,122
-2.4,-0.15,122
-2.4,0.0,122
-2.4,0.15,122
-2.4,0.3,122
-2.4,0.45,122
-2.4,0.6,122
-2.4,0.75,122
-2.4,0.9,122
-2.4,1.05,122
-2.4,1.2,121
-2.4,1.35,121
-2.4,1.5,121
-2.25,-1.5,120
-2.25,-1.35,121
-2.25,-1.2,122
-2.25,-1.05,122
-2.25,-0.9,121
-2.25,-0.75,121
-2.25,-0.6,122
-2.25,-0.45,122
-2.25,-0.3,122
-2.25,-0.15,123
-2.25,0.0,123
-2.25,0.15,123
-2.25,0.3,123
-2.25,0.45,123
-2.25,0.6,123
-2.25,0.75,123
-2.25,0.9,122
-2.25,1.05,122
-2.25,1.2,122
-2.25,1.35,122
-2.25,1.5,121
-2.1,-1.5,121
-2.1,-1.35,121
-2.1,-1.2,122
-2.1,-1.05,123
-2.1,-0.9,123
-2.1,-0.75,124
-2.1,-0.6,122
-2.1,-0.45,123
-2.1,-0.3,123
-2.1,-0.15,123
-2.1,0.0,123
-2.1,0.15,123
-2.1,0.3,124
-2.1,0.45,123
-2.1,0.6,123
-2.1,0.75,123
-2.1,0.9,123
-2.1,1.05,123
-2.1,1.2,123
-2.1,1.35,122
-2.1,1.5,122
-1.95,-1.5,121
-1.95,-1.35,121
-1.95,-1.2,122
-1.95,-1.05,123
-1.95,-0.9,123
-1.95,-0.75,124
-1.95,-0.6,125
-1.95,-0.45,123
-1.95,-0.3,124
-1.95,-0.15,124
-1.95,0.0,124
-1.95,0.15,124
-1.95,0.3,124
-1.95,0.45,124
-1.95,0.6,124
-1.95,0.75,124
-1.95,0.9,124
-1.95,1.05,123
-1.95,1.2,134
-1.95,1.35,133
-1.95,1.5,133
-1.8,-1.5,121
-1.8,-1.35,121
-1.8,-1.2,122
-1.8,-1.05,123
-1.8,-0.9,123
-1.8,-0.75,124
-1.8,-0.6,125
-1.8,-0.45,125
-1.8,-0.3,124
-1.8,-0.15,124
-1.8,0.0,124
-1.8,0.15,125
-1.8,0.3,125
-1.8,0.45,125
-1.8,0.6,124
-1.8,0.75,124
-1.8,0.9,135
-1.8,1.05,134
-1.8,1.2,134
-1.8,1.35,134
-1.8,1.5,133
-1.65,-1.5,121
-1.65,-1.35,121
-1.65,-1.2,122
-1.65,-1.05,123
-1.65,-0.9,123
-1.65,-0.75,124
-1.65,-0.6,125
-1.65,-0.45,125
-1.65,-0.3,126
-1.65,-0.15,126
-1.65,0.0,125
-1.65,0.15,125
-1.65,0.3,125
-1.65,0.45,125
-1.65,0.6,136
-1.65,0.75,135
-1.65,0.9,135
-1.65,1.05,135
-1.65,1.2,134
-1.65,1.35,134
-1.65,1.5,133
-1.5,-1.5,123
-1.5,-1.35,121
-1.5,-1.2,122
-1.5,-1.05,123
-1.5,-0.9,123
-1.5,-0.75,124
-1.5,-0.6,125
-1.5,-0.45,125
-1.5,-0.3,126
-1.5,-0.15,126
-1.5,0.0,127
-1.5,0.15,127
-1.5,0.3,127
-1.5,0.45,136
-1.5,0.6,136
-1.5,0.75,135
-1.5,0.9,135
-1.5,1.05,135
-1.5,1.2,134
-1.5,1.35,134
-1.5,1.5,134
-1.35,-1.5,122
-1.35,-1.35,123
-1.35,-1.2,124
-1.35,-1.05,122
-1.35,-0.9,123
-1.35,-0.75,124
-1.35,-0.6,124
-1.35,-0.45,125
-1.35,-0.3,128
-1.35,-0.15,129
-1.35,0.0,129
-1.35,0.15,137
-1.35,0.3,127
-1.35,0.45,136
-1.35,0.6,136
-1.35,0.75,135
-1.35,0.9,135
-1.35,1.05,135
-1.35,1.2,134
-1.35,1.35,134
-1.35,1.5,134
-1.2,-1.5,83
-1.2,-1.35,83
-1.2,-1.2,123
-1.2,-1.05,124
-1.2,-0.9,125
-1.2,-0.75,126
-1.2,-0.6,127
-1.2,-0.45,127
-1.2,-0.3,127
-1.2,-0.15,128
-1.2,0.0,128
-1.2,0.15,137
-1.2,0.3,137
-1.2,0.45,137
-1.2,0.6,136
-1.2,0.75,135
-1.2,0.9,135
-1.2,1.05,135
-1.2,1.2,134
-1.2,1.35,134
-1.2,1.5,134
-1.05,-1.5,82
-1.05,-1.35,83
-1.05,-1.2,124
-1.05,-1.05,127
-1.05,-0.9,127
-1.05,-0.75,166
-1.05,-0.6,167
-1.05,-0.45,127
-1.05,-0.3,127
-1.05,-0.15,127
-1.05,0.0,137
-1.05,0.15,137
-1.05,0.3,137
-1.05,0.45,137
-1.05,0.6,137
-1.05,0.75,135
-1.05,0.9,135
-1.05,1.05,135
-1.05,1.2,134
-1.05,1.35,134
-1.05,1.5,134
-0.9,-1.5,124
-0.9,-1.35,124
-0.9,-1.2,124
-0.9,-1.05,124
-0.9,-0.9,125
-0.9,-0.75,165
-0.9,-0.6,166
-0.9,-0.45,166
-0.9,-0.3,138
-0.9,-0.15,138
-0.9,0.0,136
-0.9,0.15,136
-0.9,0.3,137
-0.9,0.45,137
-0.9,0.6,137
-0.9,0.75,137
-0.9,0.9,146
-0.9,1.05,146
-0.9,1.2,134
-0.9,1.35,134
-0.9,1.5,134
-0.75,-1.5,123
-0.75,-1.35,123
-0.75,-1.2,124
-0.75,-1.05,124
-0.75,-0.9,124
-0.75,-0.75,124
-0.75,-0.6,125
-0.75,-0.45,165
-0.75,-0.3,137
-0.75,-0.15,137
-0.75,0.0,138
-0.75,0.15,139
-0.75,0.3,136
-0.75,0.45,136
-0.75,0.6,136
-0.75,0.75,146
-0.75,0.9,146
-0.75,1.05,146
-0.75,1.2,146
-0.75,1.35,146
-0.75,1.5,134
-0.6,-1.5,123
-0.6,-1.35,123
-0.6,-1.2,123
-0.6,-1.05,123
-0.6,-0.9,124
-0.6,-0.75,124
-0.6,-0.6,124
-0.6,-0.45,134
-0.6,-0.3,134
-0.6,-0.15,134
-0.6,0.0,137
-0.6,0.15,137
-0.6,0.3,147
-0.6,0.45,147
-0.6,0.6,147
-0.6,0.75,145
-0.6,0.9,145
-0.6,1.05,145
-0.6,1.2,145
-0.6,1.35,175
-0.6,1.5,134
-0.45,-1.5,122
-0.45,-1.35,122
-0.45,-1.2,123
-0.45,-1.05,123
-0.45,-0.9,123
-0.45,-0.75,123
-0.45,-0.6,124
-0.45,-0.45,134
-0.45,-0.3,134
-0.45,-0.15,134
-0.45,0.0,105
-0.45,0.15,105
-0.45,0.3,146
-0.45,0.45,147
-0.45,0.6,147
-0.45,0.75,147
-0.45,0.9,187
-0.45,1.05,145
-0.45,1.2,175
-0.45,1.35,134
-0.45,1.5,155
-0.3,-1.5,122
-0.3,-1.35,122
-0.3,-1.2,122
-0.3,-1.05,122
-0.3,-0.9,123
-0.3,-0.75,123
-0.3,-0.6,123
-0.3,-0.45,133
-0.3,-0.3,133
-0.3,-0.15,134
-0.3,0.0,104
-0.3,0.15,104
-0.3,0.3,105
-0.3,0.45,145
-0.3,0.6,145
-0.3,0.75,145
-0.3,0.9,187
-0.3,1.05,187
-0.3,1.2,176
-0.3,1.35,167
-0.3,1.5,167
-0.15,-1.5,122
-0.15,-1.35,122
-0.15,-1.2,122
-0.15,-1.05,123
-0.15,-0.9,123
-0.15,-0.75,123
-0.15,-0.6,123
-0.15,-0.45,133
-0.15,-0.3,134
-0.15,-0.15,134
-0.15,0.0,134
-0.15,0.15,134
-0.15,0.3,143
-0.15,0.45,144
-0.15,0.6,145
-0.15,0.75,145
-0.15,0.9,135
-0.15,1.05,144
-0.15,1.2,176
-0.15,1.35,157
-0.15,1.5,188
0.0,-1.5,91
0.0,-1.35,91
0.0,-1.2,92
0.0,-1.05,92
0.0,-0.9,92
0.0,-0.75,92
0.0,-0.6,92
0.0,-0.45,92
0.0,-0.3,124
0.0,-0.15,133
0.0,0.0,133
0.0,0.15,164
0.0,0.3,174
0.0,0.45,174
0.0,0.6,174
0.0,0.75,165
0.0,0.9,165
0.0,1.05,154
0.0,1.2,154
0.0,1.35,154
0.0,1.5,144
0.15,-1.5,91
0.15,-1.35,91
0.15,-1.2,92
0.15,-1.05,92
0.15,-0.9,92
0.15,-0.75,92
0.15,-0.6,92
0.15,-0.45,92
0.15,-0.3,92
0.15,-0.15,132
0.15,0.0,133
0.15,0.15,133
0.15,0.3,143
0.15,0.45,173
0.15,0.6,133
0.15,0.75,112
0.15,0.9,112
0.15,1.05,112
0.15,1.2,112
0.15,1.35,112
0.15,1.5,112
0.3,-1.5,91
0.3,-1.35,91
0.3,-1.2,92
0.3,-1.05,92
0.3,-0.9,92
0.3,-0.75,92
0.3,-0.6,92
0.3,-0.45,92
0.3,-0.3,92
0.3,-0.15,133
0.3,0.0,133
0.3,0.15,143
0.3,0.3,163
0.3,0.45,163
0.3,0.6,112
0.3,0.75,112
0.3,0.9,112
0.3,1.05,112
0.3,1.2,112
0.3,1.35,112
0.3,1.5,112
0.45,-1.5,82
0.45,-1.35,91
0.45,-1.2,92
0.45,-1.05,92
0.45,-0.9,92
0.45,-0.75,92
0.45,-0.6,92
0.45,-0.45,92
0.45,-0.3,112
0.45,-0.15,123
0.45,0.0,163
0.45,0.15,163
0.45,0.3,163
0.45,0.45,113
0.45,0.6,112
0.45,0.75,112
0.45,0.9,112
0.45,1.05,122
0.45,1.2,122
0.45,1.35,122
0.45,1.5,132
0.6,-1.5,82
0.6,-1.35,82
0.6,-1.2,82
0.6,-1.05,82
0.6,-0.9,82
0.6,-0.75,82
0.6,-0.6,102
0.6,-0.45,112
0.6,-0.3,113
0.6,-0.15,163
0.6,0.0,163
0.6,0.15,163
0.6,0.3,123
0.6,0.45,113
0.6,0.6,123
0.6,0.75,122
0.6,0.9,133
0.6,1.05,132
0.6,1.2,132
0.6,1.35,132
0.6,1.5,132
0.75,-1.5,72
0.75,-1.35,72
0.75,-1.2,61
0.75,-1.05,61
0.75,-0.9,72
0.75,-0.75,102
0.75,-0.6,102
0.75,-0.45,112
0.75,-0.3,153
0.75,-0.15,153
0.75,0.0,153
0.75,0.15,153
0.75,0.3,113
0.75,0.45,133
0.75,0.6,133
0.75,0.75,133
0.75,0.9,132
0.75,1.05,132
0.75,1.2,132
0.75,1.35,132
0.75,1.5,132
0.9,-1.5,61
0.9,-1.35,61
0.9,-1.2,61
0.9,-1.05,62
0.9,-0.9,72
0.9,-0.75,112
0.9,-0.6,102
0.9,-0.45,153
0.9,-0.3,153
0.9,-0.15,164
0.9,0.0,164
0.9,0.15,123
0.9,0.3,123
0.9,0.45,123
0.9,0.6,123
0.9,0.75,122
0.9,0.9,122
0.9,1.05,132
0.9,1.2,122
0.9,1.35,122
0.9,1.5,122
1.05,-1.5,61
1.05,-1.35,61
1.05,-1.2,61
1.05,-1.05,62
1.05,-0.9,72
1.05,-0.75,72
1.05,-0.6,82
1.05,-0.45,153
1.05,-0.3,163
1.05,-0.15,164
1.05,0.0,123
1.05,0.15,123
1.05,0.3,123
1.05,0.45,123
1.05,0.6,123
1.05,0.75,112
1.05,0.9,122
1.05,1.05,122
1.05,1.2,122
1.05,1.35,122
1.05,1.5,121
1.2,-1.5,61
1.2,-1.35,71
1.2,-1.2,71
1.2,-1.05,72
1.2,-0.9,72
1.2,-0.75,82
1.2,-0.6,82
1.2,-0.45,93
1.2,-0.3,164
1.2,-0.15,133
1.2,0.0,133
1.2,0.15,123
1.2,0.3,123
1.2,0.45,113
1.2,0.6,112
1.2,0.75,112
1.2,0.9,112
1.2,1.05,112
1.2,1.2,152
1.2,1.35,111
1.2,1.5,111
1.35,-1.5,61
1.35,-1.35,61
1.35,-1.2,62
1.35,-1.05,72
1.35,-0.9,72
1.35,-0.75,82
1.35,-0.6,92
1.35,-0.45,102
1.35,-0.3,143
1.35,-0.15,133
1.35,0.0,123
1.35,0.15,123
1.35,0.3,113
1.35,0.45,112
1.35,0.6,112
1.35,0.75,112
1.35,0.9,152
1.35,1.05,152
1.35,1.2,142
1.35,1.35,101
1.35,1.5,101
1.5,-1.5,61
1.5,-1.35,61
1.5,-1.2,61
1.5,-1.05,61
1.5,-0.9,72
1.5,-0.75,82
1.5,-0.6,102
1.5,-0.45,102
1.5,-0.3,92
1.5,-0.15,123
1.5,0.0,133
1.5,0.15,123
1.5,0.3,113
1.5,0.45,112
1.5,0.6,112
1.5,0.75,142
1.5,0.9,142
1.5,1.05,142
1.5,1.2,131
1.5,1.35,121
1.5,1.5,121
1.65,-1.5,61
1.65,-1.35,61
1.65,-1.2,61
1.65,-1.05,71
1.65,-0.9,41
1.65,-0.75,51
1.65,-0.6,72
1.65,-0.45,72
1.65,-0.3,72
1.65,-0.15,102
1.65,0.0,102
1.65,0.15,92
1.65,0.3,113
1.65,0.45,112
1.65,0.6,112
1.65,0.75,112
1.65,0.9,101
1.65,1.05,91
1.65,1.2,91
1.65,1.35,91
1.65,1.5,121
1.8,-1.5,31
1.8,-1.35,31
1.8,-1.2,31
1.8,-1.05,41
1.8,-0.9,31
1.8,-0.75,41
1.8,-0.6,41
1.8,-0.45,62
1.8,-0.3,62
1.8,-0.15,62
1.8,0.0,103
1.8,0.15,123
1.8,0.3,123
1.8,0.45,112
1.8,0.6,61
1.8,0.75,91
1.8,0.9,91
1.8,1.05,91
1.8,1.2,91
1.8,1.35,90
1.8,1.5,90
1.95,-1.5,31
1.95,-1.35,31
1.95,-1.2,31
1.95,-1.05,31
1.95,-0.9,31
1.95,-0.75,21
1.95,-0.6,31
1.95,-0.45,51
1.95,-0.3,62
1.95,-0.15,92
1.95,0.0,103
1.95,0.15,92
1.95,0.3,72
1.95,0.45,61
1.95,0.6,61
1.95,0.75,61
1.95,0.9,61
1.95,1.05,61
1.95,1.2,60
1.95,1.35,90
1.95,1.5,50
2.1,-1.5,31
2.1,-1.35,31
2.1,-1.2,31
2.1,-1.05,31
2.1,-0.9,31
2.1,-0.75,31
2.1,-0.6,41
2.1,-0.45,31
2.1,-0.3,82
2.1,-0.15,92
2.1,0.0,92
2.1,0.15,82
2.1,0.3,82
2.1,0.45,82
2.1,0.6,71
2.1,0.75,61
2.1,0.9,51
2.1,1.05,51
2.1,1.2,50
2.1,1.35,50
2.1,1.5,50
2.25,-1.5,70
2.25,-1.35,70
2.25,-1.2,60
2.25,-1.05,21
2.25,-0.9,21
2.25,-0.75,21
2.25,-0.6,21
2.25,-0.45,41
2.25,-0.3,41
2.25,-0.15,92
2.25,0.0,92
2.25,0.15,72
2.25,0.3,82
2.25,0.45,72
2.25,0.6,61
2.25,0.75,61
2.25,0.9,61
2.25,1.05,61
2.25,1.2,61
2.25,1.35,60
2.25,1.5,60
2.4,-1.5,41
2.4,-1.35,41
2.4,-1.2,71
2.4,-1.05,61
2.4,-0.9,71
2.4,-0.75,61
2.4,-0.6,41
2.4,-0.45,72
2.4,-0.3,51
2.4,-0.15,31
2.4,0.0,82
2.4,0.15,62
2.4,0.3,62
2.4,0.45,62
2.4,0.6,62
2.4,0.75,62
2.4,0.9,72
2.4,1.05,61
2.4,1.2,61
2.4,1.35,61
2.4,1.5,50
2.55,-1.5,70
2.55,-1.35,81
2.55,-1.2,81
2.55,-1.05,81
2.55,-0.9,81
2.55,-0.75,92
2.55,-0.6,72
2.55,-0.45,82
2.55,-0.3,82
2.55,-0.15,41
2.55,0.0,41
2.55,0.15,31
2.55,0.3,62
2.55,0.45,62
2.55,0.6,72
2.55,0.75,72
2.55,0.9,61
2.55,1.05,61
2.55,1.2,71
2.55,1.35,61
2.55,1.5,60
2.7,-1.5,41
2.7,-1.35,41
2.7,-1.2,41
2.7,-1.05,71
2.7,-0.9,82
2.7,-0.75,82
2.7,-0.6,102
2.7,-0.45,102
2.7,-0.3,133
2.7,-0.15,72
2.7,0.0,62
2.7,0.15,51
2.7,0.3,31
2.7,0.45,31
2.7,0.6,21
2.7,0.75,61
2.7,0.9,61
2.7,1.05,71
2.7,1.2,71
2.7,1.35,71
2.7,1.5,71
2.85,-1.5,41
2.85,-1.35,41
2.85,-1.2,41
2.85,-1.05,41
2.85,-0.9,82
2.85,-0.75,102
2.85,-0.6,102
2.85,-0.45,102
2.85,-0.3,174
2.85,-0.15,143
2.85,0.0,72
2.85,0.15,31
2.85,0.3,31
2.85,0.45,31
2.85,0.6,31
2.85,0.75,21
2.85,0.9,21
2.85,1.05,61
2.85,1.2,61
2.85,1.35,61
2.85,1.5,61
3.0,-1.5,72
3.0,-1.35,72
3.0,-1.2,72
3.0,-1.05,72
3.0,-0.9,123
3.0,-0.75,143
3.0,-0.6,143
3.0,-0.45,143
3.0,-0.3,164
3.0,-0.15,113
3.0,0.0,82
3.0,0.15,31
3.0,0.3,31
3.0,0.45,51
3.0,0.6,82
3.0,0.75,72
3.0,0.9,61
3.0,1.05,61
3.0,1.2,51
3.0,1.35,51
3.0,1.5,51
3.15,-1.5,153
3.15,-1.35,153
3.15,-1.2,163
3.15,-1.05,184
3.15,-0.9,184
3.15,-0.75,184
3.15,-0.6,143
3.15,-0.45,123
3.15,-0.3,102
3.15,-0.15,51
3.15,0.0,41
3.15,0.15,92
3.15,0.3,92
3.15,0.45,92
3.15,0.6,102
3.15,0.75,82
3.15,0.9,82
3.15,1.05,82
3.15,1.2,71
3.15,1.35,122
3.15,1.5,122
3.3,-1.5,184
3.3,-1.35,184
3.3,-1.2,184
3.3,-1.05,184
3.3,-0.9,204
3.3,-0.75,204
3.3,-0.6,204
3.3,-0.45,174
3.3,-0.3,102
3.3,-0.15,92
3.3,0.0,153
3.3,0.15,113
3.3,0.3,123
3.3,0.45,102
3.3,0.6,82
3.3,0.75,82
3.3,0.9,133
3.3,1.05,133
3.3,1.2,133
3.3,1.35,122
3.3,1.5,122
3.45,-1.5,255
3.45,-1.35,255
3.45,-1.2,235
3.45,-1.05,235
3.45,-0.9,225
3.45,-0.75,204
3.45,-0.6,215
3.45,-0.45,235
3.45,-0.3,204
3.45,-0.15,174
3.45,0.0,184
3.45,0.15,184
3.45,0.3,174
3.45,0.45,153
3.45,0.6,123
3.45,0.75,123
3.45,0.9,123
3.45,1.05,113
3.45,1.2,113
3.45,1.35,113
3.45,1.5,113
3.6,-1.5,245
3.6,-1.35,245
3.6,-1.2,245
3.6,-1.05,245
3.6,-0.9,235
3.6,-0.75,225
3.6,-0.6,225
3.6,-0.45,194
3.6,-0.3,153
3.6,-0.15,153
3.6,0.0,214
3.6,0.15,204
3.6,0.3,204
3.6,0.45,194
3.6,0.6,123
3.6,0.75,113
3.6,0.9,113
3.6,1.05,113
3.6,1.2,113
3.6,1.35,113
3.6,1.5,113
3.75,-1.5,215
3.75,-1.35,225
3.75,-1.2,225
3.75,-1.05,225
3.75,-0.9,225
3.75,-0.75,205
3.75,-0.6,194
3.75,-0.45,184
3.75,-0.3,123
3.75,-0.15,255
3.75,0.0,255
3.75,0.15,153
3.75,0.3,123
3.75,0.45,123
3.75,0.6,123
3.75,0.75,123
3.75,0.9,83
3.75,1.05,83
3.75,1.2,83
3.75,1.35,83
3.75,1.5,73
3.9,-1.5,215
3.9,-1.35,215
3.9,-1.2,215
3.9,-1.05,215
3.9,-0.9,205
3.9,-0.75,204
3.9,-0.6,154
3.9,-0.45,92
3.9,-0.3,51
3.9,-0.15,184
3.9,0.0,204
3.9,0.15,123
3.9,0.3,153
3.9,0.45,123
3.9,0.6,123
3.9,0.75,83
3.9,0.9,83
3.9,1.05,83
3.9,1.2,83
3.9,1.35,83
3.9,1.5,83
4.05,-1.5,164
4.05,-1.35,164
4.05,-1.2,164
4.05,-1.05,174
4.05,-0.9,123
4.05,-0.75,113
4.05,-0.6,82
4.05,-0.45,92
4.05,-0.3,113
4.05,-0.15,123
4.05,0.0,153
4.05,0.15,255
4.05,0.3,174
4.05,0.45,143
4.05,0.6,143
4.05,0.75,143
4.05,0.9,113
4.05,1.05,123
4.05,1.2,123
4.05,1.35,123
4.05,1.5,123
4.2,-1.5,154
4.2,-1.35,154
4.2,-1.2,194
4.2,-1.05,194
4.2,-0.9,164
4.2,-0.75,143
4.2,-0.6,103
4.2,-0.45,92
4.2,-0.3,82
4.2,-0.15,174
4.2,0.0,164
4.2,0.15,184
4.2,0.3,164
4.2,0.45,225
4.2,0.6,255
4.2,0.75,255
4.2,0.9,174
4.2,1.05,174
4.2,1.2,174
4.2,1.35,174
4.2,1.5,174
4.35,-1.5,133
4.35,-1.35,133
4.35,-1.2,92
4.35,-1.05,103
4.35,-0.9,103
4.35,-0.75,143
4.35,-0.6,184
4.35,-0.45,123
4.35,-0.3,92
4.35,-0.15,164
4.35,0.0,164
4.35,0.15,235
4.35,0.3,255
4.35,0.45,255
4.35,0.6,255
4.35,0.75,255
4.35,0.9,204
4.35,1.05,204
4.35,1.2,204
4.35,1.35,194
4.35,1.5,194
4.5,-1.5,102
4.5,-1.35,102
4.5,-1.2,102
4.5,-1.05,102
4.5,-0.9,133
4.5,-0.75,103
4.5,-0.6,113
4.5,-0.45,133
4.5,-0.3,102
4.5,-0.15,72
4.5,0.0,164
4.5,0.15,164
4.5,0.3,143
4.5,0.45,204
4.5,0.6,204
4.5,0.75,193
4.5,0.9,194
4.5,1.05,194
4.5,1.2,194
4.5,1.35,193
4.5,1.5,193
4.65,-1.5,143
4.65,-1.35,143
4.65,-1.2,143
4.65,-1.05,143
4.65,-0.9,143
4.65,-0.75,133
4.65,-0.6,133
4.65,-0.45,143
4.65,-0.3,82
4.65,-0.15,72
4.65,0.0,225
4.65,0.15,204
4.65,0.3,143
4.65,0.45,143
4.65,0.6,143
4.65,0.75,123
4.65,0.9,123
4.65,1.05,62
4.65,1.2,102
4.65,1.35,123
4.65,1.5,123
4.8,-1.5,143
4.8,-1.35,143
4.8,-1.2,143
4.8,-1.05,123
4.8,-0.9,174
4.8,-0.75,143
4.8,-0.6,143
4.8,-0.45,113
4.8,-0.3,102
4.8,-0.15,41
4.8,0.0,133
4.8,0.15,133
4.8,0.3,31
4.8,0.45,72
4.8,0.6,72
4.8,0.75,72
4.8,0.9,72
4.8,1.05,72
4.8,1.2,103
4.8,1.35,103
4.8,1.5,103
4.95,-1.5,92
4.95,-1.35,92
4.95,-1.2,92
4.95,-1.05,122
4.95,-0.9,123
4.95,-0.75,133
4.95,-0.6,153
4.95,-0.45,214
4.95,-0.3,164
4.95,-0.15,41
4.95,0.0,21
4.95,0.15,11
4.95,0.3,82
4.95,0.45,82
4.95,0.6,82
4.95,0.75,82
4.95,0.9,123
4.95,1.05,133
4.95,1.2,133
4.95,1.35,123
4.95,1.5,93
5.1,-1.5,31
5.1,-1.35,52
5.1,-1.2,52
5.1,-1.05,52
5.1,-0.9,52
5.1,-0.75,102
5.1,-0.6,102
5.1,-0.45,133
5.1,-0.3,153
5.1,-0.15,102
5.1,0.0,1
5.1,0.15,52
5.1,0.3,92
5.1,0.45,92
5.1,0.6,154
5.1,0.75,143
5.1,0.9,164
5.1,1.05,164
5.1,1.2,164
5.1,1.35,164
5.1,1.5,103
5.25,-1.5,31
5.25,-1.35,41
5.25,-1.2,41
5.25,-1.05,41
5.25,-0.9,41
5.25,-0.75,41
5.25,-0.6,52
5.25,-0.45,72
5.25,-0.3,72
5.25,-0.15,102
5.25,0.0,52
5.25,0.15,194
5.25,0.3,174
5.25,0.45,204
5.25,0.6,204
5.25,0.75,204
5.25,0.9,174
5.25,1.05,174
5.25,1.2,184
5.25,1.35,123
5.25,1.5,113
5.4,-1.5,31
5.4,-1.35,72
5.4,-1.2,31
5.4,-1.05,31
5.4,-0.9,31
5.4,-0.75,31
5.4,-0.6,72
5.4,-0.45,113
5.4,-0.3,133
5.4,-0.15,92
5.4,0.0,194
5.4,0.15,133
5.4,0.3,153
5.4,0.45,215
5.4,0.6,153
5.4,0.75,153
5.4,0.9,123
5.4,1.05,123
5.4,1.2,123
5.4,1.35,123
5.4,1.5,123
5.55,-1.5,71
5.55,-1.35,72
5.55,-1.2,112
5.55,-1.05,153
5.55,-0.9,62
5.55,-0.75,41
5.55,-0.6,41
5.55,-0.45,153
5.55,-0.3,184
5.55,-0.15,82
5.55,0.0,143
5.55,0.15,113
5.55,0.3,113
5.55,0.45,113
5.55,0.6,153
5.55,0.75,153
5.55,0.9,153
5.55,1.05,153
5.55,1.2,143
5.55,1.35,163
5.55,1.5,163
5.7,-1.5,122
5.7,-1.35,152
5.7,-1.2,153
5.7,-1.05,153
5.7,-0.9,112
5.7,-0.75,113
5.7,-0.6,123
5.7,-0.45,72
5.7,-0.3,113
5.7,-0.15,102
5.7,0.0,21
5.7,0.15,82
5.7,0.3,133
5.7,0.45,143
5.7,0.6,133
5.7,0.75,133
5.7,0.9,133
5.7,1.05,153
5.7,1.2,153
5.7,1.35,153
5.7,1.5,153
5.85,-1.5,122
5.85,-1.35,122
5.85,-1.2,122
5.85,-1.05,122
5.85,-0.9,122
5.85,-0.75,174
5.85,-0.6,204
5.85,-0.45,194
5.85,-0.3,92
5.85,-0.15,143
5.85,0.0,82
5.85,0.15,123
5.85,0.3,153
5.85,0.45,143
5.85,0.6,153
5.85,0.75,153
5.85,0.9,153
5.85,1.05,153
5.85,1.2,153
5.85,1.35,153
5.85,1.5,153
6.0,-1.5,172
6.0,-1.35,172
6.0,-1.2,173
6.0,-1.05,173
6.0,-0.9,173
6.0,-0.75,235
6.0,-0.6,255
6.0,-0.45,164
6.0,-0.3,62
6.0,-0.15,51
6.0,0.0,143
6.0,0.15,194
6.0,0.3,133
6.0,0.45,123
6.0,0.6,133
6.0,0.75,133
6.0,0.9,194
6.0,1.05,194
6.0,1.2,173
6.0,1.35,173
6.0,1.5,173
6.15,-1.5,172
6.15,-1.35,173
6.15,-1.2,213
6.15,-1.05,214
6.15,-0.9,173
6.15,-0.75,102
6.15,-0.6,113
6.15,-0.45,143
6.15,-0.3,72
6.15,-0.15,41
6.15,0.0,123
6.15,0.15,92
6.15,0.3,102
6.15,0.45,92
6.15,0.6,82
6.15,0.75,72
6.15,0.9,82
6.15,1.05,82
6.15,1.2,122
6.15,1.35,122
6.15,1.5,123
6.3,-1.5,182
6.3,-1.35,183
6.3,-1.2,102
6.3,-1.05,102
6.3,-0.9,113
6.3,-0.75,123
6.3,-0.6,174
6.3,-0.45,133
6.3,-0.3,164
6.3,-0.15,102
6.3,0.0,102
6.3,0.15,82
6.3,0.3,123
6.3,0.45,82
6.3,0.6,82
6.3,0.75,72
6.3,0.9,72
6.3,1.05,72
6.3,1.2,72
6.3,1.35,72
6.3,1.5,82
6.45,-1.5,122
6.45,-1.35,122
6.45,-1.2,122
6.45,-1.05,122
6.45,-0.9,113
6.45,-0.75,133
6.45,-0.6,123
6.45,-0.45,113
6.45,-0.3,82
6.45,-0.15,204
6.45,0.0,133
6.45,0.15,123
6.45,0.3,143
6.45,0.45,153
6.45,0.6,153
6.45,0.75,153
6.45,0.9,153
6.45,1.05,112
6.45,1.2,71
6.45,1.35,71
6.45,1.5,71
6.6,-1.5,122
6.6,-1.35,61
6.6,-1.2,61
6.6,-1.05,51
6.6,-0.9,52
6.6,-0.75,123
6.6,-0.6,123
6.6,-0.45,31
6.6,-0.3,31
6.6,-0.15,133
6.6,0.0,92
6.6,0.15,133
6.6,0.3,194
6.6,0.45,143
6.6,0.6,143
6.6,0.75,143
6.6,0.9,143
6.6,1.05,142
6.6,1.2,153
6.6,1.35,152
6.6,1.5,152
6.75,-1.5,112
6.75,-1.35,92
6.75,-1.2,102
6.75,-1.05,102
6.75,-0.9,143
6.75,-0.75,123
6.75,-0.6,123
6.75,-0.45,82
6.75,-0.3,143
6.75,-0.15,143
6.75,0.0,92
6.75,0.15,153
6.75,0.3,102
6.75,0.45,112
6.75,0.6,112
6.75,0.75,112
6.75,0.9,102
6.75,1.05,122
6.75,1.2,122
6.75,1.35,102
6.75,1.5,102
6.9,-1.5,122
6.9,-1.35,122
6.9,-1.2,82
6.9,-1.05,62
6.9,-0.9,102
6.9,-0.75,102
6.9,-0.6,102
6.9,-0.45,113
6.9,-0.3,102
6.9,-0.15,82
6.9,0.0,92
6.9,0.15,92
6.9,0.3,113
6.9,0.45,112
6.9,0.6,112
6.9,0.75,112
6.9,0.9,102
6.9,1.05,102
6.9,1.2,102
6.9,1.35,102
6.9,1.5,102
7.05,-1.5,31
7.05,-1.35,92
7.05,-1.2,92
7.05,-1.05,82
7.05,-0.9,41
7.05,-0.75,51
7.05,-0.6,82
7.05,-0.45,52
7.05,-0.3,92
7.05,-0.15,21
7.05,0.0,51
7.05,0.15,62
7.05,0.3,92
7.05,0.45,82
7.05,0.6,72
7.05,0.75,71
7.05,0.9,71
7.05,1.05,71
7.05,1.2,71
7.05,1.35,51
7.05,1.5,82
7.2,-1.5,52
7.2,-1.35,52
7.2,-1.2,52
7.2,-1.05,52
7.2,-0.9,62
7.2,-0.75,82
7.2,-0.6,72
7.2,-0.45,52
7.2,-0.3,62
7.2,-0.15,21
7.2,0.0,113
7.2,0.15,133
7.2,0.3,123
7.2,0.45,72
7.2,0.6,72
7.2,0.75,51
7.2,0.9,92
7.2,1.05,92
7.2,1.2,82
7.2,1.35,82
7.2,1.5,82
7.35,-1.5,42
7.35,-1.35,42
7.35,-1.2,42
7.35,-1.05,41
7.35,-0.9,42
7.35,-0.75,42
7.35,-0.6,72
7.35,-0.45,123
7.35,-0.3,102
7.35,-0.15,133
7.35,0.0,113
7.35,0.15,123
7.35,0.3,113
7.35,0.45,92
7.35,0.6,92
7.35,0.75,102
7.35,0.9,102
7.35,1.05,102
7.35,1.2,102
7.35,1.35,102
7.35,1.5,82
7.5,-1.5,102
7.5,-1.35,102
7.5,-1.2,82
7.5,-1.05,92
7.5,-0.9,103
7.5,-0.75,103
7.5,-0.6,102
7.5,-0.45,133
7.5,-0.3,92
7.5,-0.15,174
7.5,0.0,92
7.5,0.15,123
7.5,0.3,113
7.5,0.45,123
7.5,0.6,102
7.5,0.75,102
7.5,0.9,102
7.5,1.05,102
7.5,1.2,102
7.5,1.35,82
7.5,1.5,82
7.65,-1.5,123
7.65,-1.35,123
7.65,-1.2,123
7.65,-1.05,123
7.65,-0.9,92
7.65,-0.75,92
7.65,-0.6,82
7.65,-0.45,143
7.65,-0.3,72
7.65,-0.15,214
7.65,0.0,164
7.65,0.15,62
7.65,0.3,92
7.65,0.45,153
7.65,0.6,143
7.65,0.75,143
7.65,0.9,203
7.65,1.05,203
7.65,1.2,203
7.65,1.35,233
7.65,1.5,183
7.8,-1.5,133
7.8,-1.35,133
7.8,-1.2,133
7.8,-1.05,133
7.8,-0.9,123
7.8,-0.75,123
7.8,-0.6,133
7.8,-0.45,123
7.8,-0.3,184
7.8,-0.15,174
7.8,0.0,164
7.8,0.15,143
7.8,0.3,214
7.8,0.45,194
7.8,0.6,194
7.8,0.75,204
7.8,0.9,184
7.8,1.05,183
7.8,1.2,183
7.8,1.35,183
7.8,1.5,183
7.95,-1.5,113
7.95,-1.35,113
7.95,-1.2,153
7.95,-1.05,113
7.95,-0.9,113
7.95,-0.75,174
7.95,-0.6,153
7.95,-0.45,153
7.95,-0.3,214
7.95,-0.15,184
7.95,0.0,194
7.95,0.15,123
7.95,0.3,184
7.95,0.45,235
7.95,0.6,235
7.95,0.75,184
7.95,0.9,184
7.95,1.05,184
7.95,1.2,184
7.95,1.35,184
7.95,1.5,184
8.1,-1.5,113
8.1,-1.35,113
8.1,-1.2,92
8.1,-1.05,92
8.1,-0.9,133
8.1,-0.75,133
8.1,-0.6,133
8.1,-0.45,143
8.1,-0.3,21
8.1,-0.15,153
8.1,0.0,113
8.1,0.15,204
8.1,0.3,174
8.1,0.45,204
8.1,0.6,214
8.1,0.75,214
8.1,0.9,214
8.1,1.05,214
8.1,1.2,173
8.1,1.35,173
8.1,1.5,173
8.25,-1.5,102
8.25,-1.35,92
8.25,-1.2,92
8.25,-1.05,92
8.25,-0.9,82
8.25,-0.75,163
8.25,-0.6,143
8.25,-0.45,133
8.25,-0.3,21
8.25,-0.15,92
8.25,0.0,41
8.25,0.15,102
8.25,0.3,103
8.25,0.45,102
8.25,0.6,103
8.25,0.75,103
8.25,0.9,143
8.25,1.05,143
8.25,1.2,153
8.25,1.35,153
8.25,1.5,153
8.4,-1.5,82
8.4,-1.35,82
8.4,-1.2,82
8.4,-1.05,82
8.4,-0.9,62
8.4,-0.75,51
8.4,-0.6,113
8.4,-0.45,113
8.4,-0.3,184
8.4,-0.15,92
8.4,0.0,92
8.4,0.15,41
8.4,0.3,41
8.4,0.45,102
8.4,0.6,102
8.4,0.75,113
8.4,0.9,123
8.4,1.05,103
8.4,1.2,103
8.4,1.35,143
8.4,1.5,143
8.55,-1.5,81
8.55,-1.35,41
8.55,-1.2,31
8.55,-1.05,31
8.55,-0.9,31
8.55,-0.75,21
8.55,-0.6,51
8.55,-0.45,102
8.55,-0.3,143
8.55,-0.15,52
8.55,0.0,102
8.55,0.15,41
8.55,0.3,82
8.55,0.45,31
8.55,0.6,41
8.55,0.75,41
8.55,0.9,82
8.55,1.05,92
8.55,1.2,92
8.55,1.35,92
8.55,1.5,102
8.7,-1.5,62
8.7,-1.35,62
8.7,-1.2,92
8.7,-1.05,51
8.7,-0.9,51
8.7,-0.75,21
8.7,-0.6,72
8.7,-0.45,164
8.7,-0.3,123
8.7,-0.15,143
8.7,0.0,113
8.7,0.15,31
8.7,0.3,0
8.7,0.45,0
8.7,0.6,11
8.7,0.75,11
8.7,0.9,21
8.7,1.05,21
8.7,1.2,31
8.7,1.35,31
8.7,1.5,42
8.85,-1.5,102
8.85,-1.35,113
8.85,-1.2,113
8.85,-1.05,113
8.85,-0.9,123
8.85,-0.75,113
8.85,-0.6,82
8.85,-0.45,52
8.85,-0.3,1
8.85,-0.15,82
8.85,0.0,82
8.85,0.15,0
8.85,0.3,1
8.85,0.45,1
8.85,0.6,1
8.85,0.75,1
8.85,0.9,1
8.85,1.05,31
8.85,1.2,31
8.85,1.35,31
8.85,1.5,21
9.0,-1.5,153
9.0,-1.35,123
9.0,-1.2,123
9.0,-1.05,123
9.0,-0.9,123
9.0,-0.75,82
9.0,-0.6,82
9.0,-0.45,31
9.0,-0.3,0
9.0,-0.15,82
9.0,0.0,72
9.0,0.15,1
9.0,0.3,1
9.0,0.45,1
9.0,0.6,1
9.0,0.75,1
9.0,0.9,1
9.0,1.05,42
9.0,1.2,42
9.0,1.35,41
9.0,1.5,41
9.15,-1.5,153
9.15,-1.35,153
9.15,-1.2,123
9.15,-1.05,123
9.15,-0.9,123
9.15,-0.75,113
9.15,-0.6,72
9.15,-0.45,1
9.15,-0.3,0
9.15,-0.15,72
9.15,0.0,51
9.15,0.15,11
9.15,0.3,1
9.15,0.45,1
9.15,0.6,11
9.15,0.75,41
9.15,0.9,41
9.15,1.05,51
9.15,1.2,52
9.15,1.35,52
9.15,1.5,52
9.3,-1.5,153
9.3,-1.35,113
9.3,-1.2,113
9.3,-1.05,113
9.3,-0.9,113
9.3,-0.75,113
9.3,-0.6,92
9.3,-0.45,72
9.3,-0.3,41
9.3,-0.15,72
9.3,0.0,123
9.3,0.15,82
9.3,0.3,21
9.3,0.45,52
9.3,0.6,52
9.3,0.75,52
9.3,0.9,52
9.3,1.05,52
9.3,1.2,52
9.3,1.35,52
9.3,1.5,52
9.45,-1.5,154
9.45,-1.35,154
9.45,-1.2,154
9.45,-1.05,154
9.45,-0.9,113
9.45,-0.75,72
9.45,-0.6,82
9.45,-0.45,82
9.45,-0.3,92
9.45,-0.15,102
9.45,0.0,143
9.45,0.15,82
9.45,0.3,82
9.45,0.45,41
9.45,0.6,52
9.45,0.75,52
9.45,0.9,52
9.45,1.05,52
9.45,1.2,52
9.45,1.35,52
9.45,1.5,52
9.6,-1.5,153
9.6,-1.35,153
9.6,-1.2,153
9.6,-1.05,113
9.6,-0.9,113
9.6,-0.75,72
9.6,-0.6,82
9.6,-0.45,82
9.6,-0.3,102
9.6,-0.15,143
9.6,0.0,153
9.6,0.15,82
9.6,0.3,82
9.6,0.45,82
9.6,0.6,72
9.6,0.75,62
9.6,0.9,103
9.6,1.05,113
9.6,1.2,144
9.6,1.35,144
9.6,1.5,143
9.75,-1.5,153
9.75,-1.35,113
9.75,-1.2,82
9.75,-1.05,82
9.75,-0.9,82
9.75,-0.75,92
9.75,-0.6,133
9.75,-0.45,62
9.75,-0.3,113
9.75,-0.15,194
9.75,0.0,113
9.75,0.15,62
9.75,0.3,82
9.75,0.45,123
9.75,0.6,123
9.75,0.75,174
9.75,0.9,153
9.75,1.05,193
9.75,1.2,193
9.75,1.35,193
9.75,1.5,144
9.9,-1.5,82
9.9,-1.35,92
9.9,-1.2,92
9.9,-1.05,92
9.9,-0.9,92
9.9,-0.75,72
9.9,-0.6,41
9.9,-0.45,82
9.9,-0.3,113
9.9,-0.15,184
9.9,0.0,163
9.9,0.15,184
9.9,0.3,184
9.9,0.45,184
9.9,0.6,163
9.9,0.75,194
9.9,0.9,194
9.9,1.05,194
9.9,1.2,194
9.9,1.35,144
9.9,1.5,144
10.05,-1.5,82
10.05,-1.35,82
10.05,-1.2,72
10.05,-1.05,82
10.05,-0.9,82
10.05,-0.75,123
10.05,-0.6,82
10.05,-0.45,62
10.05,-0.3,174
10.05,-0.15,133
10.05,0.0,133
10.05,0.15,143
10.05,0.3,184
10.05,0.45,225
10.05,0.6,204
10.05,0.75,205
10.05,0.9,205
10.05,1.05,205
10.05,1.2,205
10.05,1.35,205
10.05,1.5,145
10.2,-1.5,62
10.2,-1.35,72
10.2,-1.2,72
10.2,-1.05,72
10.2,-0.9,72
10.2,-0.75,113
10.2,-0.6,113
10.2,-0.45,143
10.2,-0.3,143
10.2,-0.15,82
10.2,0.0,123
10.2,0.15,133
10.2,0.3,174
10.2,0.45,194
10.2,0.6,195
10.2,0.75,205
10.2,0.9,205
10.2,1.05,205
10.2,1.2,205
10.2,1.35,205
10.2,1.5,205
10.35,-1.5,123
10.35,-1.35,123
10.35,-1.2,112
10.35,-1.05,112
10.35,-0.9,82
10.35,-0.75,41
10.35,-0.6,41
10.35,-0.45,92
10.35,-0.3,133
10.35,-0.15,92
10.35,0.0,113
10.35,0.15,153
10.35,0.3,205
10.35,0.45,205
10.35,0.6,205
10.35,0.75,235
10.35,0.9,235
10.35,1.05,235
10.35,1.2,245
10.35,1.35,245
10.35,1.5,245
10.5,-1.5,83
10.5,-1.35,123
10.5,-1.2,93
10.5,-1.05,92
10.5,-0.9,102
10.5,-0.75,102
10.5,-0.6,102
10.5,-0.45,102
10.5,-0.3,62
10.5,-0.15,102
10.5,0.0,41
10.5,0.15,174
10.5,0.3,235
10.5,0.45,235
10.5,0.6,235
10.5,0.75,205
10.5,0.9,205
10.5,1.05,205
10.5,1.2,245
10.5,1.35,245
10.5,1.5,245
10.65,-1.5,93
10.65,-1.35,62
10.65,-1.2,62
10.65,-1.05,62
10.65,-0.9,112
10.65,-0.75,113
10.65,-0.6,123
10.65,-0.45,113
10.65,-0.3,113
10.65,-0.15,204
10.65,0.0,123
10.65,0.15,103
10.65,0.3,174
10.65,0.45,184
10.65,0.6,184
10.65,0.75,184
10.65,0.9,205
10.65,1.05,205
10.65,1.2,204
10.65,1.35,144
10.65,1.5,144
10.8,-1.5,62
10.8,-1.35,62
10.8,-1.2,92
10.8,-1.05,102
10.8,-0.9,102
10.8,-0.75,102
10.8,-0.6,164
10.8,-0.45,204
10.8,-0.3,255
10.8,-0.15,184
10.8,0.0,214
10.8,0.15,113
10.8,0.3,113
10.8,0.45,194
10.8,0.6,194
10.8,0.75,194
10.8,0.9,154
10.8,1.05,154
10.8,1.2,154
10.8,1.35,154
10.8,1.5,154
10.95,-1.5,112
10.95,-1.35,112
10.95,-1.2,102
10.95,-1.05,102
10.95,-0.9,153
10.95,-0.75,153
10.95,-0.6,164
10.95,-0.45,235
10.95,-0.3,235
10.95,-0.15,235
10.95,0.0,235
10.95,0.15,204
10.95,0.3,143
10.95,0.45,133
10.95,0.6,123
10.95,0.75,123
10.95,0.9,143
10.95,1.05,143
10.95,1.2,144
10.95,1.35,154
10.95,1.5,154
11.1,-1.5,153
11.1,-1.35,153
11.1,-1.2,112
11.1,-1.05,112
11.1,-0.9,102
11.1,-0.75,113
11.1,-0.6,102
11.1,-0.45,123
11.1,-0.3,102
11.1,-0.15,123
11.1,0.0,123
11.1,0.15,143
11.1,0.3,102
11.1,0.45,143
11.1,0.6,132
11.1,0.75,122
11.1,0.9,133
11.1,1.05,93
11.1,1.2,93
11.1,1.35,153
11.1,1.5,153
11.25,-1.5,123
11.25,-1.35,123
11.25,-1.2,153
11.25,-1.05,153
11.25,-0.9,113
11.25,-0.75,92
11.25,-0.6,52
11.25,-0.45,92
11.25,-0.3,62
11.25,-0.15,62
11.25,0.0,11
11.25,0.15,21
11.25,0.3,62
11.25,0.45,62
11.25,0.6,93
11.25,0.75,103
11.25,0.9,102
11.25,1.05,102
11.25,1.2,103
11.25,1.35,103
11.25,1.5,93
11.4,-1.5,123
11.4,-1.35,122
11.4,-1.2,122
11.4,-1.05,102
11.4,-0.9,92
11.4,-0.75,82
11.4,-0.6,143
11.4,-0.45,102
11.4,-0.3,52
11.4,-0.15,113
11.4,0.0,102
11.4,0.15,62
11.4,0.3,51
11.4,0.45,92
11.4,0.6,92
11.4,0.75,92
11.4,0.9,93
11.4,1.05,103
11.4,1.2,92
11.4,1.35,93
11.4,1.5,93
11.55,-1.5,112
11.55,-1.35,102
11.55,-1.2,103
11.55,-1.05,103
11.55,-0.9,103
11.55,-0.75,103
11.55,-0.6,153
11.55,-0.45,184
11.55,-0.3,174
11.55,-0.15,133
11.55,0.0,143
11.55,0.15,72
11.55,0.3,51
11.55,0.45,51
11.55,0.6,51
11.55,0.75,61
11.55,0.9,102
11.55,1.05,62
11.55,1.2,102
11.55,1.35,102
11.55,1.5,102
11.7,-1.5,102
11.7,-1.35,103
11.7,-1.2,103
11.7,-1.05,103
11.7,-0.9,103
11.7,-0.75,103
11.7,-0.6,143
11.7,-0.45,184
11.7,-0.3,153
11.7,-0.15,153
11.7,0.0,113
11.7,0.15,72
11.7,0.3,82
11.7,0.45,51
11.7,0.6,61
11.7,0.75,61
11.7,0.9,61
11.7,1.05,31
11.7,1.2,32
11.7,1.35,31
11.7,1.5,62
11.85,-1.5,102
11.85,-1.35,143
11.85,-1.2,143
11.85,-1.05,143
11.85,-0.9,143
11.85,-0.75,143
11.85,-0.6,174
11.85,-0.45,245
11.85,-0.3,194
11.85,-0.15,153
11.85,0.0,113
11.85,0.15,112
11.85,0.3,92
11.85,0.45,92
11.85,0.6,51
11.85,0.75,31
11.85,0.9,31
11.85,1.05,31
11.85,1.2,21
11.85,1.35,21
11.85,1.5,21
12.0,-1.5,91
12.0,-1.35,92
12.0,-1.2,92
12.0,-1.05,102
12.0,-0.9,133
12.0,-0.75,143
12.0,-0.6,174
12.0,-0.45,174
12.0,-0.3,204
12.0,-0.15,153
12.0,0.0,153
12.0,0.15,82
12.0,0.3,82
12.0,0.45,51
12.0,0.6,51
12.0,0.75,21
12.0,0.9,21
12.0,1.05,11
12.0,1.2,21
12.0,1.35,21
12.0,1.5,21
12.15,-1.5,91
12.15,-1.35,91
12.15,-1.2,92
12.15,-1.05,93
12.15,-0.9,93
12.15,-0.75,52
12.15,-0.6,52
12.15,-0.45,82
12.15,-0.3,72
12.15,-0.15,72
12.15,0.0,102
12.15,0.15,82
12.15,0.3,41
12.15,0.45,41
12.15,0.6,41
12.15,0.75,41
12.15,0.9,1
12.15,1.05,1
12.15,1.2,11
12.15,1.35,11
12.15,1.5,21
12.3,-1.5,122
12.3,-1.35,81
12.3,-1.2,81
12.3,-1.05,82
12.3,-0.9,82
12.3,-0.75,82
12.3,-0.6,72
12.3,-0.45,72
12.3,-0.3,31
12.3,-0.15,31
12.3,0.0,21
12.3,0.15,41
12.3,0.3,41
12.3,0.45,41
12.3,0.6,41
12.3,0.75,41
12.3,0.9,1
12.3,1.05,1
12.3,1.2,1
12.3,1.35,1
12.3,1.5,1
12.45,-1.5,81
12.45,-1.35,81
12.45,-1.2,81
12.45,-1.05,81
12.45,-0.9,82
12.45,-0.75,72
12.45,-0.6,31
12.45,-0.45,31
12.45,-0.3,31
12.45,-0.15,31
12.45,0.0,1
12.45,0.15,1
12.45,0.3,11
12.45,0.45,11
12.45,0.6,11
12.45,0.75,11
12.45,0.9,11
12.45,1.05,11
12.45,1.2,1
12.45,1.35,1
12.45,1.5,1
12.6,-1.5,41
12.6,-1.35,41
12.6,-1.2,81
12.6,-1.05,71
12.6,-0.9,72
12.6,-0.75,72
12.6,-0.6,72
12.6,-0.45,52
12.6,-0.3,51
12.6,-0.15,21
12.6,0.0,0
12.6,0.15,62
12.6,0.3,62
12.6,0.45,72
12.6,0.6,72
12.6,0.75,71
12.6,0.9,11
12.6,1.05,11
12.6,1.2,11
12.6,1.35,11
12.6,1.5,11
12.75,-1.5,81
12.75,-1.35,81
12.75,-1.2,71
12.75,-1.05,71
12.75,-0.9,52
12.75,-0.75,52
12.75,-0.6,52
12.75,-0.45,52
12.75,-0.3,62
12.75,-0.15,123
12.75,0.0,52
12.75,0.15,62
12.75,0.3,62
12.75,0.45,72
12.75,0.6,72
12.75,0.75,71
12.75,0.9,71
12.75,1.05,70
12.75,1.2,11
12.75,1.35,11
12.75,1.5,11
12.9,-1.5,52
12.9,-1.35,71
12.9,-1.2,52
12.9,-1.05,52
12.9,-0.9,52
12.9,-0.75,52
12.9,-0.6,113
12.9,-0.45,123
12.9,-0.3,123
12.9,-0.15,123
12.9,0.0,93
12.9,0.15,62
12.9,0.3,62
12.9,0.45,62
12.9,0.6,72
12.9,0.75,72
12.9,0.9,71
12.9,1.05,71
12.9,1.2,71
12.9,1.35,70
12.9,1.5,11
13.05,-1.5,52
13.05,-1.35,52
13.05,-1.2,52
13.05,-1.05,52
13.05,-0.9,112
13.05,-0.75,113
13.05,-0.6,123
13.05,-0.45,123
13.05,-0.3,123
13.05,-0.15,123
13.05,0.0,93
13.05,0.15,93
13.05,0.3,103
13.05,0.45,103
13.05,0.6,72
13.05,0.75,72
13.05,0.9,72
13.05,1.05,71
13.05,1.2,71
13.05,1.35,71
13.05,1.5,70
