-3.0,-1.5,47
-3.0,-1.35,46
-3.0,-1.2,45
-3.0,-1.05,45
-3.0,-0.9,45
-3.0,-0.75,44
-3.0,-0.6,44
-3.0,-0.45,44
-3.0,-0.3,43
-3.0,-0.15,43
-3.0,0.0,39
-3.0,0.15,38
-3.0,0.3,38
-3.0,0.45,38
-3.0,0.6,38
-3.0,0.75,37
-3.0,0.9,37
-3.0,1.05,17
-3.0,1.2,17
-3.0,1.35,17
-3.0,1.5,0
-2.85,-1.5,49
-2.85,-1.35,48
-2.85,-1.2,48
-2.85,-1.05,47
-2.85,-0.9,47
-2.85,-0.75,47
-2.85,-0.6,46
-2.85,-0.45,46
-2.85,-0.3,46
-2.85,-0.15,46
-2.85,0.0,41
-2.85,0.15,41
-2.85,0.3,40
-2.85,0.45,40
-2.85,0.6,40
-2.85,0.75,39
-2.85,0.9,39
-2.85,1.05,19
-2.85,1.2,18
-2.85,1.35,18
-2.85,1.5,0
-2.7,-1.5,51
-2.7,-1.35,51
-2.7,-1.2,50
-2.7,-1.05,50
-2.7,-0.9,49
-2.7,-0.75,49
-2.7,-0.6,49
-2.7,-0.45,49
-2.7,-0.3,48
-2.7,-0.15,48
-2.7,0.0,43
-2.7,0.15,43
-2.7,0.3,43
-2.7,0.45,42
-2.7,0.6,42
-2.7,0.75,42
-2.7,0.9,42
-2.7,1.05,20
-2.7,1.2,20
-2.7,1.35,20
-2.7,1.5,0
-2.55,-1.5,54
-2.55,-1.35,53
-2.55,-1.2,53
-2.55,-1.05,53
-2.55,-0.9,52
-2.55,-0.75,52
-2.55,-0.6,52
-2.55,-0.45,51
-2.55,-0.3,51
-2.55,-0.15,51
-2.55,0.0,46
-2.55,0.15,46
-2.55,0.3,45
-2.55,0.45,45
-2.55,0.6,45
-2.55,0.75,44
-2.55,0.9,44
-2.55,1.05,21
-2.55,1.2,21
-2.55,1.35,22
-2.55,1.5,0
-2.4,-1.5,57
-2.4,-1.35,56
-2.4,-1.2,56
-2.4,-1.05,55
-2.4,-0.9,55
-2.4,-0.75,55
-2.4,-0.6,55
-2.4,-0.45,54
-2.4,-0.3,54
-2.4,-0.15,54
-2.4,0.0,70
-2.4,0.15,48
-2.4,0.3,48
-2.4,0.45,48
-2.4,0.6,47
-2.4,0.75,47
-2.4,0.9,47
-2.4,1.05,23
-2.4,1.2,23
-2.4,1.35,1
-2.4,1.5,1
-2.25,-1.5,59
-2.25,-1.35,59
-2.25,-1.2,59
-2.25,-1.05,58
-2.25,-0.9,58
-2.25,-0.75,58
-2.25,-0.6,58
-2.25,-0.45,57
-2.25,-0.3,57
-2.25,-0.15,57
-2.25,0.0,74
-2.25,0.15,51
-2.25,0.3,51
-2.25,0.45,50
-2.25,0.6,50
-2.25,0.75,50
-2.25,0.9,25
-2.25,1.05,25
-2.25,1.2,25
-2.25,1.35,1
-2.25,1.5,24
-2.1,-1.5,62
-2.1,-1.35,62
-2.1,-1.2,62
-2.1,-1.05,62
-2.1,-0.9,61
-2.1,-0.75,61
-2.1,-0.6,61
-2.1,-0.45,61
-2.1,-0.3,60
-2.1,-0.15,60
-2.1,0.0,78
-2.1,0.15,54
-2.1,0.3,54
-2.1,0.45,53
-2.1,0.6,53
-2.1,0.75,53
-2.1,0.9,27
-2.1,1.05,27
-2.1,1.2,26
-2.1,1.35,26
-2.1,1.5,26
-1.95,-1.5,66
-1.95,-1.35,65
-1.95,-1.2,65
-1.95,-1.05,65
-1.95,-0.9,65
-1.95,-0.75,64
-1.95,-0.6,64
-1.95,-0.45,64
-1.95,-0.3,64
-1.95,-0.15,64
-1.95,0.0,82
-1.95,0.15,57
-1.95,0.3,57
-1.95,0.45,56
-1.95,0.6,56
-1.95,0.75,56
-1.95,0.9,54
-1.95,1.05,53
-1.95,1.2,28
-1.95,1.35,27
-1.95,1.5,27
-1.8,-1.5,90
-1.8,-1.35,90
-1.8,-1.2,68
-1.8,-1.05,68
-1.8,-0.9,68
-1.8,-0.75,68
-1.8,-0.6,68
-1.8,-0.45,67
-1.8,-0.3,67
-1.8,-0.15,67
-1.8,0.0,67
-1.8,0.15,87
-1.8,0.3,60
-1.8,0.45,60
-1.8,0.6,59
-1.8,0.75,58
-1.8,0.9,57
-1.8,1.05,56
-1.8,1.2,29
-1.8,1.35,29
-1.8,1.5,28
-1.65,-1.5,93
-1.65,-1.35,93
-1.65,-1.2,94
-1.65,-1.05,94
-1.65,-0.9,94
-1.65,-0.75,94
-1.65,-0.6,71
-1.65,-0.45,71
-1.65,-0.3,71
-1.65,-0.15,71
-1.65,0.0,71
-1.65,0.15,92
-1.65,0.3,63
-1.65,0.45,62
-1.65,0.6,61
-1.65,0.75,60
-1.65,0.9,59
-1.65,1.05,31
-1.65,1.2,30
-1.65,1.35,30
-1.65,1.5,29
-1.5,-1.5,78
-1.5,-1.35,97
-1.5,-1.2,97
-1.5,-1.05,98
-1.5,-0.9,98
-1.5,-0.75,98
-1.5,-0.6,99
-1.5,-0.45,99
-1.5,-0.3,100
-1.5,-0.15,74
-1.5,0.0,74
-1.5,0.15,94
-1.5,0.3,94
-1.5,0.45,93
-1.5,0.6,64
-1.5,0.75,62
-1.5,0.9,61
-1.5,1.05,32
-1.5,1.2,32
-1.5,1.35,31
-1.5,1.5,31
-1.35,-1.5,80
-1.35,-1.35,81
-1.35,-1.2,101
-1.35,-1.05,102
-1.35,-0.9,102
-1.35,-0.75,102
-1.35,-0.6,103
-1.35,-0.45,103
-1.35,-0.3,104
-1.35,-0.15,104
-1.35,0.0,105
-1.35,0.15,104
-1.35,0.3,98
-1.35,0.45,97
-1.35,0.6,66
-1.35,0.75,65
-1.35,0.9,64
-1.35,1.05,34
-1.35,1.2,33
-1.35,1.35,33
-1.35,1.5,32
-1.2,-1.5,83
-1.2,-1.35,84
-1.2,-1.2,105
-1.2,-1.05,106
-1.2,-0.9,106
-1.2,-0.75,107
-1.2,-0.6,107
-1.2,-0.45,107
-1.2,-0.3,109
-1.2,-0.15,108
-1.2,0.0,108
-1.2,0.15,108
-1.2,0.3,107
-1.2,0.45,99
-1.2,0.6,98
-1.2,0.75,67
-1.2,0.9,66
-1.2,1.05,35
-1.2,1.2,35
-1.2,1.35,34
-1.2,1.5,35
-1.05,-1.5,86
-1.05,-1.35,87
-1.05,-1.2,87
-1.05,-1.05,110
-1.05,-0.9,110
-1.05,-0.75,111
-1.05,-0.6,118
-1.05,-0.45,118
-1.05,-0.3,118
-1.05,-0.15,111
-1.05,0.0,111
-1.05,0.15,111
-1.05,0.3,110
-1.05,0.45,102
-1.05,0.6,103
-1.05,0.75,102
-1.05,0.9,101
-1.05,1.05,100
-1.05,1.2,66
-1.05,1.35,66
-1.05,1.5,65
-0.9,-1.5,95
-0.9,-1.35,95
-0.9,-1.2,117
-0.9,-1.05,117
-0.9,-0.9,130
-0.9,-0.75,130
-0.9,-0.6,130
-0.9,-0.45,130
-0.9,-0.3,123
-0.9,-0.15,123
-0.9,0.0,123
-0.9,0.15,115
-0.9,0.3,114
-0.9,0.45,106
-0.9,0.6,105
-0.9,0.75,103
-0.9,0.9,102
-0.9,1.05,101
-0.9,1.2,100
-0.9,1.35,99
-0.9,1.5,67
-0.75,-1.5,97
-0.75,-1.35,97
-0.75,-1.2,131
-0.75,-1.05,132
-0.75,-0.9,132
-0.75,-0.75,132
-0.75,-0.6,132
-0.75,-0.45,132
-0.75,-0.3,126
-0.75,-0.15,125
-0.75,0.0,125
-0.75,0.15,117
-0.75,0.3,116
-0.75,0.45,108
-0.75,0.6,106
-0.75,0.75,105
-0.75,0.9,104
-0.75,1.05,103
-0.75,1.2,102
-0.75,1.35,101
-0.75,1.5,108
-0.6,-1.5,135
-0.6,-1.35,135
-0.6,-1.2,134
-0.6,-1.05,134
-0.6,-0.9,134
-0.6,-0.75,134
-0.6,-0.6,134
-0.6,-0.45,134
-0.6,-0.3,128
-0.6,-0.15,127
-0.6,0.0,127
-0.6,0.15,127
-0.6,0.3,118
-0.6,0.45,109
-0.6,0.6,108
-0.6,0.75,107
-0.6,0.9,106
-0.6,1.05,105
-0.6,1.2,112
-0.6,1.35,110
-0.6,1.5,109
-0.45,-1.5,138
-0.45,-1.35,138
-0.45,-1.2,137
-0.45,-1.05,136
-0.45,-0.9,136
-0.45,-0.75,136
-0.45,-0.6,136
-0.45,-0.45,137
-0.45,-0.3,137
-0.45,-0.15,130
-0.45,0.0,129
-0.45,0.15,129
-0.45,0.3,120
-0.45,0.45,111
-0.45,0.6,110
-0.45,0.75,109
-0.45,0.9,116
-0.45,1.05,114
-0.45,1.2,113
-0.45,1.35,111
-0.45,1.5,88
-0.3,-1.5,127
-0.3,-1.35,136
-0.3,-1.2,159
-0.3,-1.05,140
-0.3,-0.9,138
-0.3,-0.75,139
-0.3,-0.6,139
-0.3,-0.45,139
-0.3,-0.3,139
-0.3,-0.15,132
-0.3,0.0,132
-0.3,0.15,132
-0.3,0.3,131
-0.3,0.45,122
-0.3,0.6,131
-0.3,0.75,129
-0.3,0.9,128
-0.3,1.05,126
-0.3,1.2,124
-0.3,1.35,100
-0.3,1.5,99
-0.15,-1.5,139
-0.15,-1.35,139
-0.15,-1.2,140
-0.15,-1.05,172
-0.15,-0.9,173
-0.15,-0.75,175
-0.15,-0.6,175
-0.15,-0.45,175
-0.15,-0.3,175
-0.15,-0.15,142
-0.15,0.0,142
-0.15,0.15,133
-0.15,0.3,135
-0.15,0.45,133
-0.15,0.6,131
-0.15,0.75,130
-0.15,0.9,128
-0.15,1.05,126
-0.15,1.2,101
-0.15,1.35,100
-0.15,1.5,99
0.0,-1.5,139
0.0,-1.35,140
0.0,-1.2,140
0.0,-1.05,140
0.0,-0.9,174
0.0,-0.75,174
0.0,-0.6,175
0.0,-0.45,176
0.0,-0.3,177
0.0,-0.15,177
0.0,0.0,143
0.0,0.15,144
0.0,0.3,135
0.0,0.45,134
0.0,0.6,132
0.0,0.75,130
0.0,0.9,128
0.0,1.05,102
0.0,1.2,101
0.0,1.35,100
0.0,1.5,99
0.15,-1.5,140
0.15,-1.35,140
0.15,-1.2,140
0.15,-1.05,141
0.15,-0.9,141
0.15,-0.75,175
0.15,-0.6,176
0.15,-0.45,175
0.15,-0.3,175
0.15,-0.15,180
0.15,0.0,180
0.15,0.15,145
0.15,0.3,136
0.15,0.45,134
0.15,0.6,132
0.15,0.75,130
0.15,0.9,104
0.15,1.05,103
0.15,1.2,101
0.15,1.35,100
0.15,1.5,99
0.3,-1.5,140
0.3,-1.35,141
0.3,-1.2,141
0.3,-1.05,141
0.3,-0.9,141
0.3,-0.75,142
0.3,-0.6,180
0.3,-0.45,181
0.3,-0.3,181
0.3,-0.15,181
0.3,0.0,172
0.3,0.15,171
0.3,0.3,161
0.3,0.45,134
0.3,0.6,133
0.3,0.75,105
0.3,0.9,104
0.3,1.05,103
0.3,1.2,102
0.3,1.35,101
0.3,1.5,100
0.45,-1.5,139
0.45,-1.35,139
0.45,-1.2,139
0.45,-1.05,139
0.45,-0.9,146
0.45,-0.75,173
0.45,-0.6,173
0.45,-0.45,173
0.45,-0.3,173
0.45,-0.15,174
0.45,0.0,181
0.45,0.15,163
0.45,0.3,162
0.45,0.45,153
0.45,0.6,151
0.45,0.75,122
0.45,0.9,121
0.45,1.05,94
0.45,1.2,93
0.45,1.35,93
0.45,1.5,92
0.6,-1.5,139
0.6,-1.35,139
0.6,-1.2,139
0.6,-1.05,139
0.6,-0.9,166
0.6,-0.75,166
0.6,-0.6,166
0.6,-0.45,166
0.6,-0.3,175
0.6,-0.15,175
0.6,0.0,175
0.6,0.15,174
0.6,0.3,163
0.6,0.45,125
0.6,0.6,124
0.6,0.75,123
0.6,0.9,121
0.6,1.05,120
0.6,1.2,93
0.6,1.35,92
0.6,1.5,83
0.75,-1.5,194
0.75,-1.35,194
0.75,-1.2,140
0.75,-1.05,139
0.75,-0.9,139
0.75,-0.75,139
0.75,-0.6,164
0.75,-0.45,164
0.75,-0.3,173
0.75,-0.15,173
0.75,0.0,174
0.75,0.15,174
0.75,0.3,135
0.75,0.45,134
0.75,0.6,124
0.75,0.75,122
0.75,0.9,121
0.75,1.05,111
0.75,1.2,76
0.75,1.35,76
0.75,1.5,74
0.9,-1.5,220
0.9,-1.35,220
0.9,-1.2,219
0.9,-1.05,138
0.9,-0.9,137
0.9,-0.75,137
0.9,-0.6,137
0.9,-0.45,137
0.9,-0.3,136
0.9,-0.15,136
0.9,0.0,136
0.9,0.15,136
0.9,0.3,145
0.9,0.45,125
0.9,0.6,124
0.9,0.75,113
0.9,0.9,103
0.9,1.05,102
0.9,1.2,101
0.9,1.35,99
0.9,1.5,98
1.05,-1.5,185
1.05,-1.35,184
1.05,-1.2,184
1.05,-1.05,184
1.05,-0.9,183
1.05,-0.75,137
1.05,-0.6,109
1.05,-0.45,108
1.05,-0.3,107
1.05,-0.15,107
1.05,0.0,107
1.05,0.15,107
1.05,0.3,107
1.05,0.45,106
1.05,0.6,87
1.05,0.75,77
1.05,0.9,76
1.05,1.05,75
1.05,1.2,74
1.05,1.35,99
1.05,1.5,97
1.2,-1.5,185
1.2,-1.35,185
1.2,-1.2,184
1.2,-1.05,183
1.2,-0.9,145
1.2,-0.75,144
1.2,-0.6,144
1.2,-0.45,107
1.2,-0.3,107
1.2,-0.15,106
1.2,0.0,70
1.2,0.15,79
1.2,0.3,70
1.2,0.45,107
1.2,0.6,87
1.2,0.75,86
1.2,0.9,76
1.2,1.05,75
1.2,1.2,74
1.2,1.35,40
1.2,1.5,41
1.35,-1.5,185
1.35,-1.35,185
1.35,-1.2,147
1.35,-1.05,146
1.35,-0.9,146
1.35,-0.75,145
1.35,-0.6,145
1.35,-0.45,144
1.35,-0.3,144
1.35,-0.15,97
1.35,0.0,97
1.35,0.15,60
1.35,0.3,69
1.35,0.45,60
1.35,0.6,97
1.35,0.75,86
1.35,0.9,40
1.35,1.05,40
1.35,1.2,40
1.35,1.35,40
1.35,1.5,40
1.5,-1.5,146
1.5,-1.35,146
1.5,-1.2,146
1.5,-1.05,137
1.5,-0.9,137
1.5,-0.75,136
1.5,-0.6,136
1.5,-0.45,145
1.5,-0.3,145
1.5,-0.15,144
1.5,0.0,88
1.5,0.15,79
1.5,0.3,87
1.5,0.45,87
1.5,0.6,60
1.5,0.75,69
1.5,0.9,32
1.5,1.05,14
1.5,1.2,40
1.5,1.35,40
1.5,1.5,40
1.65,-1.5,144
1.65,-1.35,146
1.65,-1.2,146
1.65,-1.05,146
1.65,-0.9,145
1.65,-0.75,145
1.65,-0.6,145
1.65,-0.45,136
1.65,-0.3,145
1.65,-0.15,135
1.65,0.0,98
1.65,0.15,42
1.65,0.3,42
1.65,0.45,51
1.65,0.6,50
1.65,0.75,24
1.65,0.9,24
1.65,1.05,23
1.65,1.2,23
1.65,1.35,14
1.65,1.5,14
1.8,-1.5,117
1.8,-1.35,109
1.8,-1.2,108
1.8,-1.05,145
1.8,-0.9,145
1.8,-0.75,109
1.8,-0.6,109
1.8,-0.45,99
1.8,-0.3,99
1.8,-0.15,98
1.8,0.0,98
1.8,0.15,97
1.8,0.3,51
1.8,0.45,60
1.8,0.6,24
1.8,0.75,33
1.8,0.9,33
1.8,1.05,33
1.8,1.2,70
1.8,1.35,68
1.8,1.5,59
1.95,-1.5,117
1.95,-1.35,108
1.95,-1.2,109
1.95,-1.05,108
1.95,-0.9,108
1.95,-0.75,99
1.95,-0.6,100
1.95,-0.45,108
1.95,-0.3,108
1.95,-0.15,116
1.95,0.0,116
1.95,0.15,61
1.95,0.3,60
1.95,0.45,23
1.95,0.6,33
1.95,0.75,33
1.95,0.9,33
1.95,1.05,78
1.95,1.2,69
1.95,1.35,69
1.95,1.5,96
2.1,-1.5,109
2.1,-1.35,109
2.1,-1.2,100
2.1,-1.05,99
2.1,-0.9,91
2.1,-0.75,101
2.1,-0.6,101
2.1,-0.45,136
2.1,-0.3,100
2.1,-0.15,108
2.1,0.0,116
2.1,0.15,51
2.1,0.3,14
2.1,0.45,23
2.1,0.6,33
2.1,0.75,33
2.1,0.9,69
2.1,1.05,96
2.1,1.2,97
2.1,1.35,97
2.1,1.5,97
2.25,-1.5,109
2.25,-1.35,109
2.25,-1.2,109
2.25,-1.05,109
2.25,-0.9,101
2.25,-0.75,100
2.25,-0.6,99
2.25,-0.45,99
2.25,-0.3,135
2.25,-0.15,135
2.25,0.0,60
2.25,0.15,24
2.25,0.3,33
2.25,0.45,51
2.25,0.6,42
2.25,0.75,70
2.25,0.9,97
2.25,1.05,97
2.25,1.2,97
2.25,1.35,106
2.25,1.5,106
2.4,-1.5,109
2.4,-1.35,109
2.4,-1.2,109
2.4,-1.05,109
2.4,-0.9,109
2.4,-0.75,109
2.4,-0.6,99
2.4,-0.45,99
2.4,-0.3,98
2.4,-0.15,69
2.4,0.0,60
2.4,0.15,60
2.4,0.3,70
2.4,0.45,42
2.4,0.6,97
2.4,0.75,98
2.4,0.9,89
2.4,1.05,89
2.4,1.2,89
2.4,1.35,89
2.4,1.5,90
2.55,-1.5,109
2.55,-1.35,109
2.55,-1.2,109
2.55,-1.05,109
2.55,-0.9,109
2.55,-0.75,108
2.55,-0.6,108
2.55,-0.45,51
2.55,-0.3,42
2.55,-0.15,60
2.55,0.0,60
2.55,0.15,88
2.55,0.3,88
2.55,0.45,88
2.55,0.6,106
2.55,0.75,107
2.55,0.9,80
2.55,1.05,80
2.55,1.2,80
2.55,1.35,80
2.55,1.5,80
2.7,-1.5,51
2.7,-1.35,51
2.7,-1.2,60
2.7,-1.05,60
2.7,-0.9,60
2.7,-0.75,60
2.7,-0.6,60
2.7,-0.45,60
2.7,-0.3,88
2.7,-0.15,42
2.7,0.0,70
2.7,0.15,79
2.7,0.3,70
2.7,0.45,116
2.7,0.6,107
2.7,0.75,116
2.7,0.9,80
2.7,1.05,98
2.7,1.2,98
2.7,1.35,98
2.7,1.5,98
2.85,-1.5,51
2.85,-1.35,51
2.85,-1.2,51
2.85,-1.05,51
2.85,-0.9,51
2.85,-0.75,51
2.85,-0.6,51
2.85,-0.45,51
2.85,-0.3,60
2.85,-0.15,51
2.85,0.0,24
2.85,0.15,51
2.85,0.3,42
2.85,0.45,125
2.85,0.6,125
2.85,0.75,107
2.85,0.9,107
2.85,1.05,98
2.85,1.2,98
2.85,1.35,98
2.85,1.5,98
3.0,-1.5,51
3.0,-1.35,51
3.0,-1.2,51
3.0,-1.05,51
3.0,-0.9,60
3.0,-0.75,60
3.0,-0.6,51
3.0,-0.45,51
3.0,-0.3,51
3.0,-0.15,60
3.0,0.0,33
3.0,0.15,42
3.0,0.3,60
3.0,0.45,88
3.0,0.6,88
3.0,0.75,89
3.0,0.9,89
3.0,1.05,97
3.0,1.2,97
3.0,1.35,97
3.0,1.5,97
3.15,-1.5,42
3.15,-1.35,42
3.15,-1.2,42
3.15,-1.05,42
3.15,-0.9,51
3.15,-0.75,60
3.15,-0.6,51
3.15,-0.45,60
3.15,-0.3,70
3.15,-0.15,70
3.15,0.0,51
3.15,0.15,51
3.15,0.3,33
3.15,0.45,51
3.15,0.6,79
3.15,0.75,106
3.15,0.9,115
3.15,1.05,115
3.15,1.2,115
3.15,1.35,124
3.15,1.5,123
3.3,-1.5,32
3.3,-1.35,32
3.3,-1.2,86
3.3,-1.05,87
3.3,-0.9,96
3.3,-0.75,96
3.3,-0.6,106
3.3,-0.45,115
3.3,-0.3,60
3.3,-0.15,79
3.3,0.0,60
3.3,0.15,60
3.3,0.3,42
3.3,0.45,51
3.3,0.6,42
3.3,0.75,42
3.3,0.9,79
3.3,1.05,79
3.3,1.2,106
3.3,1.35,106
3.3,1.5,106
3.45,-1.5,23
3.45,-1.35,32
3.45,-1.2,32
3.45,-1.05,50
3.45,-0.9,51
3.45,-0.75,51
3.45,-0.6,51
3.45,-0.45,51
3.45,-0.3,60
3.45,-0.15,70
3.45,0.0,33
3.45,0.15,24
3.45,0.3,42
3.45,0.45,51
3.45,0.6,51
3.45,0.75,51
3.45,0.9,42
3.45,1.05,41
3.45,1.2,41
3.45,1.35,69
3.45,1.5,69
3.6,-1.5,40
3.6,-1.35,49
3.6,-1.2,50
3.6,-1.05,41
3.6,-0.9,41
3.6,-0.75,41
3.6,-0.6,42
3.6,-0.45,33
3.6,-0.3,33
3.6,-0.15,42
3.6,0.0,60
3.6,0.15,42
3.6,0.3,42
3.6,0.45,51
3.6,0.6,51
3.6,0.75,42
3.6,0.9,51
3.6,1.05,51
3.6,1.2,51
3.6,1.35,41
3.6,1.5,41
3.75,-1.5,5
3.75,-1.35,50
3.75,-1.2,0
3.75,-1.05,32
3.75,-0.9,23
3.75,-0.75,23
3.75,-0.6,23
3.75,-0.45,23
3.75,-0.3,23
3.75,-0.15,33
3.75,0.0,70
3.75,0.15,125
3.75,0.3,79
3.75,0.45,69
3.75,0.6,42
3.75,0.75,23
3.75,0.9,69
3.75,1.05,69
3.75,1.2,69
3.75,1.35,32
3.75,1.5,70
3.9,-1.5,5
3.9,-1.35,0
3.9,-1.2,0
3.9,-1.05,5
3.9,-0.9,5
3.9,-0.75,5
3.9,-0.6,5
3.9,-0.45,5
3.9,-0.3,5
3.9,-0.15,51
3.9,0.0,106
3.9,0.15,143
3.9,0.3,70
3.9,0.45,70
3.9,0.6,51
3.9,0.75,42
3.9,0.9,23
3.9,1.05,23
3.9,1.2,60
3.9,1.35,69
3.9,1.5,69
4.05,-1.5,13
4.05,-1.35,13
4.05,-1.2,14
4.05,-1.05,32
4.05,-0.9,32
4.05,-0.75,50
4.05,-0.6,51
4.05,-0.45,51
4.05,-0.3,69
4.05,-0.15,134
4.05,0.0,125
4.05,0.15,79
4.05,0.3,88
4.05,0.45,51
4.05,0.6,42
4.05,0.75,24
4.05,0.9,23
4.05,1.05,60
4.05,1.2,60
4.05,1.35,60
4.05,1.5,60
4.2,-1.5,32
4.2,-1.35,32
4.2,-1.2,32
4.2,-1.05,50
4.2,-0.9,50
4.2,-0.75,51
4.2,-0.6,78
4.2,-0.45,79
4.2,-0.3,70
4.2,-0.15,134
4.2,0.0,97
4.2,0.15,60
4.2,0.3,97
4.2,0.45,42
4.2,0.6,33
4.2,0.75,70
4.2,0.9,70
4.2,1.05,70
4.2,1.2,70
4.2,1.35,70
4.2,1.5,70
4.35,-1.5,32
4.35,-1.35,32
4.35,-1.2,32
4.35,-1.05,32
4.35,-0.9,41
4.35,-0.75,42
4.35,-0.6,42
4.35,-0.45,51
4.35,-0.3,79
4.35,-0.15,107
4.35,0.0,60
4.35,0.15,60
4.35,0.3,134
4.35,0.45,51
4.35,0.6,70
4.35,0.75,70
4.35,0.9,83
4.35,1.05,83
4.35,1.2,83
4.35,1.35,83
4.35,1.5,83
4.5,-1.5,32
4.5,-1.35,32
4.5,-1.2,32
4.5,-1.05,32
4.5,-0.9,32
4.5,-0.75,32
4.5,-0.6,33
4.5,-0.45,51
4.5,-0.3,42
4.5,-0.15,60
4.5,0.0,70
4.5,0.15,97
4.5,0.3,199
4.5,0.45,134
4.5,0.6,79
4.5,0.75,43
4.5,0.9,52
4.5,1.05,43
4.5,1.2,43
4.5,1.35,82
4.5,1.5,83
4.65,-1.5,23
4.65,-1.35,32
4.65,-1.2,32
4.65,-1.05,32
4.65,-0.9,32
4.65,-0.75,32
4.65,-0.6,33
4.65,-0.45,23
4.65,-0.3,60
4.65,-0.15,88
4.65,0.0,153
4.65,0.15,199
4.65,0.3,208
4.65,0.45,171
4.65,0.6,107
4.65,0.75,79
4.65,0.9,80
4.65,1.05,81
4.65,1.2,117
4.65,1.35,82
4.65,1.5,91
4.8,-1.5,14
4.8,-1.35,14
4.8,-1.2,14
4.8,-1.05,14
4.8,-0.9,14
4.8,-0.75,23
4.8,-0.6,14
4.8,-0.45,51
4.8,-0.3,51
4.8,-0.15,152
4.8,0.0,217
4.8,0.15,143
4.8,0.3,162
4.8,0.45,134
4.8,0.6,88
4.8,0.75,79
4.8,0.9,117
4.8,1.05,117
4.8,1.2,154
4.8,1.35,163
4.8,1.5,163
4.95,-1.5,14
4.95,-1.35,14
4.95,-1.2,14
4.95,-1.05,14
4.95,-0.9,14
4.95,-0.75,14
4.95,-0.6,14
4.95,-0.45,24
4.95,-0.3,143
4.95,-0.15,162
4.95,0.0,162
4.95,0.15,116
4.95,0.3,106
4.95,0.45,51
4.95,0.6,42
4.95,0.75,163
4.95,0.9,163
4.95,1.05,163
4.95,1.2,163
4.95,1.35,164
4.95,1.5,164
5.1,-1.5,5
5.1,-1.35,14
5.1,-1.2,14
5.1,-1.05,14
5.1,-0.9,14
5.1,-0.75,14
5.1,-0.6,33
5.1,-0.45,69
5.1,-0.3,88
5.1,-0.15,171
5.1,0.0,180
5.1,0.15,106
5.1,0.3,24
5.1,0.45,116
5.1,0.6,208
5.1,0.75,190
5.1,0.9,190
5.1,1.05,200
5.1,1.2,200
5.1,1.35,181
5.1,1.5,154
5.25,-1.5,23
5.25,-1.35,14
5.25,-1.2,14
5.25,-1.05,14
5.25,-0.9,14
5.25,-0.75,23
5.25,-0.6,5
5.25,-0.45,14
5.25,-0.3,79
5.25,-0.15,51
5.25,0.0,88
5.25,0.15,79
5.25,0.3,125
5.25,0.45,134
5.25,0.6,162
5.25,0.75,181
5.25,0.9,171
5.25,1.05,171
5.25,1.2,180
5.25,1.35,181
5.25,1.5,173
5.4,-1.5,0
5.4,-1.35,0
5.4,-1.2,31
5.4,-1.05,31
5.4,-0.9,32
5.4,-0.75,50
5.4,-0.6,60
5.4,-0.45,97
5.4,-0.3,106
5.4,-0.15,51
5.4,0.0,24
5.4,0.15,88
5.4,0.3,116
5.4,0.45,171
5.4,0.6,171
5.4,0.75,162
5.4,0.9,135
5.4,1.05,153
5.4,1.2,153
5.4,1.35,136
5.4,1.5,136
5.55,-1.5,22
5.55,-1.35,22
5.55,-1.2,22
5.55,-1.05,32
5.55,-0.9,32
5.55,-0.75,41
5.55,-0.6,42
5.55,-0.45,78
5.55,-0.3,88
5.55,-0.15,42
5.55,0.0,42
5.55,0.15,51
5.55,0.3,88
5.55,0.45,208
5.55,0.6,143
5.55,0.75,144
5.55,0.9,153
5.55,1.05,126
5.55,1.2,126
5.55,1.35,126
5.55,1.5,164
5.7,-1.5,31
5.7,-1.35,67
5.7,-1.2,67
5.7,-1.05,32
5.7,-0.9,32
5.7,-0.75,32
5.7,-0.6,23
5.7,-0.45,33
5.7,-0.3,79
5.7,-0.15,97
5.7,0.0,79
5.7,0.15,33
5.7,0.3,106
5.7,0.45,171
5.7,0.6,116
5.7,0.75,143
5.7,0.9,143
5.7,1.05,126
5.7,1.2,155
5.7,1.35,155
5.7,1.5,145
5.85,-1.5,67
5.85,-1.35,67
5.85,-1.2,68
5.85,-1.05,68
5.85,-0.9,68
5.85,-0.75,69
5.85,-0.6,69
5.85,-0.45,23
5.85,-0.3,42
5.85,-0.15,24
5.85,0.0,14
5.85,0.15,51
5.85,0.3,70
5.85,0.45,180
5.85,0.6,143
5.85,0.75,143
5.85,0.9,143
5.85,1.05,126
5.85,1.2,116
5.85,1.35,145
5.85,1.5,145
6.0,-1.5,41
6.0,-1.35,32
6.0,-1.2,32
6.0,-1.05,41
6.0,-0.9,41
6.0,-0.75,42
6.0,-0.6,51
6.0,-0.45,42
6.0,-0.3,42
6.0,-0.15,79
6.0,0.0,33
6.0,0.15,88
6.0,0.3,199
6.0,0.45,125
6.0,0.6,116
6.0,0.75,143
6.0,0.9,143
6.0,1.05,107
6.0,1.2,107
6.0,1.35,107
6.0,1.5,135
6.15,-1.5,32
6.15,-1.35,32
6.15,-1.2,41
6.15,-1.05,51
6.15,-0.9,51
6.15,-0.75,51
6.15,-0.6,51
6.15,-0.45,51
6.15,-0.3,51
6.15,-0.15,97
6.15,0.0,51
6.15,0.15,125
6.15,0.3,134
6.15,0.45,42
6.15,0.6,125
6.15,0.75,126
6.15,0.9,125
6.15,1.05,134
6.15,1.2,152
6.15,1.35,152
6.15,1.5,152
6.3,-1.5,86
6.3,-1.35,86
6.3,-1.2,88
6.3,-1.05,32
6.3,-0.9,88
6.3,-0.75,88
6.3,-0.6,97
6.3,-0.45,97
6.3,-0.3,70
6.3,-0.15,33
6.3,0.0,88
6.3,0.15,60
6.3,0.3,24
6.3,0.45,79
6.3,0.6,189
6.3,0.75,189
6.3,0.9,189
6.3,1.05,189
6.3,1.2,171
6.3,1.35,171
6.3,1.5,170
6.45,-1.5,114
6.45,-1.35,78
6.45,-1.2,78
6.45,-1.05,97
6.45,-0.9,97
6.45,-0.75,79
6.45,-0.6,97
6.45,-0.45,88
6.45,-0.3,134
6.45,-0.15,134
6.45,0.0,60
6.45,0.15,33
6.45,0.3,106
6.45,0.45,171
6.45,0.6,162
6.45,0.75,180
6.45,0.9,190
6.45,1.05,190
6.45,1.2,198
6.45,1.35,197
6.45,1.5,197
6.6,-1.5,151
6.6,-1.35,124
6.6,-1.2,97
6.6,-1.05,97
6.6,-0.9,97
6.6,-0.75,97
6.6,-0.6,125
6.6,-0.45,125
6.6,-0.3,180
6.6,-0.15,143
6.6,0.0,60
6.6,0.15,42
6.6,0.3,79
6.6,0.45,106
6.6,0.6,143
6.6,0.75,162
6.6,0.9,162
6.6,1.05,189
6.6,1.2,198
6.6,1.35,197
6.6,1.5,170
6.75,-1.5,152
6.75,-1.35,153
6.75,-1.2,162
6.75,-1.05,162
6.75,-0.9,162
6.75,-0.75,162
6.75,-0.6,125
6.75,-0.45,88
6.75,-0.3,106
6.75,-0.15,143
6.75,0.0,116
6.75,0.15,42
6.75,0.3,33
6.75,0.45,51
6.75,0.6,125
6.75,0.75,61
6.75,0.9,98
6.75,1.05,107
6.75,1.2,107
6.75,1.35,143
6.75,1.5,108
6.9,-1.5,107
6.9,-1.35,107
6.9,-1.2,107
6.9,-1.05,98
6.9,-0.9,107
6.9,-0.75,107
6.9,-0.6,107
6.9,-0.45,107
6.9,-0.3,70
6.9,-0.15,51
6.9,0.0,199
6.9,0.15,106
6.9,0.3,116
6.9,0.45,70
6.9,0.6,70
6.9,0.75,70
6.9,0.9,97
6.9,1.05,69
6.9,1.2,98
6.9,1.35,98
6.9,1.5,126
7.05,-1.5,107
7.05,-1.35,107
7.05,-1.2,107
7.05,-1.05,107
7.05,-0.9,143
7.05,-0.75,143
7.05,-0.6,143
7.05,-0.45,143
7.05,-0.3,162
7.05,-0.15,88
7.05,0.0,143
7.05,0.15,208
7.05,0.3,51
7.05,0.45,70
7.05,0.6,60
7.05,0.75,69
7.05,0.9,24
7.05,1.05,24
7.05,1.2,52
7.05,1.35,52
7.05,1.5,52
7.2,-1.5,97
7.2,-1.35,88
7.2,-1.2,88
7.2,-1.05,79
7.2,-0.9,79
7.2,-0.75,79
7.2,-0.6,107
7.2,-0.45,116
7.2,-0.3,88
7.2,-0.15,116
7.2,0.0,51
7.2,0.15,208
7.2,0.3,60
7.2,0.45,23
7.2,0.6,5
7.2,0.75,5
7.2,0.9,52
7.2,1.05,52
7.2,1.2,52
7.2,1.35,43
7.2,1.5,43
7.35,-1.5,79
7.35,-1.35,79
7.35,-1.2,79
7.35,-1.05,79
7.35,-0.9,70
7.35,-0.75,70
7.35,-0.6,70
7.35,-0.45,88
7.35,-0.3,70
7.35,-0.15,79
7.35,0.0,97
7.35,0.15,162
7.35,0.3,116
7.35,0.45,33
7.35,0.6,14
7.35,0.75,24
7.35,0.9,42
7.35,1.05,52
7.35,1.2,80
7.35,1.35,80
7.35,1.5,80
7.5,-1.5,97
7.5,-1.35,69
7.5,-1.2,69
7.5,-1.05,60
7.5,-0.9,33
7.5,-0.75,42
7.5,-0.6,42
7.5,-0.45,79
7.5,-0.3,88
7.5,-0.15,70
7.5,0.0,14
7.5,0.15,97
7.5,0.3,88
7.5,0.45,51
7.5,0.6,88
7.5,0.75,116
7.5,0.9,116
7.5,1.05,79
7.5,1.2,80
7.5,1.35,117
7.5,1.5,80
7.65,-1.5,165
7.65,-1.35,143
7.65,-1.2,143
7.65,-1.05,143
7.65,-0.9,143
7.65,-0.75,143
7.65,-0.6,143
7.65,-0.45,143
7.65,-0.3,106
7.65,-0.15,97
7.65,0.0,0
7.65,0.15,88
7.65,0.3,143
7.65,0.45,134
7.65,0.6,134
7.65,0.75,125
7.65,0.9,153
7.65,1.05,180
7.65,1.2,180
7.65,1.35,171
7.65,1.5,171
7.8,-1.5,202
7.8,-1.35,201
7.8,-1.2,237
7.8,-1.05,180
7.8,-0.9,180
7.8,-0.75,162
7.8,-0.6,162
7.8,-0.45,162
7.8,-0.3,162
7.8,-0.15,116
7.8,0.0,14
7.8,0.15,24
7.8,0.3,189
7.8,0.45,125
7.8,0.6,171
7.8,0.75,190
7.8,0.9,180
7.8,1.05,171
7.8,1.2,171
7.8,1.35,171
7.8,1.5,171
7.95,-1.5,220
7.95,-1.35,220
7.95,-1.2,220
7.95,-1.05,246
7.95,-0.9,246
7.95,-0.75,235
7.95,-0.6,198
7.95,-0.45,198
7.95,-0.3,134
7.95,-0.15,79
7.95,0.0,106
7.95,0.15,24
7.95,0.3,60
7.95,0.45,79
7.95,0.6,107
7.95,0.75,107
7.95,0.9,107
7.95,1.05,171
7.95,1.2,153
7.95,1.35,153
7.95,1.5,153
8.1,-1.5,148
8.1,-1.35,147
8.1,-1.2,128
8.1,-1.05,127
8.1,-0.9,90
8.1,-0.75,126
8.1,-0.6,79
8.1,-0.45,79
8.1,-0.3,88
8.1,-0.15,79
8.1,0.0,106
8.1,0.15,51
8.1,0.3,42
8.1,0.45,88
8.1,0.6,97
8.1,0.75,70
8.1,0.9,107
8.1,1.05,144
8.1,1.2,144
8.1,1.35,116
8.1,1.5,144
8.25,-1.5,130
8.25,-1.35,166
8.25,-1.2,165
8.25,-1.05,110
8.25,-0.9,109
8.25,-0.75,81
8.25,-0.6,80
8.25,-0.45,33
8.25,-0.3,60
8.25,-0.15,125
8.25,0.0,51
8.25,0.15,88
8.25,0.3,180
8.25,0.45,217
8.25,0.6,97
8.25,0.75,88
8.25,0.9,116
8.25,1.05,116
8.25,1.2,116
8.25,1.35,107
8.25,1.5,144
8.4,-1.5,122
8.4,-1.35,121
8.4,-1.2,120
8.4,-1.05,119
8.4,-0.9,109
8.4,-0.75,108
8.4,-0.6,52
8.4,-0.45,14
8.4,-0.3,33
8.4,-0.15,70
8.4,0.0,153
8.4,0.15,60
8.4,0.3,134
8.4,0.45,189
8.4,0.6,106
8.4,0.75,97
8.4,0.9,97
8.4,1.05,144
8.4,1.2,116
8.4,1.35,117
8.4,1.5,117
8.55,-1.5,114
8.55,-1.35,113
8.55,-1.2,112
8.55,-1.05,111
8.55,-0.9,110
8.55,-0.75,109
8.55,-0.6,117
8.55,-0.45,116
8.55,-0.3,24
8.55,-0.15,60
8.55,0.0,97
8.55,0.15,189
8.55,0.3,79
8.55,0.45,97
8.55,0.6,125
8.55,0.75,79
8.55,0.9,116
8.55,1.05,116
8.55,1.2,144
8.55,1.35,144
8.55,1.5,107
8.7,-1.5,132
8.7,-1.35,131
8.7,-1.2,130
8.7,-1.05,165
8.7,-0.9,165
8.7,-0.75,164
8.7,-0.6,172
8.7,-0.45,153
8.7,-0.3,97
8.7,-0.15,51
8.7,0.0,162
8.7,0.15,255
8.7,0.3,171
8.7,0.45,180
8.7,0.6,134
8.7,0.75,134
8.7,0.9,134
8.7,1.05,79
8.7,1.2,79
8.7,1.35,79
8.7,1.5,79
8.85,-1.5,169
8.85,-1.35,169
8.85,-1.2,203
8.85,-1.05,203
8.85,-0.9,210
8.85,-0.75,219
8.85,-0.6,218
8.85,-0.45,171
8.85,-0.3,125
8.85,-0.15,88
8.85,0.0,125
8.85,0.15,171
8.85,0.3,162
8.85,0.45,189
8.85,0.6,199
8.85,0.75,180
8.85,0.9,161
8.85,1.05,134
8.85,1.2,89
8.85,1.35,89
8.85,1.5,89
9.0,-1.5,169
9.0,-1.35,177
9.0,-1.2,212
9.0,-1.05,221
9.0,-0.9,211
9.0,-0.75,210
9.0,-0.6,163
9.0,-0.45,153
9.0,-0.3,79
9.0,-0.15,51
9.0,0.0,51
9.0,0.15,125
9.0,0.3,143
9.0,0.45,143
9.0,0.6,125
9.0,0.75,97
9.0,0.9,116
9.0,1.05,125
9.0,1.2,125
9.0,1.35,125
9.0,1.5,125
9.15,-1.5,197
9.15,-1.35,196
9.15,-1.2,186
9.15,-1.05,186
9.15,-0.9,221
9.15,-0.75,172
9.15,-0.6,154
9.15,-0.45,97
9.15,-0.3,97
9.15,-0.15,97
9.15,0.0,51
9.15,0.15,97
9.15,0.3,134
9.15,0.45,97
9.15,0.6,106
9.15,0.75,106
9.15,0.9,107
9.15,1.05,107
9.15,1.2,98
9.15,1.35,98
9.15,1.5,98
9.3,-1.5,255
9.3,-1.35,255
9.3,-1.2,255
9.3,-1.05,255
9.3,-0.9,237
9.3,-0.75,180
9.3,-0.6,144
9.3,-0.45,144
9.3,-0.3,143
9.3,-0.15,116
9.3,0.0,106
9.3,0.15,97
9.3,0.3,51
9.3,0.45,60
9.3,0.6,143
9.3,0.75,107
9.3,0.9,97
9.3,1.05,125
9.3,1.2,125
9.3,1.35,125
9.3,1.5,125
9.45,-1.5,255
9.45,-1.35,255
9.45,-1.2,199
9.45,-1.05,209
9.45,-0.9,209
9.45,-0.75,209
9.45,-0.6,208
9.45,-0.45,208
9.45,-0.3,180
9.45,-0.15,235
9.45,0.0,189
9.45,0.15,134
9.45,0.3,125
9.45,0.45,134
9.45,0.6,171
9.45,0.75,161
9.45,0.9,124
9.45,1.05,124
9.45,1.2,125
9.45,1.35,125
9.45,1.5,125
9.6,-1.5,236
9.6,-1.35,236
9.6,-1.2,236
9.6,-1.05,236
9.6,-0.9,236
9.6,-0.75,236
9.6,-0.6,245
9.6,-0.45,255
9.6,-0.3,226
9.6,-0.15,254
9.6,0.0,254
9.6,0.15,208
9.6,0.3,245
9.6,0.45,254
9.6,0.6,180
9.6,0.75,161
9.6,0.9,161
9.6,1.05,160
9.6,1.2,133
9.6,1.35,97
9.6,1.5,97
9.75,-1.5,236
9.75,-1.35,236
9.75,-1.2,236
9.75,-1.05,236
9.75,-0.9,236
9.75,-0.75,236
9.75,-0.6,254
9.75,-0.45,245
9.75,-0.3,245
9.75,-0.15,208
9.75,0.0,189
9.75,0.15,255
9.75,0.3,226
9.75,0.45,244
9.75,0.6,161
9.75,0.75,170
9.75,0.9,179
9.75,1.05,124
9.75,1.2,124
9.75,1.35,97
9.75,1.5,97
9.9,-1.5,235
9.9,-1.35,235
9.9,-1.2,235
9.9,-1.05,235
9.9,-0.9,235
9.9,-0.75,236
9.9,-0.6,208
9.9,-0.45,199
9.9,-0.3,217
9.9,-0.15,208
9.9,0.0,189
9.9,0.15,255
9.9,0.3,255
9.9,0.45,254
9.9,0.6,171
9.9,0.75,134
9.9,0.9,133
9.9,1.05,141
9.9,1.2,87
9.9,1.35,87
9.9,1.5,87
10.05,-1.5,244
10.05,-1.35,253
10.05,-1.2,235
10.05,-1.05,235
10.05,-0.9,254
10.05,-0.75,208
10.05,-0.6,208
10.05,-0.45,217
10.05,-0.3,190
10.05,-0.15,153
10.05,0.0,180
10.05,0.15,189
10.05,0.3,255
10.05,0.45,244
10.05,0.6,189
10.05,0.75,169
10.05,0.9,132
10.05,1.05,131
10.05,1.2,87
10.05,1.35,122
10.05,1.5,86
10.2,-1.5,253
10.2,-1.35,253
10.2,-1.2,253
10.2,-1.05,253
10.2,-0.9,253
10.2,-0.75,208
10.2,-0.6,208
10.2,-0.45,153
10.2,-0.3,107
10.2,-0.15,88
10.2,0.0,69
10.2,0.15,134
10.2,0.3,125
10.2,0.45,125
10.2,0.6,133
10.2,0.75,151
10.2,0.9,133
10.2,1.05,105
10.2,1.2,104
10.2,1.35,104
10.2,1.5,78
10.35,-1.5,205
10.35,-1.35,187
10.35,-1.2,226
10.35,-1.05,189
10.35,-0.9,189
10.35,-0.75,207
10.35,-0.6,180
10.35,-0.45,134
10.35,-0.3,134
10.35,-0.15,134
10.35,0.0,69
10.35,0.15,116
10.35,0.3,180
10.35,0.45,115
10.35,0.6,115
10.35,0.75,124
10.35,0.9,87
10.35,1.05,105
10.35,1.2,113
10.35,1.35,77
10.35,1.5,77
10.5,-1.5,196
10.5,-1.35,196
10.5,-1.2,168
10.5,-1.05,169
10.5,-0.9,180
10.5,-0.75,180
10.5,-0.6,162
10.5,-0.45,125
10.5,-0.3,134
10.5,-0.15,125
10.5,0.0,88
10.5,0.15,98
10.5,0.3,88
10.5,0.45,125
10.5,0.6,125
10.5,0.75,97
10.5,0.9,133
10.5,1.05,96
10.5,1.2,96
10.5,1.35,113
10.5,1.5,77
10.65,-1.5,132
10.65,-1.35,132
10.65,-1.2,132
10.65,-1.05,133
10.65,-0.9,170
10.65,-0.75,226
10.65,-0.6,245
10.65,-0.45,245
10.65,-0.3,153
10.65,-0.15,152
10.65,0.0,97
10.65,0.15,107
10.65,0.3,79
10.65,0.45,98
10.65,0.6,97
10.65,0.75,97
10.65,0.9,96
10.65,1.05,105
10.65,1.2,95
10.65,1.35,94
10.65,1.5,93
10.8,-1.5,176
10.8,-1.35,176
10.8,-1.2,187
10.8,-1.05,187
10.8,-0.9,188
10.8,-0.75,188
10.8,-0.6,189
10.8,-0.45,199
10.8,-0.3,199
10.8,-0.15,208
10.8,0.0,153
10.8,0.15,117
10.8,0.3,98
10.8,0.45,106
10.8,0.6,97
10.8,0.75,96
10.8,0.9,152
10.8,1.05,151
10.8,1.2,150
10.8,1.35,150
10.8,1.5,148
10.95,-1.5,231
10.95,-1.35,232
10.95,-1.2,233
10.95,-1.05,233
10.95,-0.9,234
10.95,-0.75,234
10.95,-0.6,235
10.95,-0.45,245
10.95,-0.3,245
10.95,-0.15,226
10.95,0.0,226
10.95,0.15,161
10.95,0.3,180
10.95,0.45,172
10.95,0.6,171
10.95,0.75,198
10.95,0.9,206
10.95,1.05,205
10.95,1.2,204
10.95,1.35,149
10.95,1.5,148
11.1,-1.5,232
11.1,-1.35,233
11.1,-1.2,233
11.1,-1.05,234
11.1,-0.9,234
11.1,-0.75,244
11.1,-0.6,244
11.1,-0.45,180
11.1,-0.3,235
11.1,-0.15,217
11.1,0.0,253
11.1,0.15,255
11.1,0.3,208
11.1,0.45,171
11.1,0.6,161
11.1,0.75,160
11.1,0.9,160
11.1,1.05,159
11.1,1.2,158
11.1,1.35,132
11.1,1.5,131
11.25,-1.5,231
11.25,-1.35,231
11.25,-1.2,232
11.25,-1.05,178
11.25,-0.9,171
11.25,-0.75,171
11.25,-0.6,171
11.25,-0.45,171
11.25,-0.3,208
11.25,-0.15,208
11.25,0.0,227
11.25,0.15,227
11.25,0.3,181
11.25,0.45,199
11.25,0.6,198
11.25,0.75,198
11.25,0.9,197
11.25,1.05,196
11.25,1.2,214
11.25,1.35,213
11.25,1.5,213
11.4,-1.5,169
11.4,-1.35,169
11.4,-1.2,169
11.4,-1.05,171
11.4,-0.9,171
11.4,-0.75,171
11.4,-0.6,198
11.4,-0.45,207
11.4,-0.3,207
11.4,-0.15,180
11.4,0.0,189
11.4,0.15,134
11.4,0.3,171
11.4,0.45,180
11.4,0.6,180
11.4,0.75,234
11.4,0.9,233
11.4,1.05,233
11.4,1.2,233
11.4,1.35,233
11.4,1.5,232
11.55,-1.5,168
11.55,-1.35,168
11.55,-1.2,168
11.55,-1.05,169
11.55,-0.9,169
11.55,-0.75,169
11.55,-0.6,170
11.55,-0.45,134
11.55,-0.3,135
11.55,-0.15,107
11.55,0.0,162
11.55,0.15,162
11.55,0.3,199
11.55,0.45,253
11.55,0.6,226
11.55,0.75,235
11.55,0.9,235
11.55,1.05,234
11.55,1.2,234
11.55,1.35,234
11.55,1.5,234
11.7,-1.5,111
11.7,-1.35,114
11.7,-1.2,79
11.7,-1.05,79
11.7,-0.9,78
11.7,-0.75,78
11.7,-0.6,78
11.7,-0.45,79
11.7,-0.3,116
11.7,-0.15,116
11.7,0.0,106
11.7,0.15,198
11.7,0.3,235
11.7,0.45,254
11.7,0.6,254
11.7,0.75,227
11.7,0.9,226
11.7,1.05,226
11.7,1.2,226
11.7,1.35,225
11.7,1.5,224
11.85,-1.5,79
11.85,-1.35,79
11.85,-1.2,80
11.85,-1.05,80
11.85,-0.9,77
11.85,-0.75,77
11.85,-0.6,42
11.85,-0.45,80
11.85,-0.3,60
11.85,-0.15,97
11.85,0.0,88
11.85,0.15,171
11.85,0.3,227
11.85,0.45,255
11.85,0.6,245
11.85,0.75,254
11.85,0.9,226
11.85,1.05,226
11.85,1.2,226
11.85,1.35,226
11.85,1.5,210
12.0,-1.5,112
12.0,-1.35,113
12.0,-1.2,113
12.0,-1.05,117
12.0,-0.9,116
12.0,-0.75,78
12.0,-0.6,23
12.0,-0.45,23
12.0,-0.3,60
12.0,-0.15,60
12.0,0.0,88
12.0,0.15,208
12.0,0.3,134
12.0,0.45,190
12.0,0.6,245
12.0,0.75,245
12.0,0.9,254
12.0,1.05,253
12.0,1.2,212
12.0,1.35,211
12.0,1.5,210
12.15,-1.5,113
12.15,-1.35,113
12.15,-1.2,94
12.15,-1.05,94
12.15,-0.9,133
12.15,-0.75,98
12.15,-0.6,98
12.15,-0.45,61
12.15,-0.3,60
12.15,-0.15,60
12.15,0.0,89
12.15,0.15,171
12.15,0.3,172
12.15,0.45,172
12.15,0.6,191
12.15,0.75,191
12.15,0.9,243
12.15,1.05,238
12.15,1.2,237
12.15,1.35,210
12.15,1.5,209
12.3,-1.5,94
12.3,-1.35,94
12.3,-1.2,95
12.3,-1.05,131
12.3,-0.9,135
12.3,-0.75,134
12.3,-0.6,135
12.3,-0.45,135
12.3,-0.3,98
12.3,-0.15,125
12.3,0.0,88
12.3,0.15,134
12.3,0.3,171
12.3,0.45,172
12.3,0.6,136
12.3,0.75,136
12.3,0.9,132
12.3,1.05,184
12.3,1.2,183
12.3,1.35,200
12.3,1.5,199
12.45,-1.5,95
12.45,-1.35,96
12.45,-1.2,131
12.45,-1.05,132
12.45,-0.9,132
12.45,-0.75,136
12.45,-0.6,126
12.45,-0.45,126
12.45,-0.3,125
12.45,-0.15,115
12.45,0.0,78
12.45,0.15,79
12.45,0.3,207
12.45,0.45,171
12.45,0.6,171
12.45,0.75,171
12.45,0.9,133
12.45,1.05,132
12.45,1.2,131
12.45,1.35,181
12.45,1.5,181
12.6,-1.5,131
12.6,-1.35,131
12.6,-1.2,132
12.6,-1.05,132
12.6,-0.9,125
12.6,-0.75,127
12.6,-0.6,127
12.6,-0.45,126
12.6,-0.3,126
12.6,-0.15,116
12.6,0.0,115
12.6,0.15,78
12.6,0.3,134
12.6,0.45,207
12.6,0.6,206
12.6,0.75,167
12.6,0.9,167
12.6,1.05,165
12.6,1.2,130
12.6,1.35,130
12.6,1.5,130
12.75,-1.5,131
12.75,-1.35,132
12.75,-1.2,125
12.75,-1.05,125
12.75,-0.9,125
12.75,-0.75,125
12.75,-0.6,127
12.75,-0.45,127
12.75,-0.3,117
12.75,-0.15,116
12.75,0.0,115
12.75,0.15,79
12.75,0.3,134
12.75,0.45,170
12.75,0.6,167
12.75,0.75,166
12.75,0.9,166
12.75,1.05,164
12.75,1.2,163
12.75,1.35,129
12.75,1.5,128
12.9,-1.5,125
12.9,-1.35,125
12.9,-1.2,125
12.9,-1.05,125
12.9,-0.9,125
12.9,-0.75,125
12.9,-0.6,127
12.9,-0.45,127
12.9,-0.3,118
12.9,-0.15,117
12.9,0.0,116
12.9,0.15,115
12.9,0.3,114
12.9,0.45,170
12.9,0.6,165
12.9,0.75,165
12.9,0.9,165
12.9,1.05,164
12.9,1.2,164
12.9,1.35,196
12.9,1.5,161
13.05,-1.5,125
13.05,-1.35,125
13.05,-1.2,125
13.05,-1.05,125
13.05,-0.9,125
13.05,-0.75,125
13.05,-0.6,116
13.05,-0.45,127
13.05,-0.3,119
13.05,-0.15,118
13.05,0.0,116
13.05,0.15,115
13.05,0.3,114
13.05,0.45,169
13.05,0.6,164
13.05,0.75,163
13.05,0.9,163
13.05,1.05,163
13.05,1.2,162
13.05,1.35,162
13.05,1.5,193
