-3.0,-1.5,147
-3.0,-1.35,147
-3.0,-1.2,147
-3.0,-1.05,147
-3.0,-0.9,147
-3.0,-0.75,147
-3.0,-0.6,147
-3.0,-0.45,146
-3.0,-0.3,146
-3.0,-0.15,146
-3.0,0.0,146
-3.0,0.15,121
-3.0,0.3,121
-3.0,0.45,121
-3.0,0.6,120
-3.0,0.75,120
-3.0,0.9,120
-3.0,1.05,120
-3.0,1.2,120
-3.0,1.35,120
-3.0,1.5,119
-2.85,-1.5,148
-2.85,-1.35,148
-2.85,-1.2,147
-2.85,-1.05,147
-2.85,-0.9,147
-2.85,-0.75,147
-2.85,-0.6,147
-2.85,-0.45,147
-2.85,-0.3,147
-2.85,-0.15,146
-2.85,0.0,146
-2.85,0.15,121
-2.85,0.3,121
-2.85,0.45,121
-2.85,0.6,121
-2.85,0.75,120
-2.85,0.9,120
-2.85,1.05,120
-2.85,1.2,120
-2.85,1.35,120
-2.85,1.5,154
-2.7,-1.5,148
-2.7,-1.35,148
-2.7,-1.2,148
-2.7,-1.05,148
-2.7,-0.9,147
-2.7,-0.75,147
-2.7,-0.6,147
-2.7,-0.45,147
-2.7,-0.3,147
-2.7,-0.15,147
-2.7,0.0,147
-2.7,0.15,121
-2.7,0.3,121
-2.7,0.45,121
-2.7,0.6,121
-2.7,0.75,121
-2.7,0.9,120
-2.7,1.05,120
-2.7,1.2,154
-2.7,1.35,154
-2.7,1.5,154
-2.55,-1.5,148
-2.55,-1.35,148
-2.55,-1.2,148
-2.55,-1.05,148
-2.55,-0.9,148
-2.55,-0.75,148
-2.55,-0.6,147
-2.55,-0.45,147
-2.55,-0.3,147
-2.55,-0.15,147
-2.55,0.0,147
-2.55,0.15,121
-2.55,0.3,121
-2.55,0.45,121
-2.55,0.6,121
-2.55,0.75,121
-2.55,0.9,155
-2.55,1.05,155
-2.55,1.2,154
-2.55,1.35,154
-2.55,1.5,154
-2.4,-1.5,148
-2.4,-1.35,148
-2.4,-1.2,148
-2.4,-1.05,148
-2.4,-0.9,148
-2.4,-0.75,148
-2.4,-0.6,148
-2.4,-0.45,148
-2.4,-0.3,147
-2.4,-0.15,147
-2.4,0.0,147
-2.4,0.15,122
-2.4,0.3,121
-2.4,0.45,121
-2.4,0.6,156
-2.4,0.75,155
-2.4,0.9,155
-2.4,1.05,155
-2.4,1.2,155
-2.4,1.35,154
-2.4,1.5,154
-2.25,-1.5,149
-2.25,-1.35,149
-2.25,-1.2,148
-2.25,-1.05,148
-2.25,-0.9,148
-2.25,-0.75,148
-2.25,-0.6,148
-2.25,-0.45,148
-2.25,-0.3,148
-2.25,-0.15,148
-2.25,0.0,147
-2.25,0.15,122
-2.25,0.3,121
-2.25,0.45,156
-2.25,0.6,156
-2.25,0.75,155
-2.25,0.9,155
-2.25,1.05,155
-2.25,1.2,155
-2.25,1.35,154
-2.25,1.5,154
-2.1,-1.5,149
-2.1,-1.35,149
-2.1,-1.2,149
-2.1,-1.05,149
-2.1,-0.9,149
-2.1,-0.75,149
-2.1,-0.6,148
-2.1,-0.45,148
-2.1,-0.3,148
-2.1,-0.15,148
-2.1,0.0,148
-2.1,0.15,157
-2.1,0.3,156
-2.1,0.45,156
-2.1,0.6,156
-2.1,0.75,156
-2.1,0.9,155
-2.1,1.05,155
-2.1,1.2,155
-2.1,1.35,155
-2.1,1.5,154
-1.95,-1.5,149
-1.95,-1.35,149
-1.95,-1.2,149
-1.95,-1.05,149
-1.95,-0.9,149
-1.95,-0.75,149
-1.95,-0.6,149
-1.95,-0.45,149
-1.95,-0.3,149
-1.95,-0.15,157
-1.95,0.0,157
-1.95,0.15,157
-1.95,0.3,157
-1.95,0.45,156
-1.95,0.6,156
-1.95,0.75,156
-1.95,0.9,155
-1.95,1.05,155
-1.95,1.2,155
-1.95,1.35,155
-1.95,1.5,154
-1.8,-1.5,140
-1.8,-1.35,149
-1.8,-1.2,149
-1.8,-1.05,149
-1.8,-0.9,149
-1.8,-0.75,149
-1.8,-0.6,149
-1.8,-0.45,149
-1.8,-0.3,157
-1.8,-0.15,157
-1.8,0.0,157
-1.8,0.15,157
-1.8,0.3,157
-1.8,0.45,157
-1.8,0.6,156
-1.8,0.75,156
-1.8,0.9,156
-1.8,1.05,155
-1.8,1.2,155
-1.8,1.35,155
-1.8,1.5,155
-1.65,-1.5,140
-1.65,-1.35,140
-1.65,-1.2,140
-1.65,-1.05,140
-1.65,-0.9,149
-1.65,-0.75,149
-1.65,-0.6,157
-1.65,-0.45,157
-1.65,-0.3,157
-1.65,-0.15,157
-1.65,0.0,157
-1.65,0.15,157
-1.65,0.3,157
-1.65,0.45,157
-1.65,0.6,157
-1.65,0.75,156
-1.65,0.9,121
-1.65,1.05,121
-1.65,1.2,121
-1.65,1.35,121
-1.65,1.5,121
-1.5,-1.5,140
-1.5,-1.35,140
-1.5,-1.2,140
-1.5,-1.05,140
-1.5,-0.9,140
-1.5,-0.75,150
-1.5,-0.6,150
-1.5,-0.45,157
-1.5,-0.3,157
-1.5,-0.15,157
-1.5,0.0,157
-1.5,0.15,157
-1.5,0.3,157
-1.5,0.45,157
-1.5,0.6,157
-1.5,0.75,157
-1.5,0.9,121
-1.5,1.05,121
-1.5,1.2,121
-1.5,1.35,121
-1.5,1.5,121
-1.35,-1.5,140
-1.35,-1.35,140
-1.35,-1.2,140
-1.35,-1.05,150
-1.35,-0.9,150
-1.35,-0.75,150
-1.35,-0.6,150
-1.35,-0.45,150
-1.35,-0.3,157
-1.35,-0.15,157
-1.35,0.0,157
-1.35,0.15,123
-1.35,0.3,123
-1.35,0.45,123
-1.35,0.6,123
-1.35,0.75,157
-1.35,0.9,157
-1.35,1.05,157
-1.35,1.2,121
-1.35,1.35,121
-1.35,1.5,121
-1.2,-1.5,140
-1.2,-1.35,140
-1.2,-1.2,150
-1.2,-1.05,150
-1.2,-0.9,150
-1.2,-0.75,150
-1.2,-0.6,149
-1.2,-0.45,149
-1.2,-0.3,149
-1.2,-0.15,123
-1.2,0.0,123
-1.2,0.15,123
-1.2,0.3,123
-1.2,0.45,123
-1.2,0.6,140
-1.2,0.75,157
-1.2,0.9,157
-1.2,1.05,157
-1.2,1.2,139
-1.2,1.35,139
-1.2,1.5,104
-1.05,-1.5,159
-1.05,-1.35,158
-1.05,-1.2,150
-1.05,-1.05,150
-1.05,-0.9,149
-1.05,-0.75,132
-1.05,-0.6,132
-1.05,-0.45,132
-1.05,-0.3,131
-1.05,-0.15,131
-1.05,0.0,131
-1.05,0.15,131
-1.05,0.3,131
-1.05,0.45,123
-1.05,0.6,157
-1.05,0.75,140
-1.05,0.9,140
-1.05,1.05,140
-1.05,1.2,140
-1.05,1.35,140
-1.05,1.5,140
-0.9,-1.5,150
-0.9,-1.35,123
-0.9,-1.2,123
-0.9,-1.05,123
-0.9,-0.9,123
-0.9,-0.75,123
-0.9,-0.6,123
-0.9,-0.45,158
-0.9,-0.3,158
-0.9,-0.15,158
-0.9,0.0,158
-0.9,0.15,158
-0.9,0.3,158
-0.9,0.45,158
-0.9,0.6,123
-0.9,0.75,131
-0.9,0.9,131
-0.9,1.05,96
-0.9,1.2,96
-0.9,1.35,131
-0.9,1.5,131
-0.75,-1.5,123
-0.75,-1.35,114
-0.75,-1.2,123
-0.75,-1.05,123
-0.75,-0.9,123
-0.75,-0.75,123
-0.75,-0.6,123
-0.75,-0.45,123
-0.75,-0.3,158
-0.75,-0.15,158
-0.75,0.0,158
-0.75,0.15,158
-0.75,0.3,123
-0.75,0.45,123
-0.75,0.6,123
-0.75,0.75,123
-0.75,0.9,140
-0.75,1.05,96
-0.75,1.2,132
-0.75,1.35,123
-0.75,1.5,166
-0.6,-1.5,114
-0.6,-1.35,114
-0.6,-1.2,114
-0.6,-1.05,123
-0.6,-0.9,123
-0.6,-0.75,123
-0.6,-0.6,123
-0.6,-0.45,123
-0.6,-0.3,149
-0.6,-0.15,123
-0.6,0.0,123
-0.6,0.15,123
-0.6,0.3,166
-0.6,0.45,166
-0.6,0.6,166
-0.6,0.75,166
-0.6,0.9,131
-0.6,1.05,158
-0.6,1.2,158
-0.6,1.35,158
-0.6,1.5,166
-0.45,-1.5,106
-0.45,-1.35,106
-0.45,-1.2,106
-0.45,-1.05,106
-0.45,-0.9,114
-0.45,-0.75,140
-0.45,-0.6,140
-0.45,-0.45,123
-0.45,-0.3,123
-0.45,-0.15,166
-0.45,0.0,166
-0.45,0.15,166
-0.45,0.3,140
-0.45,0.45,140
-0.45,0.6,131
-0.45,0.75,123
-0.45,0.9,158
-0.45,1.05,158
-0.45,1.2,158
-0.45,1.35,166
-0.45,1.5,167
-0.3,-1.5,105
-0.3,-1.35,105
-0.3,-1.2,105
-0.3,-1.05,88
-0.3,-0.9,88
-0.3,-0.75,114
-0.3,-0.6,158
-0.3,-0.45,158
-0.3,-0.3,158
-0.3,-0.15,131
-0.3,0.0,123
-0.3,0.15,123
-0.3,0.3,131
-0.3,0.45,131
-0.3,0.6,123
-0.3,0.75,158
-0.3,0.9,158
-0.3,1.05,166
-0.3,1.2,167
-0.3,1.35,167
-0.3,1.5,167
-0.15,-1.5,79
-0.15,-1.35,79
-0.15,-1.2,79
-0.15,-1.05,88
-0.15,-0.9,88
-0.15,-0.75,88
-0.15,-0.6,131
-0.15,-0.45,122
-0.15,-0.3,122
-0.15,-0.15,123
-0.15,0.0,123
-0.15,0.15,131
-0.15,0.3,131
-0.15,0.45,123
-0.15,0.6,123
-0.15,0.75,158
-0.15,0.9,158
-0.15,1.05,158
-0.15,1.2,158
-0.15,1.35,158
-0.15,1.5,158
0.0,-1.5,79
0.0,-1.35,79
0.0,-1.2,43
0.0,-1.05,61
0.0,-0.9,105
0.0,-0.75,105
0.0,-0.6,96
0.0,-0.45,122
0.0,-0.3,114
0.0,-0.15,114
0.0,0.0,123
0.0,0.15,131
0.0,0.3,96
0.0,0.45,131
0.0,0.6,131
0.0,0.75,132
0.0,0.9,132
0.0,1.05,158
0.0,1.2,158
0.0,1.35,158
0.0,1.5,158
0.15,-1.5,35
0.15,-1.35,35
0.15,-1.2,8
0.15,-1.05,8
0.15,-0.9,61
0.15,-0.75,61
0.15,-0.6,78
0.15,-0.45,70
0.15,-0.3,96
0.15,-0.15,96
0.15,0.0,96
0.15,0.15,96
0.15,0.3,105
0.15,0.45,131
0.15,0.6,132
0.15,0.75,132
0.15,0.9,158
0.15,1.05,158
0.15,1.2,158
0.15,1.35,158
0.15,1.5,158
0.3,-1.5,8
0.3,-1.35,8
0.3,-1.2,8
0.3,-1.05,8
0.3,-0.9,8
0.3,-0.75,61
0.3,-0.6,61
0.3,-0.45,61
0.3,-0.3,61
0.3,-0.15,105
0.3,0.0,105
0.3,0.15,96
0.3,0.3,96
0.3,0.45,123
0.3,0.6,123
0.3,0.75,158
0.3,0.9,158
0.3,1.05,158
0.3,1.2,158
0.3,1.35,158
0.3,1.5,158
0.45,-1.5,35
0.45,-1.35,35
0.45,-1.2,43
0.45,-1.05,43
0.45,-0.9,43
0.45,-0.75,43
0.45,-0.6,61
0.45,-0.45,61
0.45,-0.3,61
0.45,-0.15,61
0.45,0.0,52
0.45,0.15,79
0.45,0.3,79
0.45,0.45,140
0.45,0.6,158
0.45,0.75,158
0.45,0.9,193
0.45,1.05,193
0.45,1.2,193
0.45,1.35,193
0.45,1.5,193
0.6,-1.5,43
0.6,-1.35,35
0.6,-1.2,35
0.6,-1.05,35
0.6,-0.9,35
0.6,-0.75,43
0.6,-0.6,43
0.6,-0.45,43
0.6,-0.3,43
0.6,-0.15,96
0.6,0.0,87
0.6,0.15,114
0.6,0.3,140
0.6,0.45,149
0.6,0.6,149
0.6,0.75,149
0.6,0.9,149
0.6,1.05,184
0.6,1.2,184
0.6,1.35,184
0.6,1.5,184
0.75,-1.5,52
0.75,-1.35,43
0.75,-1.2,43
0.75,-1.05,35
0.75,-0.9,35
0.75,-0.75,35
0.75,-0.6,35
0.75,-0.45,35
0.75,-0.3,43
0.75,-0.15,43
0.75,0.0,70
0.75,0.15,96
0.75,0.3,131
0.75,0.45,131
0.75,0.6,97
0.75,0.75,149
0.75,0.9,149
0.75,1.05,149
0.75,1.2,158
0.75,1.35,158
0.75,1.5,184
0.9,-1.5,35
0.9,-1.35,35
0.9,-1.2,35
0.9,-1.05,61
0.9,-0.9,61
0.9,-0.75,43
0.9,-0.6,43
0.9,-0.45,43
0.9,-0.3,43
0.9,-0.15,70
0.9,0.0,96
0.9,0.15,96
0.9,0.3,123
0.9,0.45,132
0.9,0.6,132
0.9,0.75,132
0.9,0.9,114
0.9,1.05,114
0.9,1.2,105
0.9,1.35,105
0.9,1.5,106
1.05,-1.5,44
1.05,-1.35,43
1.05,-1.2,35
1.05,-1.05,35
1.05,-0.9,61
1.05,-0.75,52
1.05,-0.6,52
1.05,-0.45,43
1.05,-0.3,70
1.05,-0.15,70
1.05,0.0,96
1.05,0.15,96
1.05,0.3,105
1.05,0.45,132
1.05,0.6,140
1.05,0.75,140
1.05,0.9,114
1.05,1.05,140
1.05,1.2,140
1.05,1.35,140
1.05,1.5,140
1.2,-1.5,44
1.2,-1.35,52
1.2,-1.2,43
1.2,-1.05,43
1.2,-0.9,43
1.2,-0.75,35
1.2,-0.6,61
1.2,-0.45,61
1.2,-0.3,52
1.2,-0.15,70
1.2,0.0,79
1.2,0.15,114
1.2,0.3,114
1.2,0.45,114
1.2,0.6,140
1.2,0.75,140
1.2,0.9,140
1.2,1.05,140
1.2,1.2,167
1.2,1.35,167
1.2,1.5,167
1.35,-1.5,35
1.35,-1.35,35
1.35,-1.2,35
1.35,-1.05,35
1.35,-0.9,26
1.35,-0.75,35
1.35,-0.6,35
1.35,-0.45,26
1.35,-0.3,35
1.35,-0.15,26
1.35,0.0,52
1.35,0.15,96
1.35,0.3,123
1.35,0.45,114
1.35,0.6,140
1.35,0.75,149
1.35,0.9,176
1.35,1.05,176
1.35,1.2,176
1.35,1.35,176
1.35,1.5,157
1.5,-1.5,43
1.5,-1.35,35
1.5,-1.2,35
1.5,-1.05,26
1.5,-0.9,35
1.5,-0.75,35
1.5,-0.6,35
1.5,-0.45,43
1.5,-0.3,43
1.5,-0.15,35
1.5,0.0,52
1.5,0.15,96
1.5,0.3,96
1.5,0.45,123
1.5,0.6,149
1.5,0.75,175
1.5,0.9,176
1.5,1.05,176
1.5,1.2,176
1.5,1.35,166
1.5,1.5,166
1.65,-1.5,105
1.65,-1.35,79
1.65,-1.2,79
1.65,-1.05,52
1.65,-0.9,52
1.65,-0.75,43
1.65,-0.6,52
1.65,-0.45,43
1.65,-0.3,43
1.65,-0.15,43
1.65,0.0,61
1.65,0.15,70
1.65,0.3,70
1.65,0.45,96
1.65,0.6,123
1.65,0.75,184
1.65,0.9,175
1.65,1.05,176
1.65,1.2,140
1.65,1.35,131
1.65,1.5,131
1.8,-1.5,105
1.8,-1.35,114
1.8,-1.2,114
1.8,-1.05,79
1.8,-0.9,52
1.8,-0.75,52
1.8,-0.6,43
1.8,-0.45,52
1.8,-0.3,61
1.8,-0.15,43
1.8,0.0,70
1.8,0.15,70
1.8,0.3,96
1.8,0.45,123
1.8,0.6,123
1.8,0.75,123
1.8,0.9,149
1.8,1.05,140
1.8,1.2,140
1.8,1.35,166
1.8,1.5,166
1.95,-1.5,96
1.95,-1.35,105
1.95,-1.2,105
1.95,-1.05,114
1.95,-0.9,87
1.95,-0.75,87
1.95,-0.6,52
1.95,-0.45,52
1.95,-0.3,52
1.95,-0.15,52
1.95,0.0,123
1.95,0.15,123
1.95,0.3,140
1.95,0.45,140
1.95,0.6,140
1.95,0.75,114
1.95,0.9,114
1.95,1.05,105
1.95,1.2,105
1.95,1.35,149
1.95,1.5,149
2.1,-1.5,87
2.1,-1.35,87
2.1,-1.2,87
2.1,-1.05,96
2.1,-0.9,131
2.1,-0.75,105
2.1,-0.6,105
2.1,-0.45,87
2.1,-0.3,87
2.1,-0.15,87
2.1,0.0,123
2.1,0.15,140
2.1,0.3,140
2.1,0.45,131
2.1,0.6,114
2.1,0.75,114
2.1,0.9,105
2.1,1.05,149
2.1,1.2,149
2.1,1.35,149
2.1,1.5,149
2.25,-1.5,79
2.25,-1.35,79
2.25,-1.2,114
2.25,-1.05,114
2.25,-0.9,114
2.25,-0.75,122
2.25,-0.6,131
2.25,-0.45,96
2.25,-0.3,105
2.25,-0.15,123
2.25,0.0,96
2.25,0.15,123
2.25,0.3,96
2.25,0.45,114
2.25,0.6,114
2.25,0.75,158
2.25,0.9,149
2.25,1.05,149
2.25,1.2,149
2.25,1.35,149
2.25,1.5,149
2.4,-1.5,96
2.4,-1.35,87
2.4,-1.2,79
2.4,-1.05,79
2.4,-0.9,114
2.4,-0.75,114
2.4,-0.6,123
2.4,-0.45,123
2.4,-0.3,96
2.4,-0.15,105
2.4,0.0,70
2.4,0.15,105
2.4,0.3,105
2.4,0.45,105
2.4,0.6,132
2.4,0.75,123
2.4,0.9,123
2.4,1.05,123
2.4,1.2,123
2.4,1.35,123
2.4,1.5,123
2.55,-1.5,96
2.55,-1.35,96
2.55,-1.2,96
2.55,-1.05,96
2.55,-0.9,79
2.55,-0.75,79
2.55,-0.6,114
2.55,-0.45,123
2.55,-0.3,70
2.55,-0.15,43
2.55,0.0,61
2.55,0.15,61
2.55,0.3,79
2.55,0.45,131
2.55,0.6,140
2.55,0.75,131
2.55,0.9,131
2.55,1.05,131
2.55,1.2,131
2.55,1.35,123
2.55,1.5,123
2.7,-1.5,105
2.7,-1.35,105
2.7,-1.2,105
2.7,-1.05,105
2.7,-0.9,96
2.7,-0.75,87
2.7,-0.6,140
2.7,-0.45,105
2.7,-0.3,43
2.7,-0.15,43
2.7,0.0,17
2.7,0.15,17
2.7,0.3,17
2.7,0.45,105
2.7,0.6,105
2.7,0.75,123
2.7,0.9,123
2.7,1.05,131
2.7,1.2,131
2.7,1.35,131
2.7,1.5,131
2.85,-1.5,96
2.85,-1.35,96
2.85,-1.2,149
2.85,-1.05,122
2.85,-0.9,122
2.85,-0.75,122
2.85,-0.6,96
2.85,-0.45,131
2.85,-0.3,61
2.85,-0.15,61
2.85,0.0,43
2.85,0.15,35
2.85,0.3,79
2.85,0.45,87
2.85,0.6,114
2.85,0.75,114
2.85,0.9,114
2.85,1.05,114
2.85,1.2,105
2.85,1.35,105
2.85,1.5,96
3.0,-1.5,122
3.0,-1.35,166
3.0,-1.2,166
3.0,-1.05,166
3.0,-0.9,166
3.0,-0.75,166
3.0,-0.6,175
3.0,-0.45,210
3.0,-0.3,43
3.0,-0.15,61
3.0,0.0,43
3.0,0.15,70
3.0,0.3,96
3.0,0.45,123
3.0,0.6,96
3.0,0.75,87
3.0,0.9,96
3.0,1.05,96
3.0,1.2,96
3.0,1.35,79
3.0,1.5,79
3.15,-1.5,96
3.15,-1.35,96
3.15,-1.2,105
3.15,-1.05,105
3.15,-0.9,175
3.15,-0.75,175
3.15,-0.6,175
3.15,-0.45,114
3.15,-0.3,79
3.15,-0.15,52
3.15,0.0,79
3.15,0.15,96
3.15,0.3,96
3.15,0.45,131
3.15,0.6,114
3.15,0.75,61
3.15,0.9,61
3.15,1.05,61
3.15,1.2,61
3.15,1.35,52
3.15,1.5,70
3.3,-1.5,70
3.3,-1.35,78
3.3,-1.2,114
3.3,-1.05,114
3.3,-0.9,114
3.3,-0.75,140
3.3,-0.6,114
3.3,-0.45,105
3.3,-0.3,61
3.3,-0.15,43
3.3,0.0,96
3.3,0.15,96
3.3,0.3,79
3.3,0.45,114
3.3,0.6,61
3.3,0.75,61
3.3,0.9,52
3.3,1.05,44
3.3,1.2,44
3.3,1.35,44
3.3,1.5,44
3.45,-1.5,52
3.45,-1.35,43
3.45,-1.2,43
3.45,-1.05,87
3.45,-0.9,140
3.45,-0.75,122
3.45,-0.6,79
3.45,-0.45,43
3.45,-0.3,61
3.45,-0.15,43
3.45,0.0,87
3.45,0.15,87
3.45,0.3,87
3.45,0.45,61
3.45,0.6,79
3.45,0.75,79
3.45,0.9,44
3.45,1.05,35
3.45,1.2,35
3.45,1.35,35
3.45,1.5,26
3.6,-1.5,158
3.6,-1.35,114
3.6,-1.2,123
3.6,-1.05,79
3.6,-0.9,87
3.6,-0.75,87
3.6,-0.6,79
3.6,-0.45,70
3.6,-0.3,43
3.6,-0.15,17
3.6,0.0,43
3.6,0.15,43
3.6,0.3,43
3.6,0.45,61
3.6,0.6,61
3.6,0.75,79
3.6,0.9,70
3.6,1.05,61
3.6,1.2,96
3.6,1.35,96
3.6,1.5,96
3.75,-1.5,219
3.75,-1.35,237
3.75,-1.2,193
3.75,-1.05,140
3.75,-0.9,140
3.75,-0.75,122
3.75,-0.6,122
3.75,-0.45,79
3.75,-0.3,8
3.75,-0.15,8
3.75,0.0,35
3.75,0.15,79
3.75,0.3,105
3.75,0.45,105
3.75,0.6,105
3.75,0.75,105
3.75,0.9,149
3.75,1.05,149
3.75,1.2,131
3.75,1.35,131
3.75,1.5,131
3.9,-1.5,254
3.9,-1.35,254
3.9,-1.2,254
3.9,-1.05,254
3.9,-0.9,193
3.9,-0.75,175
3.9,-0.6,175
3.9,-0.45,166
3.9,-0.3,43
3.9,-0.15,79
3.9,0.0,131
3.9,0.15,123
3.9,0.3,114
3.9,0.45,105
3.9,0.6,140
3.9,0.75,140
3.9,0.9,140
3.9,1.05,140
3.9,1.2,140
3.9,1.35,131
3.9,1.5,131
4.05,-1.5,246
4.05,-1.35,246
4.05,-1.2,255
4.05,-1.05,255
4.05,-0.9,255
4.05,-0.75,219
4.05,-0.6,255
4.05,-0.45,255
4.05,-0.3,158
4.05,-0.15,52
4.05,0.0,105
4.05,0.15,175
4.05,0.3,149
4.05,0.45,140
4.05,0.6,149
4.05,0.75,149
4.05,0.9,149
4.05,1.05,149
4.05,1.2,140
4.05,1.35,140
4.05,1.5,131
4.2,-1.5,228
4.2,-1.35,246
4.2,-1.2,246
4.2,-1.05,255
4.2,-0.9,255
4.2,-0.75,255
4.2,-0.6,210
4.2,-0.45,140
4.2,-0.3,131
4.2,-0.15,26
4.2,0.0,61
4.2,0.15,17
4.2,0.3,52
4.2,0.45,79
4.2,0.6,87
4.2,0.75,79
4.2,0.9,79
4.2,1.05,79
4.2,1.2,79
4.2,1.35,87
4.2,1.5,114
4.35,-1.5,202
4.35,-1.35,211
4.35,-1.2,202
4.35,-1.05,202
4.35,-0.9,193
4.35,-0.75,210
4.35,-0.6,175
4.35,-0.45,61
4.35,-0.3,140
4.35,-0.15,140
4.35,0.0,79
4.35,0.15,26
4.35,0.3,43
4.35,0.45,26
4.35,0.6,17
4.35,0.75,43
4.35,0.9,79
4.35,1.05,79
4.35,1.2,79
4.35,1.35,114
4.35,1.5,114
4.5,-1.5,167
4.5,-1.35,158
4.5,-1.2,158
4.5,-1.05,158
4.5,-0.9,167
4.5,-0.75,140
4.5,-0.6,123
4.5,-0.45,123
4.5,-0.3,166
4.5,-0.15,43
4.5,0.0,43
4.5,0.15,8
4.5,0.3,0
4.5,0.45,61
4.5,0.6,43
4.5,0.75,79
4.5,0.9,79
4.5,1.05,79
4.5,1.2,79
4.5,1.35,79
4.5,1.5,87
4.65,-1.5,166
4.65,-1.35,166
4.65,-1.2,166
4.65,-1.05,149
4.65,-0.9,123
4.65,-0.75,96
4.65,-0.6,52
4.65,-0.45,96
4.65,-0.3,114
4.65,-0.15,35
4.65,0.0,8
4.65,0.15,8
4.65,0.3,35
4.65,0.45,52
4.65,0.6,52
4.65,0.75,79
4.65,0.9,79
4.65,1.05,79
4.65,1.2,87
4.65,1.35,87
4.65,1.5,87
4.8,-1.5,131
4.8,-1.35,96
4.8,-1.2,96
4.8,-1.05,87
4.8,-0.9,61
4.8,-0.75,43
4.8,-0.6,17
4.8,-0.45,105
4.8,-0.3,114
4.8,-0.15,26
4.8,0.0,140
4.8,0.15,70
4.8,0.3,79
4.8,0.45,52
4.8,0.6,52
4.8,0.75,52
4.8,0.9,52
4.8,1.05,52
4.8,1.2,52
4.8,1.35,52
4.8,1.5,52
4.95,-1.5,52
4.95,-1.35,61
4.95,-1.2,35
4.95,-1.05,35
4.95,-0.9,35
4.95,-0.75,26
4.95,-0.6,70
4.95,-0.45,70
4.95,-0.3,8
4.95,-0.15,8
4.95,0.0,114
4.95,0.15,123
4.95,0.3,105
4.95,0.45,70
4.95,0.6,52
4.95,0.75,52
4.95,0.9,52
4.95,1.05,52
4.95,1.2,52
4.95,1.35,52
4.95,1.5,52
5.1,-1.5,17
5.1,-1.35,17
5.1,-1.2,8
5.1,-1.05,17
5.1,-0.9,35
5.1,-0.75,35
5.1,-0.6,61
5.1,-0.45,131
5.1,-0.3,114
5.1,-0.15,105
5.1,0.0,26
5.1,0.15,61
5.1,0.3,114
5.1,0.45,105
5.1,0.6,114
5.1,0.75,87
5.1,0.9,96
5.1,1.05,96
5.1,1.2,96
5.1,1.35,96
5.1,1.5,96
5.25,-1.5,0
5.25,-1.35,0
5.25,-1.2,17
5.25,-1.05,17
5.25,-0.9,17
5.25,-0.75,43
5.25,-0.6,87
5.25,-0.45,79
5.25,-0.3,8
5.25,-0.15,175
5.25,0.0,35
5.25,0.15,131
5.25,0.3,122
5.25,0.45,61
5.25,0.6,87
5.25,0.75,96
5.25,0.9,96
5.25,1.05,87
5.25,1.2,87
5.25,1.35,96
5.25,1.5,78
5.4,-1.5,43
5.4,-1.35,43
5.4,-1.2,43
5.4,-1.05,70
5.4,-0.9,79
5.4,-0.75,166
5.4,-0.6,175
5.4,-0.45,210
5.4,-0.3,43
5.4,-0.15,114
5.4,0.0,140
5.4,0.15,140
5.4,0.3,131
5.4,0.45,105
5.4,0.6,87
5.4,0.75,87
5.4,0.9,87
5.4,1.05,105
5.4,1.2,105
5.4,1.35,70
5.4,1.5,70
5.55,-1.5,35
5.55,-1.35,35
5.55,-1.2,70
5.55,-1.05,70
5.55,-0.9,87
5.55,-0.75,184
5.55,-0.6,237
5.55,-0.45,219
5.55,-0.3,87
5.55,-0.15,87
5.55,0.0,70
5.55,0.15,131
5.55,0.3,105
5.55,0.45,105
5.55,0.6,114
5.55,0.75,105
5.55,0.9,105
5.55,1.05,131
5.55,1.2,131
5.55,1.35,105
5.55,1.5,70
5.7,-1.5,140
5.7,-1.35,140
5.7,-1.2,175
5.7,-1.05,122
5.7,-0.9,70
5.7,-0.75,79
5.7,-0.6,254
5.7,-0.45,228
5.7,-0.3,131
5.7,-0.15,79
5.7,0.0,35
5.7,0.15,52
5.7,0.3,87
5.7,0.45,149
5.7,0.6,149
5.7,0.75,114
5.7,0.9,114
5.7,1.05,122
5.7,1.2,87
5.7,1.35,87
5.7,1.5,122
5.85,-1.5,140
5.85,-1.35,175
5.85,-1.2,175
5.85,-1.05,210
5.85,-0.9,175
5.85,-0.75,202
5.85,-0.6,219
5.85,-0.45,184
5.85,-0.3,87
5.85,-0.15,79
5.85,0.0,26
5.85,0.15,26
5.85,0.3,79
5.85,0.45,114
5.85,0.6,79
5.85,0.75,79
5.85,0.9,79
5.85,1.05,105
5.85,1.2,105
5.85,1.35,105
5.85,1.5,87
6.0,-1.5,105
6.0,-1.35,105
6.0,-1.2,140
6.0,-1.05,175
6.0,-0.9,175
6.0,-0.75,246
6.0,-0.6,193
6.0,-0.45,61
6.0,-0.3,70
6.0,-0.15,202
6.0,0.0,61
6.0,0.15,52
6.0,0.3,96
6.0,0.45,105
6.0,0.6,105
6.0,0.75,105
6.0,0.9,79
6.0,1.05,79
6.0,1.2,70
6.0,1.35,70
6.0,1.5,70
6.15,-1.5,70
6.15,-1.35,70
6.15,-1.2,70
6.15,-1.05,105
6.15,-0.9,175
6.15,-0.75,202
6.15,-0.6,219
6.15,-0.45,149
6.15,-0.3,96
6.15,-0.15,0
6.15,0.0,52
6.15,0.15,96
6.15,0.3,96
6.15,0.45,87
6.15,0.6,87
6.15,0.75,87
6.15,0.9,79
6.15,1.05,79
6.15,1.2,79
6.15,1.35,122
6.15,1.5,70
6.3,-1.5,70
6.3,-1.35,70
6.3,-1.2,105
6.3,-1.05,105
6.3,-0.9,114
6.3,-0.75,149
6.3,-0.6,43
6.3,-0.45,105
6.3,-0.3,105
6.3,-0.15,79
6.3,0.0,96
6.3,0.15,79
6.3,0.3,87
6.3,0.45,114
6.3,0.6,70
6.3,0.75,123
6.3,0.9,114
6.3,1.05,114
6.3,1.2,114
6.3,1.35,114
6.3,1.5,113
6.45,-1.5,79
6.45,-1.35,79
6.45,-1.2,79
6.45,-1.05,87
6.45,-0.9,43
6.45,-0.75,35
6.45,-0.6,87
6.45,-0.45,105
6.45,-0.3,17
6.45,-0.15,123
6.45,0.0,105
6.45,0.15,123
6.45,0.3,166
6.45,0.45,158
6.45,0.6,166
6.45,0.75,166
6.45,0.9,114
6.45,1.05,114
6.45,1.2,114
6.45,1.35,114
6.45,1.5,114
6.6,-1.5,87
6.6,-1.35,87
6.6,-1.2,35
6.6,-1.05,52
6.6,-0.9,43
6.6,-0.75,52
6.6,-0.6,43
6.6,-0.45,52
6.6,-0.3,35
6.6,-0.15,105
6.6,0.0,87
6.6,0.15,131
6.6,0.3,140
6.6,0.45,131
6.6,0.6,122
6.6,0.75,122
6.6,0.9,87
6.6,1.05,114
6.6,1.2,114
6.6,1.35,122
6.6,1.5,122
6.75,-1.5,79
6.75,-1.35,79
6.75,-1.2,79
6.75,-1.05,70
6.75,-0.9,79
6.75,-0.75,70
6.75,-0.6,87
6.75,-0.45,175
6.75,-0.3,96
6.75,-0.15,140
6.75,0.0,61
6.75,0.15,61
6.75,0.3,43
6.75,0.45,105
6.75,0.6,105
6.75,0.75,78
6.75,0.9,78
6.75,1.05,78
6.75,1.2,96
6.75,1.35,87
6.75,1.5,87
6.9,-1.5,96
6.9,-1.35,105
6.9,-1.2,61
6.9,-1.05,61
6.9,-0.9,96
6.9,-0.75,70
6.9,-0.6,61
6.9,-0.45,123
6.9,-0.3,123
6.9,-0.15,131
6.9,0.0,96
6.9,0.15,87
6.9,0.3,114
6.9,0.45,96
6.9,0.6,96
6.9,0.75,52
6.9,0.9,61
6.9,1.05,61
6.9,1.2,52
6.9,1.35,43
6.9,1.5,78
7.05,-1.5,43
7.05,-1.35,43
7.05,-1.2,43
7.05,-1.05,43
7.05,-0.9,43
7.05,-0.75,61
7.05,-0.6,52
7.05,-0.45,52
7.05,-0.3,105
7.05,-0.15,149
7.05,0.0,87
7.05,0.15,96
7.05,0.3,61
7.05,0.45,131
7.05,0.6,70
7.05,0.75,70
7.05,0.9,70
7.05,1.05,70
7.05,1.2,61
7.05,1.35,61
7.05,1.5,69
7.2,-1.5,43
7.2,-1.35,52
7.2,-1.2,43
7.2,-1.05,43
7.2,-0.9,52
7.2,-0.75,52
7.2,-0.6,43
7.2,-0.45,52
7.2,-0.3,114
7.2,-0.15,131
7.2,0.0,131
7.2,0.15,96
7.2,0.3,8
7.2,0.45,26
7.2,0.6,17
7.2,0.75,17
7.2,0.9,17
7.2,1.05,26
7.2,1.2,70
7.2,1.35,78
7.2,1.5,78
7.35,-1.5,140
7.35,-1.35,140
7.35,-1.2,114
7.35,-1.05,105
7.35,-0.9,131
7.35,-0.75,114
7.35,-0.6,87
7.35,-0.45,17
7.35,-0.3,79
7.35,-0.15,61
7.35,0.0,61
7.35,0.15,26
7.35,0.3,43
7.35,0.45,8
7.35,0.6,17
7.35,0.75,26
7.35,0.9,26
7.35,1.05,26
7.35,1.2,26
7.35,1.35,26
7.35,1.5,26
7.5,-1.5,131
7.5,-1.35,122
7.5,-1.2,87
7.5,-1.05,96
7.5,-0.9,96
7.5,-0.75,70
7.5,-0.6,87
7.5,-0.45,26
7.5,-0.3,87
7.5,-0.15,87
7.5,0.0,61
7.5,0.15,43
7.5,0.3,26
7.5,0.45,17
7.5,0.6,26
7.5,0.75,26
7.5,0.9,26
7.5,1.05,26
7.5,1.2,26
7.5,1.35,26
7.5,1.5,26
7.65,-1.5,140
7.65,-1.35,131
7.65,-1.2,131
7.65,-1.05,131
7.65,-0.9,131
7.65,-0.75,96
7.65,-0.6,26
7.65,-0.45,8
7.65,-0.3,79
7.65,-0.15,219
7.65,0.0,79
7.65,0.15,87
7.65,0.3,26
7.65,0.45,26
7.65,0.6,26
7.65,0.75,17
7.65,0.9,26
7.65,1.05,26
7.65,1.2,26
7.65,1.35,17
7.65,1.5,26
7.8,-1.5,140
7.8,-1.35,114
7.8,-1.2,114
7.8,-1.05,105
7.8,-0.9,105
7.8,-0.75,79
7.8,-0.6,35
7.8,-0.45,0
7.8,-0.3,140
7.8,-0.15,210
7.8,0.0,175
7.8,0.15,70
7.8,0.3,17
7.8,0.45,26
7.8,0.6,26
7.8,0.75,35
7.8,0.9,43
7.8,1.05,35
7.8,1.2,35
7.8,1.35,35
7.8,1.5,35
7.95,-1.5,122
7.95,-1.35,96
7.95,-1.2,105
7.95,-1.05,105
7.95,-0.9,87
7.95,-0.75,96
7.95,-0.6,131
7.95,-0.45,17
7.95,-0.3,79
7.95,-0.15,140
7.95,0.0,70
7.95,0.15,61
7.95,0.3,26
7.95,0.45,35
7.95,0.6,43
7.95,0.75,43
7.95,0.9,43
7.95,1.05,52
7.95,1.2,52
7.95,1.35,87
7.95,1.5,87
8.1,-1.5,87
8.1,-1.35,96
8.1,-1.2,96
8.1,-1.05,70
8.1,-0.9,79
8.1,-0.75,105
8.1,-0.6,79
8.1,-0.45,26
8.1,-0.3,0
8.1,-0.15,61
8.1,0.0,61
8.1,0.15,8
8.1,0.3,26
8.1,0.45,52
8.1,0.6,43
8.1,0.75,105
8.1,0.9,105
8.1,1.05,96
8.1,1.2,87
8.1,1.35,87
8.1,1.5,96
8.25,-1.5,87
8.25,-1.35,87
8.25,-1.2,105
8.25,-1.05,79
8.25,-0.9,105
8.25,-0.75,131
8.25,-0.6,105
8.25,-0.45,96
8.25,-0.3,219
8.25,-0.15,166
8.25,0.0,70
8.25,0.15,43
8.25,0.3,87
8.25,0.45,87
8.25,0.6,96
8.25,0.75,87
8.25,0.9,96
8.25,1.05,96
8.25,1.2,96
8.25,1.35,96
8.25,1.5,96
8.4,-1.5,79
8.4,-1.35,79
8.4,-1.2,79
8.4,-1.05,122
8.4,-0.9,114
8.4,-0.75,105
8.4,-0.6,158
8.4,-0.45,70
8.4,-0.3,61
8.4,-0.15,43
8.4,0.0,35
8.4,0.15,114
8.4,0.3,131
8.4,0.45,123
8.4,0.6,123
8.4,0.75,123
8.4,0.9,122
8.4,1.05,122
8.4,1.2,105
8.4,1.35,105
8.4,1.5,96
8.55,-1.5,87
8.55,-1.35,87
8.55,-1.2,87
8.55,-1.05,87
8.55,-0.9,105
8.55,-0.75,105
8.55,-0.6,123
8.55,-0.45,52
8.55,-0.3,43
8.55,-0.15,43
8.55,0.0,52
8.55,0.15,149
8.55,0.3,149
8.55,0.45,149
8.55,0.6,131
8.55,0.75,131
8.55,0.9,131
8.55,1.05,131
8.55,1.2,131
8.55,1.35,78
8.55,1.5,70
8.7,-1.5,78
8.7,-1.35,52
8.7,-1.2,61
8.7,-1.05,61
8.7,-0.9,70
8.7,-0.75,96
8.7,-0.6,43
8.7,-0.45,166
8.7,-0.3,96
8.7,-0.15,61
8.7,0.0,43
8.7,0.15,70
8.7,0.3,140
8.7,0.45,131
8.7,0.6,114
8.7,0.75,114
8.7,0.9,114
8.7,1.05,114
8.7,1.2,114
8.7,1.35,114
8.7,1.5,78
8.85,-1.5,43
8.85,-1.35,52
8.85,-1.2,52
8.85,-1.05,87
8.85,-0.9,87
8.85,-0.75,96
8.85,-0.6,105
8.85,-0.45,149
8.85,-0.3,43
8.85,-0.15,61
8.85,0.0,0
8.85,0.15,70
8.85,0.3,43
8.85,0.45,43
8.85,0.6,96
8.85,0.75,114
8.85,0.9,114
8.85,1.05,79
8.85,1.2,78
8.85,1.35,78
8.85,1.5,78
9.0,-1.5,0
9.0,-1.35,26
9.0,-1.2,26
9.0,-1.05,26
9.0,-0.9,26
9.0,-0.75,26
9.0,-0.6,35
9.0,-0.45,0
9.0,-0.3,43
9.0,-0.15,43
9.0,0.0,43
9.0,0.15,43
9.0,0.3,35
9.0,0.45,35
9.0,0.6,35
9.0,0.75,43
9.0,0.9,43
9.0,1.05,43
9.0,1.2,43
9.0,1.35,78
9.0,1.5,78
9.15,-1.5,0
9.15,-1.35,0
9.15,-1.2,0
9.15,-1.05,0
9.15,-0.9,0
9.15,-0.75,35
9.15,-0.6,0
9.15,-0.45,8
9.15,-0.3,35
9.15,-0.15,26
9.15,0.0,61
9.15,0.15,43
9.15,0.3,52
9.15,0.45,52
9.15,0.6,52
9.15,0.75,52
9.15,0.9,52
9.15,1.05,52
9.15,1.2,26
9.15,1.35,26
9.15,1.5,26
9.3,-1.5,0
9.3,-1.35,0
9.3,-1.2,0
9.3,-1.05,0
9.3,-0.9,0
9.3,-0.75,8
9.3,-0.6,87
9.3,-0.45,166
9.3,-0.3,114
9.3,-0.15,35
9.3,0.0,43
9.3,0.15,70
9.3,0.3,61
9.3,0.45,52
9.3,0.6,52
9.3,0.75,52
9.3,0.9,52
9.3,1.05,35
9.3,1.2,61
9.3,1.35,61
9.3,1.5,61
9.45,-1.5,114
9.45,-1.35,114
9.45,-1.2,149
9.45,-1.05,70
9.45,-0.9,70
9.45,-0.75,79
9.45,-0.6,35
9.45,-0.45,140
9.45,-0.3,43
9.45,-0.15,61
9.45,0.0,79
9.45,0.15,43
9.45,0.3,70
9.45,0.45,87
9.45,0.6,52
9.45,0.75,52
9.45,0.9,61
9.45,1.05,61
9.45,1.2,61
9.45,1.35,61
9.45,1.5,61
9.6,-1.5,184
9.6,-1.35,219
9.6,-1.2,219
9.6,-1.05,184
9.6,-0.9,184
9.6,-0.75,140
9.6,-0.6,105
9.6,-0.45,105
9.6,-0.3,61
9.6,-0.15,114
9.6,0.0,61
9.6,0.15,87
9.6,0.3,87
9.6,0.45,87
9.6,0.6,87
9.6,0.75,87
9.6,0.9,87
9.6,1.05,79
9.6,1.2,79
9.6,1.35,79
9.6,1.5,61
9.75,-1.5,193
9.75,-1.35,210
9.75,-1.2,210
9.75,-1.05,202
9.75,-0.9,175
9.75,-0.75,228
9.75,-0.6,105
9.75,-0.45,123
9.75,-0.3,175
9.75,-0.15,158
9.75,0.0,61
9.75,0.15,70
9.75,0.3,70
9.75,0.45,87
9.75,0.6,87
9.75,0.75,87
9.75,0.9,87
9.75,1.05,87
9.75,1.2,87
9.75,1.35,87
9.75,1.5,140
9.9,-1.5,210
9.9,-1.35,158
9.9,-1.2,158
9.9,-1.05,158
9.9,-0.9,158
9.9,-0.75,149
9.9,-0.6,123
9.9,-0.45,87
9.9,-0.3,184
9.9,-0.15,105
9.9,0.0,122
9.9,0.15,79
9.9,0.3,79
9.9,0.45,79
9.9,0.6,114
9.9,0.75,140
9.9,0.9,123
9.9,1.05,123
9.9,1.2,123
9.9,1.35,140
9.9,1.5,140
10.05,-1.5,158
10.05,-1.35,158
10.05,-1.2,158
10.05,-1.05,167
10.05,-0.9,175
10.05,-0.75,175
10.05,-0.6,70
10.05,-0.45,96
10.05,-0.3,105
10.05,-0.15,96
10.05,0.0,61
10.05,0.15,114
10.05,0.3,167
10.05,0.45,158
10.05,0.6,123
10.05,0.75,132
10.05,0.9,132
10.05,1.05,140
10.05,1.2,140
10.05,1.35,176
10.05,1.5,158
10.2,-1.5,158
10.2,-1.35,131
10.2,-1.2,131
10.2,-1.05,184
10.2,-0.9,184
10.2,-0.75,114
10.2,-0.6,114
10.2,-0.45,149
10.2,-0.3,123
10.2,-0.15,114
10.2,0.0,131
10.2,0.15,175
10.2,0.3,202
10.2,0.45,202
10.2,0.6,202
10.2,0.75,237
10.2,0.9,202
10.2,1.05,202
10.2,1.2,202
10.2,1.35,202
10.2,1.5,202
10.35,-1.5,193
10.35,-1.35,167
10.35,-1.2,167
10.35,-1.05,158
10.35,-0.9,114
10.35,-0.75,96
10.35,-0.6,61
10.35,-0.45,123
10.35,-0.3,140
10.35,-0.15,140
10.35,0.0,193
10.35,0.15,202
10.35,0.3,202
10.35,0.45,219
10.35,0.6,219
10.35,0.75,219
10.35,0.9,237
10.35,1.05,237
10.35,1.2,237
10.35,1.35,193
10.35,1.5,202
10.5,-1.5,167
10.5,-1.35,158
10.5,-1.2,140
10.5,-1.05,140
10.5,-0.9,158
10.5,-0.75,131
10.5,-0.6,123
10.5,-0.45,87
10.5,-0.3,140
10.5,-0.15,140
10.5,0.0,202
10.5,0.15,202
10.5,0.3,211
10.5,0.45,193
10.5,0.6,193
10.5,0.75,202
10.5,0.9,202
10.5,1.05,219
10.5,1.2,219
10.5,1.35,219
10.5,1.5,219
10.65,-1.5,114
10.65,-1.35,132
10.65,-1.2,167
10.65,-1.05,167
10.65,-0.9,131
10.65,-0.75,158
10.65,-0.6,131
10.65,-0.45,87
10.65,-0.3,123
10.65,-0.15,193
10.65,0.0,210
10.65,0.15,254
10.65,0.3,228
10.65,0.45,255
10.65,0.6,167
10.65,0.75,175
10.65,0.9,219
10.65,1.05,254
10.65,1.2,254
10.65,1.35,254
10.65,1.5,254
10.8,-1.5,202
10.8,-1.35,175
10.8,-1.2,175
10.8,-1.05,149
10.8,-0.9,149
10.8,-0.75,175
10.8,-0.6,149
10.8,-0.45,166
10.8,-0.3,158
10.8,-0.15,149
10.8,0.0,219
10.8,0.15,255
10.8,0.3,237
10.8,0.45,219
10.8,0.6,219
10.8,0.75,219
10.8,0.9,219
10.8,1.05,219
10.8,1.2,219
10.8,1.35,219
10.8,1.5,219
10.95,-1.5,175
10.95,-1.35,167
10.95,-1.2,175
10.95,-1.05,175
10.95,-0.9,175
10.95,-0.75,175
10.95,-0.6,158
10.95,-0.45,193
10.95,-0.3,149
10.95,-0.15,149
10.95,0.0,184
10.95,0.15,228
10.95,0.3,228
10.95,0.45,211
10.95,0.6,211
10.95,0.75,211
10.95,0.9,219
10.95,1.05,219
10.95,1.2,219
10.95,1.35,219
10.95,1.5,219
11.1,-1.5,175
11.1,-1.35,158
11.1,-1.2,158
11.1,-1.05,158
11.1,-0.9,158
11.1,-0.75,149
11.1,-0.6,105
11.1,-0.45,193
11.1,-0.3,158
11.1,-0.15,96
11.1,0.0,140
11.1,0.15,149
11.1,0.3,123
11.1,0.45,167
11.1,0.6,167
11.1,0.75,167
11.1,0.9,167
11.1,1.05,167
11.1,1.2,202
11.1,1.35,211
11.1,1.5,219
11.25,-1.5,158
11.25,-1.35,158
11.25,-1.2,237
11.25,-1.05,202
11.25,-0.9,184
11.25,-0.75,149
11.25,-0.6,158
11.25,-0.45,158
11.25,-0.3,114
11.25,-0.15,131
11.25,0.0,105
11.25,0.15,140
11.25,0.3,149
11.25,0.45,175
11.25,0.6,167
11.25,0.75,167
11.25,0.9,167
11.25,1.05,167
11.25,1.2,167
11.25,1.35,167
11.25,1.5,167
11.4,-1.5,175
11.4,-1.35,175
11.4,-1.2,175
11.4,-1.05,175
11.4,-0.9,175
11.4,-0.75,123
11.4,-0.6,149
11.4,-0.45,140
11.4,-0.3,87
11.4,-0.15,87
11.4,0.0,61
11.4,0.15,87
11.4,0.3,87
11.4,0.45,87
11.4,0.6,96
11.4,0.75,96
11.4,0.9,96
11.4,1.05,96
11.4,1.2,149
11.4,1.35,166
11.4,1.5,166
11.55,-1.5,140
11.55,-1.35,122
11.55,-1.2,122
11.55,-1.05,122
11.55,-0.9,122
11.55,-0.75,114
11.55,-0.6,140
11.55,-0.45,140
11.55,-0.3,96
11.55,-0.15,140
11.55,0.0,96
11.55,0.15,61
11.55,0.3,61
11.55,0.45,96
11.55,0.6,96
11.55,0.75,61
11.55,0.9,61
11.55,1.05,61
11.55,1.2,61
11.55,1.35,61
11.55,1.5,148
11.7,-1.5,87
11.7,-1.35,87
11.7,-1.2,87
11.7,-1.05,87
11.7,-0.9,79
11.7,-0.75,140
11.7,-0.6,158
11.7,-0.45,193
11.7,-0.3,149
11.7,-0.15,175
11.7,0.0,175
11.7,0.15,149
11.7,0.3,114
11.7,0.45,61
11.7,0.6,61
11.7,0.75,61
11.7,0.9,96
11.7,1.05,96
11.7,1.2,61
11.7,1.35,61
11.7,1.5,61
11.85,-1.5,96
11.85,-1.35,87
11.85,-1.2,105
11.85,-1.05,122
11.85,-0.9,158
11.85,-0.75,140
11.85,-0.6,140
11.85,-0.45,131
11.85,-0.3,149
11.85,-0.15,96
11.85,0.0,149
11.85,0.15,158
11.85,0.3,149
11.85,0.45,61
11.85,0.6,61
11.85,0.75,61
11.85,0.9,61
11.85,1.05,60
11.85,1.2,60
11.85,1.35,60
11.85,1.5,60
12.0,-1.5,69
12.0,-1.35,70
12.0,-1.2,157
12.0,-1.05,158
12.0,-0.9,158
12.0,-0.75,158
12.0,-0.6,184
12.0,-0.45,166
12.0,-0.3,193
12.0,-0.15,158
12.0,0.0,131
12.0,0.15,184
12.0,0.3,157
12.0,0.45,87
12.0,0.6,70
12.0,0.75,78
12.0,0.9,61
12.0,1.05,60
12.0,1.2,60
12.0,1.35,60
12.0,1.5,60
12.15,-1.5,8
12.15,-1.35,8
12.15,-1.2,43
12.15,-1.05,105
12.15,-0.9,158
12.15,-0.75,158
12.15,-0.6,158
12.15,-0.45,193
12.15,-0.3,193
12.15,-0.15,202
12.15,0.0,202
12.15,0.15,184
12.15,0.3,210
12.15,0.45,96
12.15,0.6,96
12.15,0.75,87
12.15,0.9,60
12.15,1.05,60
12.15,1.2,60
12.15,1.35,60
12.15,1.5,60
12.3,-1.5,61
12.3,-1.35,61
12.3,-1.2,61
12.3,-1.05,61
12.3,-0.9,61
12.3,-0.75,70
12.3,-0.6,87
12.3,-0.45,123
12.3,-0.3,131
12.3,-0.15,122
12.3,0.0,122
12.3,0.15,131
12.3,0.3,131
12.3,0.45,192
12.3,0.6,166
12.3,0.75,95
12.3,0.9,95
12.3,1.05,86
12.3,1.2,86
12.3,1.35,86
12.3,1.5,69
12.45,-1.5,61
12.45,-1.35,61
12.45,-1.2,61
12.45,-1.05,96
12.45,-0.9,61
12.45,-0.75,61
12.45,-0.6,70
12.45,-0.45,79
12.45,-0.3,79
12.45,-0.15,79
12.45,0.0,96
12.45,0.15,96
12.45,0.3,96
12.45,0.45,96
12.45,0.6,95
12.45,0.75,156
12.45,0.9,130
12.45,1.05,95
12.45,1.2,95
12.45,1.35,86
12.45,1.5,86
12.6,-1.5,105
12.6,-1.35,105
12.6,-1.2,105
12.6,-1.05,105
12.6,-0.9,140
12.6,-0.75,149
12.6,-0.6,140
12.6,-0.45,140
12.6,-0.3,131
12.6,-0.15,114
12.6,0.0,61
12.6,0.15,61
12.6,0.3,96
12.6,0.45,96
12.6,0.6,95
12.6,0.75,95
12.6,0.9,104
12.6,1.05,147
12.6,1.2,121
12.6,1.35,121
12.6,1.5,94
12.75,-1.5,105
12.75,-1.35,105
12.75,-1.2,105
12.75,-1.05,131
12.75,-0.9,105
12.75,-0.75,140
12.75,-0.6,140
12.75,-0.45,140
12.75,-0.3,140
12.75,-0.15,149
12.75,0.0,140
12.75,0.15,105
12.75,0.3,105
12.75,0.45,87
12.75,0.6,86
12.75,0.75,86
12.75,0.9,95
12.75,1.05,95
12.75,1.2,95
12.75,1.35,146
12.75,1.5,120
12.9,-1.5,105
12.9,-1.35,105
12.9,-1.2,105
12.9,-1.05,105
12.9,-0.9,105
12.9,-0.75,140
12.9,-0.6,140
12.9,-0.45,140
12.9,-0.3,140
12.9,-0.15,140
12.9,0.0,140
12.9,0.15,140
12.9,0.3,140
12.9,0.45,105
12.9,0.6,104
12.9,0.75,139
12.9,0.9,138
12.9,1.05,138
12.9,1.2,95
12.9,1.35,95
12.9,1.5,95
13.05,-1.5,105
13.05,-1.35,105
13.05,-1.2,105
13.05,-1.05,105
13.05,-0.9,105
13.05,-0.75,105
13.05,-0.6,140
13.05,-0.45,140
13.05,-0.3,140
13.05,-0.15,140
13.05,0.0,140
13.05,0.15,140
13.05,0.3,105
13.05,0.45,104
13.05,0.6,104
13.05,0.75,104
13.05,0.9,104
13.05,1.05,138
13.05,1.2,138
13.05,1.35,138
13.05,1.5,111
