-3.0,-1.5,206
-3.0,-1.35,206
-3.0,-1.2,207
-3.0,-1.05,207
-3.0,-0.9,208
-3.0,-0.75,209
-3.0,-0.6,210
-3.0,-0.45,211
-3.0,-0.3,183
-3.0,-0.15,183
-3.0,0.0,183
-3.0,0.15,183
-3.0,0.3,183
-3.0,0.45,183
-3.0,0.6,183
-3.0,0.75,207
-3.0,0.9,207
-3.0,1.05,207
-3.0,1.2,207
-3.0,1.35,207
-3.0,1.5,207
-2.85,-1.5,206
-2.85,-1.35,206
-2.85,-1.2,206
-2.85,-1.05,207
-2.85,-0.9,208
-2.85,-0.75,209
-2.85,-0.6,210
-2.85,-0.45,211
-2.85,-0.3,212
-2.85,-0.15,183
-2.85,0.0,183
-2.85,0.15,183
-2.85,0.3,183
-2.85,0.45,183
-2.85,0.6,208
-2.85,0.75,207
-2.85,0.9,207
-2.85,1.05,207
-2.85,1.2,207
-2.85,1.35,207
-2.85,1.5,207
-2.7,-1.5,206
-2.7,-1.35,206
-2.7,-1.2,206
-2.7,-1.05,207
-2.7,-0.9,208
-2.7,-0.75,209
-2.7,-0.6,210
-2.7,-0.45,211
-2.7,-0.3,212
-2.7,-0.15,213
-2.7,0.0,183
-2.7,0.15,183
-2.7,0.3,209
-2.7,0.45,208
-2.7,0.6,208
-2.7,0.75,207
-2.7,0.9,207
-2.7,1.05,207
-2.7,1.2,207
-2.7,1.35,207
-2.7,1.5,207
-2.55,-1.5,206
-2.55,-1.35,206
-2.55,-1.2,207
-2.55,-1.05,207
-2.55,-0.9,208
-2.55,-0.75,209
-2.55,-0.6,210
-2.55,-0.45,210
-2.55,-0.3,211
-2.55,-0.15,212
-2.55,0.0,213
-2.55,0.15,210
-2.55,0.3,209
-2.55,0.45,209
-2.55,0.6,208
-2.55,0.75,207
-2.55,0.9,207
-2.55,1.05,207
-2.55,1.2,207
-2.55,1.35,207
-2.55,1.5,207
-2.4,-1.5,206
-2.4,-1.35,206
-2.4,-1.2,207
-2.4,-1.05,208
-2.4,-0.9,208
-2.4,-0.75,209
-2.4,-0.6,210
-2.4,-0.45,210
-2.4,-0.3,211
-2.4,-0.15,240
-2.4,0.0,240
-2.4,0.15,210
-2.4,0.3,209
-2.4,0.45,209
-2.4,0.6,208
-2.4,0.75,207
-2.4,0.9,207
-2.4,1.05,207
-2.4,1.2,207
-2.4,1.35,207
-2.4,1.5,207
-2.25,-1.5,206
-2.25,-1.35,207
-2.25,-1.2,207
-2.25,-1.05,208
-2.25,-0.9,209
-2.25,-0.75,209
-2.25,-0.6,240
-2.25,-0.45,240
-2.25,-0.3,240
-2.25,-0.15,240
-2.25,0.0,240
-2.25,0.15,240
-2.25,0.3,209
-2.25,0.45,208
-2.25,0.6,208
-2.25,0.75,207
-2.25,0.9,207
-2.25,1.05,207
-2.25,1.2,207
-2.25,1.35,207
-2.25,1.5,234
-2.1,-1.5,186
-2.1,-1.35,207
-2.1,-1.2,207
-2.1,-1.05,208
-2.1,-0.9,209
-2.1,-0.75,209
-2.1,-0.6,239
-2.1,-0.45,239
-2.1,-0.3,239
-2.1,-0.15,239
-2.1,0.0,239
-2.1,0.15,240
-2.1,0.3,240
-2.1,0.45,208
-2.1,0.6,207
-2.1,0.75,207
-2.1,0.9,207
-2.1,1.05,207
-2.1,1.2,207
-2.1,1.35,236
-2.1,1.5,235
-1.95,-1.5,186
-1.95,-1.35,187
-1.95,-1.2,187
-1.95,-1.05,188
-1.95,-0.9,188
-1.95,-0.75,219
-1.95,-0.6,239
-1.95,-0.45,239
-1.95,-0.3,239
-1.95,-0.15,239
-1.95,0.0,239
-1.95,0.15,239
-1.95,0.3,239
-1.95,0.45,254
-1.95,0.6,255
-1.95,0.75,209
-1.95,0.9,209
-1.95,1.05,208
-1.95,1.2,208
-1.95,1.35,207
-1.95,1.5,238
-1.8,-1.5,166
-1.8,-1.35,167
-1.8,-1.2,187
-1.8,-1.05,188
-1.8,-0.9,198
-1.8,-0.75,198
-1.8,-0.6,198
-1.8,-0.45,232
-1.8,-0.3,232
-1.8,-0.15,239
-1.8,0.0,240
-1.8,0.15,240
-1.8,0.3,241
-1.8,0.45,241
-1.8,0.6,242
-1.8,0.75,210
-1.8,0.9,210
-1.8,1.05,209
-1.8,1.2,242
-1.8,1.35,241
-1.8,1.5,240
-1.65,-1.5,152
-1.65,-1.35,152
-1.65,-1.2,153
-1.65,-1.05,183
-1.65,-0.9,195
-1.65,-0.75,195
-1.65,-0.6,195
-1.65,-0.45,195
-1.65,-0.3,195
-1.65,-0.15,196
-1.65,0.0,196
-1.65,0.15,198
-1.65,0.3,220
-1.65,0.45,242
-1.65,0.6,242
-1.65,0.75,255
-1.65,0.9,246
-1.65,1.05,245
-1.65,1.2,244
-1.65,1.35,243
-1.65,1.5,243
-1.5,-1.5,153
-1.5,-1.35,184
-1.5,-1.2,184
-1.5,-1.05,183
-1.5,-0.9,183
-1.5,-0.75,196
-1.5,-0.6,196
-1.5,-0.45,196
-1.5,-0.3,196
-1.5,-0.15,197
-1.5,0.0,197
-1.5,0.15,197
-1.5,0.3,212
-1.5,0.45,235
-1.5,0.6,235
-1.5,0.75,236
-1.5,0.9,238
-1.5,1.05,225
-1.5,1.2,224
-1.5,1.35,223
-1.5,1.5,243
-1.35,-1.5,189
-1.35,-1.35,183
-1.35,-1.2,183
-1.35,-1.05,184
-1.35,-0.9,184
-1.35,-0.75,183
-1.35,-0.6,197
-1.35,-0.45,197
-1.35,-0.3,197
-1.35,-0.15,225
-1.35,0.0,197
-1.35,0.15,239
-1.35,0.3,240
-1.35,0.45,240
-1.35,0.6,241
-1.35,0.75,248
-1.35,0.9,249
-1.35,1.05,249
-1.35,1.2,234
-1.35,1.35,233
-1.35,1.5,232
-1.2,-1.5,189
-1.2,-1.35,189
-1.2,-1.2,189
-1.2,-1.05,232
-1.2,-0.9,233
-1.2,-0.75,225
-1.2,-0.6,253
-1.2,-0.45,253
-1.2,-0.3,253
-1.2,-0.15,254
-1.2,0.0,254
-1.2,0.15,254
-1.2,0.3,247
-1.2,0.45,247
-1.2,0.6,247
-1.2,0.75,248
-1.2,0.9,248
-1.2,1.05,249
-1.2,1.2,255
-1.2,1.35,233
-1.2,1.5,232
-1.05,-1.5,136
-1.05,-1.35,136
-1.05,-1.2,136
-1.05,-1.05,169
-1.05,-0.9,169
-1.05,-0.75,169
-1.05,-0.6,225
-1.05,-0.45,226
-1.05,-0.3,254
-1.05,-0.15,254
-1.05,0.0,239
-1.05,0.15,240
-1.05,0.3,255
-1.05,0.45,233
-1.05,0.6,248
-1.05,0.75,255
-1.05,0.9,255
-1.05,1.05,255
-1.05,1.2,255
-1.05,1.35,255
-1.05,1.5,255
-0.9,-1.5,135
-0.9,-1.35,135
-0.9,-1.2,135
-0.9,-1.05,135
-0.9,-0.9,135
-0.9,-0.75,171
-0.9,-0.6,171
-0.9,-0.45,226
-0.9,-0.3,226
-0.9,-0.15,227
-0.9,0.0,207
-0.9,0.15,250
-0.9,0.3,241
-0.9,0.45,255
-0.9,0.6,255
-0.9,0.75,255
-0.9,0.9,238
-0.9,1.05,231
-0.9,1.2,232
-0.9,1.35,232
-0.9,1.5,232
-0.75,-1.5,135
-0.75,-1.35,135
-0.75,-1.2,135
-0.75,-1.05,169
-0.75,-0.9,169
-0.75,-0.75,170
-0.75,-0.6,170
-0.75,-0.45,205
-0.75,-0.3,205
-0.75,-0.15,206
-0.75,0.0,206
-0.75,0.15,249
-0.75,0.3,249
-0.75,0.45,242
-0.75,0.6,242
-0.75,0.75,242
-0.75,0.9,242
-0.75,1.05,242
-0.75,1.2,242
-0.75,1.35,232
-0.75,1.5,242
-0.6,-1.5,156
-0.6,-1.35,156
-0.6,-1.2,156
-0.6,-1.05,168
-0.6,-0.9,168
-0.6,-0.75,169
-0.6,-0.6,169
-0.6,-0.45,183
-0.6,-0.3,183
-0.6,-0.15,184
-0.6,0.0,206
-0.6,0.15,248
-0.6,0.3,221
-0.6,0.45,242
-0.6,0.6,241
-0.6,0.75,242
-0.6,0.9,242
-0.6,1.05,242
-0.6,1.2,242
-0.6,1.35,242
-0.6,1.5,242
-0.45,-1.5,155
-0.45,-1.35,155
-0.45,-1.2,155
-0.45,-1.05,155
-0.45,-0.9,155
-0.45,-0.75,155
-0.45,-0.6,181
-0.45,-0.45,182
-0.45,-0.3,183
-0.45,-0.15,184
-0.45,0.0,247
-0.45,0.15,220
-0.45,0.3,221
-0.45,0.45,241
-0.45,0.6,241
-0.45,0.75,242
-0.45,0.9,242
-0.45,1.05,241
-0.45,1.2,242
-0.45,1.35,242
-0.45,1.5,230
-0.3,-1.5,155
-0.3,-1.35,155
-0.3,-1.2,155
-0.3,-1.05,154
-0.3,-0.9,134
-0.3,-0.75,146
-0.3,-0.6,147
-0.3,-0.45,147
-0.3,-0.3,148
-0.3,-0.15,219
-0.3,0.0,219
-0.3,0.15,219
-0.3,0.3,240
-0.3,0.45,241
-0.3,0.6,241
-0.3,0.75,241
-0.3,0.9,222
-0.3,1.05,222
-0.3,1.2,228
-0.3,1.35,228
-0.3,1.5,228
-0.15,-1.5,134
-0.15,-1.35,134
-0.15,-1.2,133
-0.15,-1.05,133
-0.15,-0.9,112
-0.15,-0.75,112
-0.15,-0.6,112
-0.15,-0.45,147
-0.15,-0.3,204
-0.15,-0.15,176
-0.15,0.0,177
-0.15,0.15,184
-0.15,0.3,240
-0.15,0.45,220
-0.15,0.6,220
-0.15,0.75,220
-0.15,0.9,220
-0.15,1.05,221
-0.15,1.2,221
-0.15,1.35,187
-0.15,1.5,187
0.0,-1.5,126
0.0,-1.35,105
0.0,-1.2,111
0.0,-1.05,112
0.0,-0.9,112
0.0,-0.75,112
0.0,-0.6,112
0.0,-0.45,168
0.0,-0.3,140
0.0,-0.15,155
0.0,0.0,162
0.0,0.15,184
0.0,0.3,184
0.0,0.45,184
0.0,0.6,171
0.0,0.75,186
0.0,0.9,186
0.0,1.05,186
0.0,1.2,186
0.0,1.35,185
0.0,1.5,185
0.15,-1.5,104
0.15,-1.35,105
0.15,-1.2,105
0.15,-1.05,105
0.15,-0.9,105
0.15,-0.75,105
0.15,-0.6,105
0.15,-0.45,98
0.15,-0.3,140
0.15,-0.15,148
0.15,0.0,141
0.15,0.15,198
0.15,0.3,198
0.15,0.45,184
0.15,0.6,164
0.15,0.75,164
0.15,0.9,164
0.15,1.05,164
0.15,1.2,171
0.15,1.35,156
0.15,1.5,155
0.3,-1.5,104
0.3,-1.35,105
0.3,-1.2,105
0.3,-1.05,105
0.3,-0.9,105
0.3,-0.75,105
0.3,-0.6,91
0.3,-0.45,91
0.3,-0.3,140
0.3,-0.15,141
0.3,0.0,141
0.3,0.15,148
0.3,0.3,148
0.3,0.45,148
0.3,0.6,128
0.3,0.75,135
0.3,0.9,135
0.3,1.05,136
0.3,1.2,127
0.3,1.35,127
0.3,1.5,127
0.45,-1.5,96
0.45,-1.35,105
0.45,-1.2,90
0.45,-1.05,91
0.45,-0.9,91
0.45,-0.75,91
0.45,-0.6,98
0.45,-0.45,91
0.45,-0.3,106
0.45,-0.15,141
0.45,0.0,133
0.45,0.15,119
0.45,0.3,141
0.45,0.45,127
0.45,0.6,134
0.45,0.75,135
0.45,0.9,135
0.45,1.05,126
0.45,1.2,126
0.45,1.35,126
0.45,1.5,126
0.6,-1.5,96
0.6,-1.35,75
0.6,-1.2,104
0.6,-1.05,104
0.6,-0.9,105
0.6,-0.75,112
0.6,-0.6,113
0.6,-0.45,92
0.6,-0.3,91
0.6,-0.15,91
0.6,0.0,70
0.6,0.15,70
0.6,0.3,49
0.6,0.45,71
0.6,0.6,113
0.6,0.75,113
0.6,0.9,134
0.6,1.05,105
0.6,1.2,99
0.6,1.35,99
0.6,1.5,98
0.75,-1.5,90
0.75,-1.35,91
0.75,-1.2,126
0.75,-1.05,105
0.75,-0.9,105
0.75,-0.75,105
0.75,-0.6,99
0.75,-0.45,91
0.75,-0.3,70
0.75,-0.15,70
0.75,0.0,84
0.75,0.15,105
0.75,0.3,77
0.75,0.45,99
0.75,0.6,78
0.75,0.75,78
0.75,0.9,78
0.75,1.05,78
0.75,1.2,98
0.75,1.35,78
0.75,1.5,78
0.9,-1.5,90
0.9,-1.35,97
0.9,-1.2,90
0.9,-1.05,97
0.9,-0.9,105
0.9,-0.75,105
0.9,-0.6,77
0.9,-0.45,77
0.9,-0.3,91
0.9,-0.15,98
0.9,0.0,105
0.9,0.15,84
0.9,0.3,84
0.9,0.45,77
0.9,0.6,98
0.9,0.75,91
0.9,0.9,91
0.9,1.05,78
0.9,1.2,78
0.9,1.35,78
0.9,1.5,64
1.05,-1.5,90
1.05,-1.35,90
1.05,-1.2,90
1.05,-1.05,90
1.05,-0.9,70
1.05,-0.75,84
1.05,-0.6,84
1.05,-0.45,63
1.05,-0.3,63
1.05,-0.15,98
1.05,0.0,105
1.05,0.15,105
1.05,0.3,105
1.05,0.45,105
1.05,0.6,112
1.05,0.75,76
1.05,0.9,76
1.05,1.05,77
1.05,1.2,63
1.05,1.35,63
1.05,1.5,63
1.2,-1.5,111
1.2,-1.35,91
1.2,-1.2,91
1.2,-1.05,91
1.2,-0.9,91
1.2,-0.75,91
1.2,-0.6,70
1.2,-0.45,84
1.2,-0.3,63
1.2,-0.15,105
1.2,0.0,98
1.2,0.15,98
1.2,0.3,105
1.2,0.45,112
1.2,0.6,105
1.2,0.75,62
1.2,0.9,62
1.2,1.05,62
1.2,1.2,61
1.2,1.35,63
1.2,1.5,56
1.35,-1.5,84
1.35,-1.35,112
1.35,-1.2,91
1.35,-1.05,91
1.35,-0.9,91
1.35,-0.75,84
1.35,-0.6,91
1.35,-0.45,56
1.35,-0.3,63
1.35,-0.15,84
1.35,0.0,91
1.35,0.15,91
1.35,0.3,98
1.35,0.45,77
1.35,0.6,56
1.35,0.75,62
1.35,0.9,62
1.35,1.05,61
1.35,1.2,54
1.35,1.35,34
1.35,1.5,34
1.5,-1.5,84
1.5,-1.35,84
1.5,-1.2,84
1.5,-1.05,105
1.5,-0.9,84
1.5,-0.75,84
1.5,-0.6,84
1.5,-0.45,91
1.5,-0.3,56
1.5,-0.15,28
1.5,0.0,49
1.5,0.15,56
1.5,0.3,63
1.5,0.45,56
1.5,0.6,48
1.5,0.75,48
1.5,0.9,27
1.5,1.05,27
1.5,1.2,27
1.5,1.35,27
1.5,1.5,27
1.65,-1.5,85
1.65,-1.35,84
1.65,-1.2,84
1.65,-1.05,84
1.65,-0.9,84
1.65,-0.75,91
1.65,-0.6,91
1.65,-0.45,91
1.65,-0.3,35
1.65,-0.15,28
1.65,0.0,28
1.65,0.15,63
1.65,0.3,56
1.65,0.45,56
1.65,0.6,28
1.65,0.75,48
1.65,0.9,27
1.65,1.05,27
1.65,1.2,27
1.65,1.35,27
1.65,1.5,27
1.8,-1.5,91
1.8,-1.35,91
1.8,-1.2,91
1.8,-1.05,91
1.8,-0.9,91
1.8,-0.75,91
1.8,-0.6,91
1.8,-0.45,84
1.8,-0.3,28
1.8,-0.15,14
1.8,0.0,63
1.8,0.15,63
1.8,0.3,63
1.8,0.45,63
1.8,0.6,56
1.8,0.75,55
1.8,0.9,48
1.8,1.05,48
1.8,1.2,27
1.8,1.35,27
1.8,1.5,27
1.95,-1.5,70
1.95,-1.35,70
1.95,-1.2,91
1.95,-1.05,77
1.95,-0.9,70
1.95,-0.75,70
1.95,-0.6,91
1.95,-0.45,70
1.95,-0.3,42
1.95,-0.15,35
1.95,0.0,98
1.95,0.15,98
1.95,0.3,63
1.95,0.45,70
1.95,0.6,70
1.95,0.75,55
1.95,0.9,55
1.95,1.05,55
1.95,1.2,54
1.95,1.35,54
1.95,1.5,27
2.1,-1.5,70
2.1,-1.35,70
2.1,-1.2,70
2.1,-1.05,70
2.1,-0.9,77
2.1,-0.75,70
2.1,-0.6,35
2.1,-0.45,21
2.1,-0.3,14
2.1,-0.15,56
2.1,0.0,77
2.1,0.15,91
2.1,0.3,91
2.1,0.45,63
2.1,0.6,56
2.1,0.75,55
2.1,0.9,34
2.1,1.05,34
2.1,1.2,47
2.1,1.35,47
2.1,1.5,27
2.25,-1.5,83
2.25,-1.35,83
2.25,-1.2,70
2.25,-1.05,69
2.25,-0.9,56
2.25,-0.75,70
2.25,-0.6,63
2.25,-0.45,49
2.25,-0.3,28
2.25,-0.15,77
2.25,0.0,70
2.25,0.15,63
2.25,0.3,63
2.25,0.45,42
2.25,0.6,63
2.25,0.75,55
2.25,0.9,27
2.25,1.05,27
2.25,1.2,27
2.25,1.35,27
2.25,1.5,47
2.4,-1.5,42
2.4,-1.35,42
2.4,-1.2,42
2.4,-1.05,77
2.4,-0.9,77
2.4,-0.75,84
2.4,-0.6,84
2.4,-0.45,91
2.4,-0.3,70
2.4,-0.15,42
2.4,0.0,35
2.4,0.15,63
2.4,0.3,49
2.4,0.45,42
2.4,0.6,49
2.4,0.75,84
2.4,0.9,63
2.4,1.05,56
2.4,1.2,49
2.4,1.35,43
2.4,1.5,43
2.55,-1.5,56
2.55,-1.35,70
2.55,-1.2,42
2.55,-1.05,42
2.55,-0.9,42
2.55,-0.75,70
2.55,-0.6,98
2.55,-0.45,77
2.55,-0.3,56
2.55,-0.15,21
2.55,0.0,28
2.55,0.15,56
2.55,0.3,56
2.55,0.45,42
2.55,0.6,91
2.55,0.75,98
2.55,0.9,98
2.55,1.05,77
2.55,1.2,70
2.55,1.35,70
2.55,1.5,69
2.7,-1.5,69
2.7,-1.35,69
2.7,-1.2,70
2.7,-1.05,55
2.7,-0.9,56
2.7,-0.75,56
2.7,-0.6,77
2.7,-0.45,49
2.7,-0.3,56
2.7,-0.15,28
2.7,0.0,49
2.7,0.15,42
2.7,0.3,63
2.7,0.45,85
2.7,0.6,91
2.7,0.75,91
2.7,0.9,91
2.7,1.05,119
2.7,1.2,125
2.7,1.35,90
2.7,1.5,89
2.85,-1.5,77
2.85,-1.35,77
2.85,-1.2,84
2.85,-1.05,56
2.85,-0.9,77
2.85,-0.75,77
2.85,-0.6,77
2.85,-0.45,49
2.85,-0.3,49
2.85,-0.15,42
2.85,0.0,35
2.85,0.15,63
2.85,0.3,92
2.85,0.45,98
2.85,0.6,126
2.85,0.75,126
2.85,0.9,126
2.85,1.05,106
2.85,1.2,105
2.85,1.35,140
2.85,1.5,132
3.0,-1.5,84
3.0,-1.35,84
3.0,-1.2,84
3.0,-1.05,84
3.0,-0.9,70
3.0,-0.75,119
3.0,-0.6,119
3.0,-0.45,112
3.0,-0.3,98
3.0,-0.15,77
3.0,0.0,49
3.0,0.15,77
3.0,0.3,105
3.0,0.45,99
3.0,0.6,106
3.0,0.75,99
3.0,0.9,134
3.0,1.05,134
3.0,1.2,134
3.0,1.35,126
3.0,1.5,126
3.15,-1.5,76
3.15,-1.35,76
3.15,-1.2,112
3.15,-1.05,112
3.15,-0.9,126
3.15,-0.75,133
3.15,-0.6,119
3.15,-0.45,134
3.15,-0.3,98
3.15,-0.15,70
3.15,0.0,49
3.15,0.15,105
3.15,0.3,112
3.15,0.45,113
3.15,0.6,99
3.15,0.75,134
3.15,0.9,134
3.15,1.05,127
3.15,1.2,133
3.15,1.35,133
3.15,1.5,112
3.3,-1.5,21
3.3,-1.35,55
3.3,-1.2,63
3.3,-1.05,112
3.3,-0.9,119
3.3,-0.75,148
3.3,-0.6,119
3.3,-0.45,112
3.3,-0.3,63
3.3,-0.15,63
3.3,0.0,35
3.3,0.15,84
3.3,0.3,84
3.3,0.45,112
3.3,0.6,120
3.3,0.75,120
3.3,0.9,112
3.3,1.05,112
3.3,1.2,112
3.3,1.35,112
3.3,1.5,112
3.45,-1.5,21
3.45,-1.35,49
3.45,-1.2,77
3.45,-1.05,77
3.45,-0.9,120
3.45,-0.75,112
3.45,-0.6,105
3.45,-0.45,84
3.45,-0.3,49
3.45,-0.15,28
3.45,0.0,77
3.45,0.15,63
3.45,0.3,112
3.45,0.45,98
3.45,0.6,120
3.45,0.75,91
3.45,0.9,91
3.45,1.05,91
3.45,1.2,91
3.45,1.35,91
3.45,1.5,91
3.6,-1.5,69
3.6,-1.35,70
3.6,-1.2,70
3.6,-1.05,98
3.6,-0.9,77
3.6,-0.75,99
3.6,-0.6,84
3.6,-0.45,105
3.6,-0.3,133
3.6,-0.15,105
3.6,0.0,56
3.6,0.15,63
3.6,0.3,112
3.6,0.45,105
3.6,0.6,84
3.6,0.75,70
3.6,0.9,70
3.6,1.05,70
3.6,1.2,70
3.6,1.35,91
3.6,1.5,91
3.75,-1.5,69
3.75,-1.35,69
3.75,-1.2,90
3.75,-1.05,91
3.75,-0.9,98
3.75,-0.75,84
3.75,-0.6,91
3.75,-0.45,126
3.75,-0.3,112
3.75,-0.15,162
3.75,0.0,77
3.75,0.15,63
3.75,0.3,98
3.75,0.45,84
3.75,0.6,84
3.75,0.75,105
3.75,0.9,105
3.75,1.05,105
3.75,1.2,105
3.75,1.35,105
3.75,1.5,98
3.9,-1.5,41
3.9,-1.35,42
3.9,-1.2,42
3.9,-1.05,49
3.9,-0.9,35
3.9,-0.75,112
3.9,-0.6,169
3.9,-0.45,126
3.9,-0.3,70
3.9,-0.15,7
3.9,0.0,119
3.9,0.15,56
3.9,0.3,106
3.9,0.45,126
3.9,0.6,126
3.9,0.75,126
3.9,0.9,105
3.9,1.05,105
3.9,1.2,105
3.9,1.35,98
3.9,1.5,104
4.05,-1.5,41
4.05,-1.35,41
4.05,-1.2,13
4.05,-1.05,13
4.05,-0.9,14
4.05,-0.75,56
4.05,-0.6,105
4.05,-0.45,133
4.05,-0.3,98
4.05,-0.15,42
4.05,0.0,56
4.05,0.15,28
4.05,0.3,99
4.05,0.45,112
4.05,0.6,140
4.05,0.75,140
4.05,0.9,140
4.05,1.05,139
4.05,1.2,139
4.05,1.35,139
4.05,1.5,139
4.2,-1.5,27
4.2,-1.35,13
4.2,-1.2,13
4.2,-1.05,0
4.2,-0.9,14
4.2,-0.75,49
4.2,-0.6,42
4.2,-0.45,35
4.2,-0.3,56
4.2,-0.15,49
4.2,0.0,84
4.2,0.15,77
4.2,0.3,98
4.2,0.45,98
4.2,0.6,119
4.2,0.75,119
4.2,0.9,161
4.2,1.05,153
4.2,1.2,132
4.2,1.35,132
4.2,1.5,138
4.35,-1.5,34
4.35,-1.35,34
4.35,-1.2,0
4.35,-1.05,28
4.35,-0.9,56
4.35,-0.75,84
4.35,-0.6,70
4.35,-0.45,56
4.35,-0.3,56
4.35,-0.15,84
4.35,0.0,105
4.35,0.15,98
4.35,0.3,134
4.35,0.45,134
4.35,0.6,133
4.35,0.75,133
4.35,0.9,132
4.35,1.05,132
4.35,1.2,131
4.35,1.35,131
4.35,1.5,159
4.5,-1.5,41
4.5,-1.35,35
4.5,-1.2,56
4.5,-1.05,84
4.5,-0.9,119
4.5,-0.75,141
4.5,-0.6,119
4.5,-0.45,126
4.5,-0.3,91
4.5,-0.15,56
4.5,0.0,112
4.5,0.15,148
4.5,0.3,119
4.5,0.45,112
4.5,0.6,133
4.5,0.75,133
4.5,0.9,132
4.5,1.05,125
4.5,1.2,124
4.5,1.35,138
4.5,1.5,137
4.65,-1.5,35
4.65,-1.35,63
4.65,-1.2,126
4.65,-1.05,126
4.65,-0.9,126
4.65,-0.75,155
4.65,-0.6,155
4.65,-0.45,63
4.65,-0.3,169
4.65,-0.15,35
4.65,0.0,35
4.65,0.15,84
4.65,0.3,63
4.65,0.45,70
4.65,0.6,91
4.65,0.75,77
4.65,0.9,77
4.65,1.05,112
4.65,1.2,97
4.65,1.35,97
4.65,1.5,97
4.8,-1.5,76
4.8,-1.35,76
4.8,-1.2,77
4.8,-1.05,77
4.8,-0.9,77
4.8,-0.75,77
4.8,-0.6,84
4.8,-0.45,49
4.8,-0.3,84
4.8,-0.15,35
4.8,0.0,35
4.8,0.15,49
4.8,0.3,77
4.8,0.45,91
4.8,0.6,77
4.8,0.75,63
4.8,0.9,70
4.8,1.05,70
4.8,1.2,70
4.8,1.35,42
4.8,1.5,55
4.95,-1.5,83
4.95,-1.35,84
4.95,-1.2,84
4.95,-1.05,84
4.95,-0.9,84
4.95,-0.75,77
4.95,-0.6,133
4.95,-0.45,119
4.95,-0.3,42
4.95,-0.15,63
4.95,0.0,0
4.95,0.15,49
4.95,0.3,56
4.95,0.45,91
4.95,0.6,56
4.95,0.75,49
4.95,0.9,42
4.95,1.05,42
4.95,1.2,42
4.95,1.35,42
4.95,1.5,42
5.1,-1.5,113
5.1,-1.35,70
5.1,-1.2,70
5.1,-1.05,98
5.1,-0.9,98
5.1,-0.75,112
5.1,-0.6,119
5.1,-0.45,134
5.1,-0.3,42
5.1,-0.15,70
5.1,0.0,56
5.1,0.15,42
5.1,0.3,91
5.1,0.45,56
5.1,0.6,28
5.1,0.75,35
5.1,0.9,35
5.1,1.05,35
5.1,1.2,35
5.1,1.35,36
5.1,1.5,36
5.25,-1.5,98
5.25,-1.35,127
5.25,-1.2,127
5.25,-1.05,84
5.25,-0.9,70
5.25,-0.75,28
5.25,-0.6,14
5.25,-0.45,14
5.25,-0.3,0
5.25,-0.15,98
5.25,0.0,84
5.25,0.15,84
5.25,0.3,91
5.25,0.45,63
5.25,0.6,63
5.25,0.75,70
5.25,0.9,77
5.25,1.05,56
5.25,1.2,56
5.25,1.35,49
5.25,1.5,42
5.4,-1.5,56
5.4,-1.35,56
5.4,-1.2,56
5.4,-1.05,85
5.4,-0.9,85
5.4,-0.75,56
5.4,-0.6,56
5.4,-0.45,28
5.4,-0.3,49
5.4,-0.15,49
5.4,0.0,84
5.4,0.15,91
5.4,0.3,91
5.4,0.45,77
5.4,0.6,77
5.4,0.75,77
5.4,0.9,56
5.4,1.05,56
5.4,1.2,56
5.4,1.35,56
5.4,1.5,56
5.55,-1.5,91
5.55,-1.35,91
5.55,-1.2,77
5.55,-1.05,77
5.55,-0.9,64
5.55,-0.75,63
5.55,-0.6,56
5.55,-0.45,91
5.55,-0.3,84
5.55,-0.15,42
5.55,0.0,91
5.55,0.15,35
5.55,0.3,42
5.55,0.45,42
5.55,0.6,42
5.55,0.75,49
5.55,0.9,49
5.55,1.05,42
5.55,1.2,49
5.55,1.35,56
5.55,1.5,56
5.7,-1.5,127
5.7,-1.35,127
5.7,-1.2,99
5.7,-1.05,99
5.7,-0.9,91
5.7,-0.75,91
5.7,-0.6,35
5.7,-0.45,155
5.7,-0.3,105
5.7,-0.15,7
5.7,0.0,63
5.7,0.15,21
5.7,0.3,49
5.7,0.45,42
5.7,0.6,42
5.7,0.75,42
5.7,0.9,42
5.7,1.05,28
5.7,1.2,28
5.7,1.35,28
5.7,1.5,28
5.85,-1.5,134
5.85,-1.35,134
5.85,-1.2,134
5.85,-1.05,70
5.85,-0.9,70
5.85,-0.75,42
5.85,-0.6,56
5.85,-0.45,91
5.85,-0.3,70
5.85,-0.15,56
5.85,0.0,63
5.85,0.15,56
5.85,0.3,28
5.85,0.45,28
5.85,0.6,28
5.85,0.75,28
5.85,0.9,28
5.85,1.05,28
5.85,1.2,28
5.85,1.35,28
5.85,1.5,28
6.0,-1.5,99
6.0,-1.35,99
6.0,-1.2,99
6.0,-1.05,106
6.0,-0.9,99
6.0,-0.75,77
6.0,-0.6,42
6.0,-0.45,70
6.0,-0.3,49
6.0,-0.15,28
6.0,0.0,56
6.0,0.15,35
6.0,0.3,35
6.0,0.45,35
6.0,0.6,35
6.0,0.75,35
6.0,0.9,28
6.0,1.05,28
6.0,1.2,28
6.0,1.35,28
6.0,1.5,28
6.15,-1.5,119
6.15,-1.35,119
6.15,-1.2,105
6.15,-1.05,105
6.15,-0.9,119
6.15,-0.75,120
6.15,-0.6,56
6.15,-0.45,42
6.15,-0.3,91
6.15,-0.15,28
6.15,0.0,84
6.15,0.15,70
6.15,0.3,70
6.15,0.45,35
6.15,0.6,35
6.15,0.75,35
6.15,0.9,35
6.15,1.05,35
6.15,1.2,35
6.15,1.35,35
6.15,1.5,35
6.3,-1.5,119
6.3,-1.35,84
6.3,-1.2,112
6.3,-1.05,105
6.3,-0.9,105
6.3,-0.75,162
6.3,-0.6,98
6.3,-0.45,63
6.3,-0.3,77
6.3,-0.15,91
6.3,0.0,77
6.3,0.15,63
6.3,0.3,70
6.3,0.45,35
6.3,0.6,35
6.3,0.75,35
6.3,0.9,35
6.3,1.05,35
6.3,1.2,35
6.3,1.35,28
6.3,1.5,28
6.45,-1.5,119
6.45,-1.35,119
6.45,-1.2,147
6.45,-1.05,147
6.45,-0.9,134
6.45,-0.75,112
6.45,-0.6,162
6.45,-0.45,112
6.45,-0.3,112
6.45,-0.15,35
6.45,0.0,119
6.45,0.15,84
6.45,0.3,63
6.45,0.45,28
6.45,0.6,28
6.45,0.75,28
6.45,0.9,28
6.45,1.05,28
6.45,1.2,28
6.45,1.35,28
6.45,1.5,28
6.6,-1.5,119
6.6,-1.35,119
6.6,-1.2,119
6.6,-1.05,91
6.6,-0.9,112
6.6,-0.75,112
6.6,-0.6,119
6.6,-0.45,84
6.6,-0.3,14
6.6,-0.15,155
6.6,0.0,98
6.6,0.15,63
6.6,0.3,28
6.6,0.45,28
6.6,0.6,28
6.6,0.75,28
6.6,0.9,28
6.6,1.05,28
6.6,1.2,28
6.6,1.35,28
6.6,1.5,28
6.75,-1.5,154
6.75,-1.35,183
6.75,-1.2,161
6.75,-1.05,133
6.75,-0.9,119
6.75,-0.75,91
6.75,-0.6,84
6.75,-0.45,70
6.75,-0.3,14
6.75,-0.15,63
6.75,0.0,63
6.75,0.15,21
6.75,0.3,28
6.75,0.45,28
6.75,0.6,28
6.75,0.75,28
6.75,0.9,28
6.75,1.05,28
6.75,1.2,28
6.75,1.35,28
6.75,1.5,28
6.9,-1.5,113
6.9,-1.35,112
6.9,-1.2,112
6.9,-1.05,161
6.9,-0.9,161
6.9,-0.75,133
6.9,-0.6,105
6.9,-0.45,63
6.9,-0.3,7
6.9,-0.15,49
6.9,0.0,56
6.9,0.15,56
6.9,0.3,56
6.9,0.45,28
6.9,0.6,28
6.9,0.75,28
6.9,0.9,28
6.9,1.05,28
6.9,1.2,28
6.9,1.35,28
6.9,1.5,28
7.05,-1.5,91
7.05,-1.35,91
7.05,-1.2,91
7.05,-1.05,91
7.05,-0.9,127
7.05,-0.75,112
7.05,-0.6,91
7.05,-0.45,42
7.05,-0.3,49
7.05,-0.15,49
7.05,0.0,49
7.05,0.15,70
7.05,0.3,84
7.05,0.45,84
7.05,0.6,84
7.05,0.75,49
7.05,0.9,49
7.05,1.05,49
7.05,1.2,49
7.05,1.35,49
7.05,1.5,49
7.2,-1.5,98
7.2,-1.35,98
7.2,-1.2,127
7.2,-1.05,78
7.2,-0.9,77
7.2,-0.75,126
7.2,-0.6,56
7.2,-0.45,77
7.2,-0.3,49
7.2,-0.15,28
7.2,0.0,70
7.2,0.15,84
7.2,0.3,84
7.2,0.45,84
7.2,0.6,84
7.2,0.75,56
7.2,0.9,56
7.2,1.05,56
7.2,1.2,56
7.2,1.35,56
7.2,1.5,55
7.35,-1.5,98
7.35,-1.35,98
7.35,-1.2,91
7.35,-1.05,91
7.35,-0.9,91
7.35,-0.75,105
7.35,-0.6,70
7.35,-0.45,77
7.35,-0.3,0
7.35,-0.15,63
7.35,0.0,63
7.35,0.15,63
7.35,0.3,98
7.35,0.45,70
7.35,0.6,70
7.35,0.75,56
7.35,0.9,56
7.35,1.05,56
7.35,1.2,56
7.35,1.35,56
7.35,1.5,56
7.5,-1.5,70
7.5,-1.35,63
7.5,-1.2,63
7.5,-1.05,63
7.5,-0.9,35
7.5,-0.75,56
7.5,-0.6,70
7.5,-0.45,63
7.5,-0.3,28
7.5,-0.15,35
7.5,0.0,28
7.5,0.15,49
7.5,0.3,84
7.5,0.45,77
7.5,0.6,77
7.5,0.75,70
7.5,0.9,77
7.5,1.05,49
7.5,1.2,48
7.5,1.35,41
7.5,1.5,41
7.65,-1.5,28
7.65,-1.35,28
7.65,-1.2,28
7.65,-1.05,28
7.65,-0.9,28
7.65,-0.75,28
7.65,-0.6,7
7.65,-0.45,28
7.65,-0.3,28
7.65,-0.15,56
7.65,0.0,0
7.65,0.15,42
7.65,0.3,42
7.65,0.45,56
7.65,0.6,70
7.65,0.75,70
7.65,0.9,112
7.65,1.05,112
7.65,1.2,112
7.65,1.35,91
7.65,1.5,91
7.8,-1.5,7
7.8,-1.35,0
7.8,-1.2,0
7.8,-1.05,0
7.8,-0.9,0
7.8,-0.75,7
7.8,-0.6,49
7.8,-0.45,91
7.8,-0.3,70
7.8,-0.15,49
7.8,0.0,28
7.8,0.15,56
7.8,0.3,98
7.8,0.45,105
7.8,0.6,77
7.8,0.75,77
7.8,0.9,77
7.8,1.05,77
7.8,1.2,77
7.8,1.35,76
7.8,1.5,76
7.95,-1.5,0
7.95,-1.35,0
7.95,-1.2,0
7.95,-1.05,0
7.95,-0.9,14
7.95,-0.75,14
7.95,-0.6,42
7.95,-0.45,70
7.95,-0.3,49
7.95,-0.15,84
7.95,0.0,84
7.95,0.15,119
7.95,0.3,105
7.95,0.45,105
7.95,0.6,77
7.95,0.75,77
7.95,0.9,77
7.95,1.05,77
7.95,1.2,77
7.95,1.35,77
7.95,1.5,76
8.1,-1.5,29
8.1,-1.35,29
8.1,-1.2,0
8.1,-1.05,0
8.1,-0.9,14
8.1,-0.75,7
8.1,-0.6,0
8.1,-0.45,70
8.1,-0.3,42
8.1,-0.15,49
8.1,0.0,91
8.1,0.15,98
8.1,0.3,84
8.1,0.45,56
8.1,0.6,56
8.1,0.75,77
8.1,0.9,77
8.1,1.05,63
8.1,1.2,63
8.1,1.35,63
8.1,1.5,63
8.25,-1.5,35
8.25,-1.35,28
8.25,-1.2,28
8.25,-1.05,28
8.25,-0.9,28
8.25,-0.75,0
8.25,-0.6,0
8.25,-0.45,56
8.25,-0.3,21
8.25,-0.15,49
8.25,0.0,56
8.25,0.15,98
8.25,0.3,77
8.25,0.45,84
8.25,0.6,49
8.25,0.75,56
8.25,0.9,56
8.25,1.05,56
8.25,1.2,92
8.25,1.35,92
8.25,1.5,92
8.4,-1.5,36
8.4,-1.35,35
8.4,-1.2,35
8.4,-1.05,42
8.4,-0.9,35
8.4,-0.75,63
8.4,-0.6,63
8.4,-0.45,119
8.4,-0.3,77
8.4,-0.15,98
8.4,0.0,56
8.4,0.15,56
8.4,0.3,77
8.4,0.45,77
8.4,0.6,77
8.4,0.75,113
8.4,0.9,85
8.4,1.05,92
8.4,1.2,92
8.4,1.35,92
8.4,1.5,92
8.55,-1.5,36
8.55,-1.35,35
8.55,-1.2,42
8.55,-1.05,42
8.55,-0.9,63
8.55,-0.75,84
8.55,-0.6,63
8.55,-0.45,126
8.55,-0.3,98
8.55,-0.15,84
8.55,0.0,42
8.55,0.15,28
8.55,0.3,28
8.55,0.45,77
8.55,0.6,92
8.55,0.75,92
8.55,0.9,92
8.55,1.05,92
8.55,1.2,92
8.55,1.35,121
8.55,1.5,121
8.7,-1.5,85
8.7,-1.35,85
8.7,-1.2,57
8.7,-1.05,56
8.7,-0.9,56
8.7,-0.75,56
8.7,-0.6,28
8.7,-0.45,133
8.7,-0.3,7
8.7,-0.15,56
8.7,0.0,7
8.7,0.15,14
8.7,0.3,49
8.7,0.45,49
8.7,0.6,50
8.7,0.75,50
8.7,0.9,78
8.7,1.05,78
8.7,1.2,79
8.7,1.35,79
8.7,1.5,79
8.85,-1.5,85
8.85,-1.35,85
8.85,-1.2,85
8.85,-1.05,85
8.85,-0.9,56
8.85,-0.75,35
8.85,-0.6,63
8.85,-0.45,162
8.85,-0.3,91
8.85,-0.15,63
8.85,0.0,42
8.85,0.15,63
8.85,0.3,63
8.85,0.45,64
8.85,0.6,56
8.85,0.75,85
8.85,0.9,85
8.85,1.05,86
8.85,1.2,86
8.85,1.35,86
8.85,1.5,86
9.0,-1.5,85
9.0,-1.35,85
9.0,-1.2,85
9.0,-1.05,56
9.0,-0.9,84
9.0,-0.75,91
9.0,-0.6,105
9.0,-0.45,148
9.0,-0.3,119
9.0,-0.15,91
9.0,0.0,49
9.0,0.15,49
9.0,0.3,63
9.0,0.45,85
9.0,0.6,85
9.0,0.75,86
9.0,0.9,86
9.0,1.05,86
9.0,1.2,86
9.0,1.35,87
9.0,1.5,87
9.15,-1.5,98
9.15,-1.35,63
9.15,-1.2,70
9.15,-1.05,70
9.15,-0.9,70
9.15,-0.75,98
9.15,-0.6,91
9.15,-0.45,112
9.15,-0.3,56
9.15,-0.15,84
9.15,0.0,70
9.15,0.15,70
9.15,0.3,99
9.15,0.45,99
9.15,0.6,85
9.15,0.75,85
9.15,0.9,86
9.15,1.05,86
9.15,1.2,87
9.15,1.35,87
9.15,1.5,87
9.3,-1.5,84
9.3,-1.35,84
9.3,-1.2,63
9.3,-1.05,63
9.3,-0.9,63
9.3,-0.75,63
9.3,-0.6,35
9.3,-0.45,49
9.3,-0.3,105
9.3,-0.15,56
9.3,0.0,56
9.3,0.15,70
9.3,0.3,105
9.3,0.45,106
9.3,0.6,99
9.3,0.75,85
9.3,0.9,86
9.3,1.05,86
9.3,1.2,87
9.3,1.35,87
9.3,1.5,93
9.45,-1.5,63
9.45,-1.35,63
9.45,-1.2,63
9.45,-1.05,63
9.45,-0.9,91
9.45,-0.75,77
9.45,-0.6,35
9.45,-0.45,70
9.45,-0.3,84
9.45,-0.15,70
9.45,0.0,77
9.45,0.15,98
9.45,0.3,99
9.45,0.45,141
9.45,0.6,141
9.45,0.75,141
9.45,0.9,141
9.45,1.05,86
9.45,1.2,86
9.45,1.35,93
9.45,1.5,93
9.6,-1.5,63
9.6,-1.35,77
9.6,-1.2,77
9.6,-1.05,56
9.6,-0.9,56
9.6,-0.75,56
9.6,-0.6,70
9.6,-0.45,70
9.6,-0.3,91
9.6,-0.15,134
9.6,0.0,154
9.6,0.15,134
9.6,0.3,120
9.6,0.45,120
9.6,0.6,126
9.6,0.75,161
9.6,0.9,141
9.6,1.05,141
9.6,1.2,120
9.6,1.35,86
9.6,1.5,86
9.75,-1.5,77
9.75,-1.35,70
9.75,-1.2,70
9.75,-1.05,35
9.75,-0.9,56
9.75,-0.75,56
9.75,-0.6,56
9.75,-0.45,98
9.75,-0.3,148
9.75,-0.15,204
9.75,0.0,141
9.75,0.15,126
9.75,0.3,147
9.75,0.45,105
9.75,0.6,105
9.75,0.75,105
9.75,0.9,105
9.75,1.05,105
9.75,1.2,133
9.75,1.35,133
9.75,1.5,133
9.9,-1.5,77
9.9,-1.35,77
9.9,-1.2,77
9.9,-1.05,148
9.9,-0.9,148
9.9,-0.75,148
9.9,-0.6,98
9.9,-0.45,77
9.9,-0.3,84
9.9,-0.15,133
9.9,0.0,141
9.9,0.15,126
9.9,0.3,91
9.9,0.45,105
9.9,0.6,105
9.9,0.75,105
9.9,0.9,126
9.9,1.05,126
9.9,1.2,140
9.9,1.35,140
9.9,1.5,133
10.05,-1.5,119
10.05,-1.35,119
10.05,-1.2,133
10.05,-1.05,147
10.05,-0.9,140
10.05,-0.75,140
10.05,-0.6,148
10.05,-0.45,112
10.05,-0.3,77
10.05,-0.15,84
10.05,0.0,63
10.05,0.15,112
10.05,0.3,112
10.05,0.45,134
10.05,0.6,176
10.05,0.75,176
10.05,0.9,168
10.05,1.05,168
10.05,1.2,168
10.05,1.35,168
10.05,1.5,168
10.2,-1.5,126
10.2,-1.35,126
10.2,-1.2,126
10.2,-1.05,133
10.2,-0.9,133
10.2,-0.75,148
10.2,-0.6,176
10.2,-0.45,119
10.2,-0.3,91
10.2,-0.15,84
10.2,0.0,84
10.2,0.15,134
10.2,0.3,112
10.2,0.45,141
10.2,0.6,162
10.2,0.75,156
10.2,0.9,156
10.2,1.05,156
10.2,1.2,149
10.2,1.35,149
10.2,1.5,149
10.35,-1.5,92
10.35,-1.35,92
10.35,-1.2,92
10.35,-1.05,92
10.35,-0.9,91
10.35,-0.75,91
10.35,-0.6,91
10.35,-0.45,155
10.35,-0.3,183
10.35,-0.15,169
10.35,0.0,134
10.35,0.15,140
10.35,0.3,127
10.35,0.45,127
10.35,0.6,162
10.35,0.75,163
10.35,0.9,191
10.35,1.05,191
10.35,1.2,192
10.35,1.35,172
10.35,1.5,165
10.5,-1.5,92
10.5,-1.35,99
10.5,-1.2,99
10.5,-1.05,92
10.5,-0.9,98
10.5,-0.75,84
10.5,-0.6,98
10.5,-0.45,134
10.5,-0.3,141
10.5,-0.15,140
10.5,0.0,176
10.5,0.15,134
10.5,0.3,163
10.5,0.45,163
10.5,0.6,164
10.5,0.75,164
10.5,0.9,164
10.5,1.05,192
10.5,1.2,192
10.5,1.35,193
10.5,1.5,193
10.65,-1.5,147
10.65,-1.35,141
10.65,-1.2,141
10.65,-1.05,141
10.65,-0.9,105
10.65,-0.75,113
10.65,-0.6,127
10.65,-0.45,169
10.65,-0.3,169
10.65,-0.15,190
10.65,0.0,183
10.65,0.15,198
10.65,0.3,198
10.65,0.45,177
10.65,0.6,178
10.65,0.75,144
10.65,0.9,165
10.65,1.05,166
10.65,1.2,210
10.65,1.35,211
10.65,1.5,244
10.8,-1.5,147
10.8,-1.35,147
10.8,-1.2,105
10.8,-1.05,105
10.8,-0.9,105
10.8,-0.75,105
10.8,-0.6,119
10.8,-0.45,141
10.8,-0.3,183
10.8,-0.15,155
10.8,0.0,219
10.8,0.15,198
10.8,0.3,197
10.8,0.45,143
10.8,0.6,143
10.8,0.75,186
10.8,0.9,222
10.8,1.05,220
10.8,1.2,211
10.8,1.35,211
10.8,1.5,211
10.95,-1.5,105
10.95,-1.35,105
10.95,-1.2,91
10.95,-1.05,133
10.95,-0.9,140
10.95,-0.75,161
10.95,-0.6,133
10.95,-0.45,133
10.95,-0.3,105
10.95,-0.15,77
10.95,0.0,177
10.95,0.15,178
10.95,0.3,163
10.95,0.45,164
10.95,0.6,185
10.95,0.75,220
10.95,0.9,212
10.95,1.05,212
10.95,1.2,212
10.95,1.35,212
10.95,1.5,212
11.1,-1.5,84
11.1,-1.35,91
11.1,-1.2,91
11.1,-1.05,133
11.1,-0.9,112
11.1,-0.75,133
11.1,-0.6,140
11.1,-0.45,112
11.1,-0.3,112
11.1,-0.15,120
11.1,0.0,176
11.1,0.15,170
11.1,0.3,213
11.1,0.45,184
11.1,0.6,192
11.1,0.75,185
11.1,0.9,186
11.1,1.05,186
11.1,1.2,187
11.1,1.35,194
11.1,1.5,212
11.25,-1.5,91
11.25,-1.35,77
11.25,-1.2,77
11.25,-1.05,104
11.25,-0.9,104
11.25,-0.75,70
11.25,-0.6,77
11.25,-0.45,77
11.25,-0.3,148
11.25,-0.15,176
11.25,0.0,176
11.25,0.15,163
11.25,0.3,177
11.25,0.45,192
11.25,0.6,194
11.25,0.75,193
11.25,0.9,194
11.25,1.05,195
11.25,1.2,188
11.25,1.35,189
11.25,1.5,189
11.4,-1.5,48
11.4,-1.35,7
11.4,-1.2,34
11.4,-1.05,35
11.4,-0.9,35
11.4,-0.75,69
11.4,-0.6,84
11.4,-0.45,105
11.4,-0.3,98
11.4,-0.15,98
11.4,0.0,141
11.4,0.15,191
11.4,0.3,184
11.4,0.45,213
11.4,0.6,214
11.4,0.75,214
11.4,0.9,213
11.4,1.05,214
11.4,1.2,215
11.4,1.35,188
11.4,1.5,188
11.55,-1.5,84
11.55,-1.35,69
11.55,-1.2,69
11.55,-1.05,69
11.55,-0.9,104
11.55,-0.75,112
11.55,-0.6,140
11.55,-0.45,98
11.55,-0.3,105
11.55,-0.15,112
11.55,0.0,148
11.55,0.15,183
11.55,0.3,219
11.55,0.45,220
11.55,0.6,221
11.55,0.75,214
11.55,0.9,215
11.55,1.05,216
11.55,1.2,188
11.55,1.35,188
11.55,1.5,188
11.7,-1.5,125
11.7,-1.35,125
11.7,-1.2,125
11.7,-1.05,126
11.7,-0.9,126
11.7,-0.75,84
11.7,-0.6,105
11.7,-0.45,127
11.7,-0.3,155
11.7,-0.15,162
11.7,0.0,155
11.7,0.15,197
11.7,0.3,212
11.7,0.45,240
11.7,0.6,240
11.7,0.75,241
11.7,0.9,242
11.7,1.05,216
11.7,1.2,202
11.7,1.35,188
11.7,1.5,188
11.85,-1.5,105
11.85,-1.35,105
11.85,-1.2,105
11.85,-1.05,126
11.85,-0.9,126
11.85,-0.75,126
11.85,-0.6,126
11.85,-0.45,155
11.85,-0.3,176
11.85,-0.15,176
11.85,0.0,183
11.85,0.15,197
11.85,0.3,198
11.85,0.45,212
11.85,0.6,199
11.85,0.75,200
11.85,0.9,201
11.85,1.05,189
11.85,1.2,189
11.85,1.35,202
11.85,1.5,194
12.0,-1.5,62
12.0,-1.35,105
12.0,-1.2,147
12.0,-1.05,147
12.0,-0.9,147
12.0,-0.75,169
12.0,-0.6,190
12.0,-0.45,183
12.0,-0.3,148
12.0,-0.15,218
12.0,0.0,140
12.0,0.15,155
12.0,0.3,156
12.0,0.45,157
12.0,0.6,212
12.0,0.75,199
12.0,0.9,188
12.0,1.05,188
12.0,1.2,187
12.0,1.35,187
12.0,1.5,187
12.15,-1.5,90
12.15,-1.35,90
12.15,-1.2,133
12.15,-1.05,133
12.15,-0.9,169
12.15,-0.75,155
12.15,-0.6,169
12.15,-0.45,190
12.15,-0.3,147
12.15,-0.15,147
12.15,0.0,133
12.15,0.15,135
12.15,0.3,135
12.15,0.45,136
12.15,0.6,164
12.15,0.75,167
12.15,0.9,167
12.15,1.05,186
12.15,1.2,186
12.15,1.35,186
12.15,1.5,186
12.3,-1.5,124
12.3,-1.35,117
12.3,-1.2,118
12.3,-1.05,169
12.3,-0.9,169
12.3,-0.75,176
12.3,-0.6,176
12.3,-0.45,133
12.3,-0.3,119
12.3,-0.15,155
12.3,0.0,133
12.3,0.15,212
12.3,0.3,171
12.3,0.45,171
12.3,0.6,172
12.3,0.75,166
12.3,0.9,166
12.3,1.05,180
12.3,1.2,166
12.3,1.35,166
12.3,1.5,184
12.45,-1.5,132
12.45,-1.35,132
12.45,-1.2,133
12.45,-1.05,141
12.45,-0.9,141
12.45,-0.75,183
12.45,-0.6,204
12.45,-0.45,204
12.45,-0.3,204
12.45,-0.15,204
12.45,0.0,197
12.45,0.15,218
12.45,0.3,219
12.45,0.45,220
12.45,0.6,208
12.45,0.75,166
12.45,0.9,166
12.45,1.05,179
12.45,1.2,178
12.45,1.35,198
12.45,1.5,197
12.6,-1.5,104
12.6,-1.35,104
12.6,-1.2,111
12.6,-1.05,132
12.6,-0.9,141
12.6,-0.75,140
12.6,-0.6,140
12.6,-0.45,162
12.6,-0.3,197
12.6,-0.15,190
12.6,0.0,218
12.6,0.15,216
12.6,0.3,233
12.6,0.45,233
12.6,0.6,221
12.6,0.75,240
12.6,0.9,206
12.6,1.05,179
12.6,1.2,179
12.6,1.35,178
12.6,1.5,178
12.75,-1.5,69
12.75,-1.35,70
12.75,-1.2,97
12.75,-1.05,98
12.75,-0.9,98
12.75,-0.75,140
12.75,-0.6,176
12.75,-0.45,183
12.75,-0.3,156
12.75,-0.15,156
12.75,0.0,156
12.75,0.15,156
12.75,0.3,191
12.75,0.45,234
12.75,0.6,221
12.75,0.75,220
12.75,0.9,219
12.75,1.05,218
12.75,1.2,217
12.75,1.35,215
12.75,1.5,208
12.9,-1.5,96
12.9,-1.35,96
12.9,-1.2,96
12.9,-1.05,97
12.9,-0.9,140
12.9,-0.75,175
12.9,-0.6,175
12.9,-0.45,176
12.9,-0.3,176
12.9,-0.15,156
12.9,0.0,156
12.9,0.15,156
12.9,0.3,156
12.9,0.45,192
12.9,0.6,214
12.9,0.75,213
12.9,0.9,219
12.9,1.05,218
12.9,1.2,217
12.9,1.35,216
12.9,1.5,214
13.05,-1.5,96
13.05,-1.35,96
13.05,-1.2,96
13.05,-1.05,131
13.05,-0.9,132
13.05,-0.75,175
13.05,-0.6,175
13.05,-0.45,176
13.05,-0.3,176
13.05,-0.15,176
13.05,0.0,156
13.05,0.15,156
13.05,0.3,156
13.05,0.45,144
13.05,0.6,180
13.05,0.75,213
13.05,0.9,213
13.05,1.05,213
13.05,1.2,213
13.05,1.35,213
13.05,1.5,213
