-3.0,-1.5,101
-3.0,-1.35,101
-3.0,-1.2,101
-3.0,-1.05,100
-3.0,-0.9,100
-3.0,-0.75,100
-3.0,-0.6,100
-3.0,-0.45,100
-3.0,-0.3,100
-3.0,-0.15,100
-3.0,0.0,101
-3.0,0.15,101
-3.0,0.3,101
-3.0,0.45,102
-3.0,0.6,102
-3.0,0.75,102
-3.0,0.9,103
-3.0,1.05,103
-3.0,1.2,103
-3.0,1.35,104
-3.0,1.5,104
-2.85,-1.5,104
-2.85,-1.35,104
-2.85,-1.2,104
-2.85,-1.05,103
-2.85,-0.9,103
-2.85,-0.75,103
-2.85,-0.6,103
-2.85,-0.45,103
-2.85,-0.3,103
-2.85,-0.15,103
-2.85,0.0,104
-2.85,0.15,104
-2.85,0.3,104
-2.85,0.45,105
-2.85,0.6,105
-2.85,0.75,105
-2.85,0.9,106
-2.85,1.05,106
-2.85,1.2,106
-2.85,1.35,107
-2.85,1.5,107
-2.7,-1.5,107
-2.7,-1.35,107
-2.7,-1.2,106
-2.7,-1.05,106
-2.7,-0.9,106
-2.7,-0.75,106
-2.7,-0.6,106
-2.7,-0.45,106
-2.7,-0.3,106
-2.7,-0.15,106
-2.7,0.0,107
-2.7,0.15,107
-2.7,0.3,107
-2.7,0.45,107
-2.7,0.6,108
-2.7,0.75,108
-2.7,0.9,108
-2.7,1.05,109
-2.7,1.2,109
-2.7,1.35,109
-2.7,1.5,110
-2.55,-1.5,131
-2.55,-1.35,131
-2.55,-1.2,110
-2.55,-1.05,109
-2.55,-0.9,109
-2.55,-0.75,109
-2.55,-0.6,109
-2.55,-0.45,109
-2.55,-0.3,109
-2.55,-0.15,109
-2.55,0.0,110
-2.55,0.15,110
-2.55,0.3,110
-2.55,0.45,110
-2.55,0.6,111
-2.55,0.75,111
-2.55,0.9,111
-2.55,1.05,112
-2.55,1.2,112
-2.55,1.35,112
-2.55,1.5,134
-2.4,-1.5,133
-2.4,-1.35,134
-2.4,-1.2,134
-2.4,-1.05,135
-2.4,-0.9,112
-2.4,-0.75,112
-2.4,-0.6,112
-2.4,-0.45,112
-2.4,-0.3,112
-2.4,-0.15,112
-2.4,0.0,113
-2.4,0.15,113
-2.4,0.3,113
-2.4,0.45,114
-2.4,0.6,114
-2.4,0.75,114
-2.4,0.9,114
-2.4,1.05,115
-2.4,1.2,136
-2.4,1.35,136
-2.4,1.5,137
-2.25,-1.5,136
-2.25,-1.35,137
-2.25,-1.2,137
-2.25,-1.05,138
-2.25,-0.9,138
-2.25,-0.75,139
-2.25,-0.6,115
-2.25,-0.45,115
-2.25,-0.3,115
-2.25,-0.15,116
-2.25,0.0,116
-2.25,0.15,116
-2.25,0.3,116
-2.25,0.45,117
-2.25,0.6,117
-2.25,0.75,117
-2.25,0.9,139
-2.25,1.05,139
-2.25,1.2,139
-2.25,1.35,139
-2.25,1.5,139
-2.1,-1.5,128
-2.1,-1.35,140
-2.1,-1.2,140
-2.1,-1.05,141
-2.1,-0.9,141
-2.1,-0.75,142
-2.1,-0.6,142
-2.1,-0.45,143
-2.1,-0.3,118
-2.1,-0.15,119
-2.1,0.0,119
-2.1,0.15,119
-2.1,0.3,120
-2.1,0.45,142
-2.1,0.6,142
-2.1,0.75,142
-2.1,0.9,142
-2.1,1.05,142
-2.1,1.2,142
-2.1,1.35,142
-2.1,1.5,142
-1.95,-1.5,130
-1.95,-1.35,143
-1.95,-1.2,143
-1.95,-1.05,144
-1.95,-0.9,144
-1.95,-0.75,145
-1.95,-0.6,145
-1.95,-0.45,146
-1.95,-0.3,146
-1.95,-0.15,160
-1.95,0.0,122
-1.95,0.15,146
-1.95,0.3,146
-1.95,0.45,145
-1.95,0.6,145
-1.95,0.75,145
-1.95,0.9,145
-1.95,1.05,145
-1.95,1.2,145
-1.95,1.35,145
-1.95,1.5,168
-1.8,-1.5,133
-1.8,-1.35,133
-1.8,-1.2,146
-1.8,-1.05,147
-1.8,-0.9,147
-1.8,-0.75,148
-1.8,-0.6,148
-1.8,-0.45,149
-1.8,-0.3,149
-1.8,-0.15,188
-1.8,0.0,188
-1.8,0.15,149
-1.8,0.3,149
-1.8,0.45,149
-1.8,0.6,149
-1.8,0.75,148
-1.8,0.9,148
-1.8,1.05,172
-1.8,1.2,172
-1.8,1.35,171
-1.8,1.5,171
-1.65,-1.5,136
-1.65,-1.35,136
-1.65,-1.2,149
-1.65,-1.05,150
-1.65,-0.9,150
-1.65,-0.75,151
-1.65,-0.6,151
-1.65,-0.45,152
-1.65,-0.3,190
-1.65,-0.15,191
-1.65,0.0,191
-1.65,0.15,192
-1.65,0.3,192
-1.65,0.45,189
-1.65,0.6,188
-1.65,0.75,187
-1.65,0.9,175
-1.65,1.05,175
-1.65,1.2,174
-1.65,1.35,174
-1.65,1.5,174
-1.5,-1.5,139
-1.5,-1.35,139
-1.5,-1.2,139
-1.5,-1.05,153
-1.5,-0.9,153
-1.5,-0.75,154
-1.5,-0.6,192
-1.5,-0.45,193
-1.5,-0.3,193
-1.5,-0.15,194
-1.5,0.0,194
-1.5,0.15,195
-1.5,0.3,221
-1.5,0.45,222
-1.5,0.6,191
-1.5,0.75,190
-1.5,0.9,178
-1.5,1.05,177
-1.5,1.2,214
-1.5,1.35,213
-1.5,1.5,182
-1.35,-1.5,165
-1.35,-1.35,142
-1.35,-1.2,142
-1.35,-1.05,168
-1.35,-0.9,169
-1.35,-0.75,169
-1.35,-0.6,195
-1.35,-0.45,196
-1.35,-0.3,196
-1.35,-0.15,210
-1.35,0.0,210
-1.35,0.15,223
-1.35,0.3,224
-1.35,0.45,224
-1.35,0.6,224
-1.35,0.75,219
-1.35,0.9,218
-1.35,1.05,217
-1.35,1.2,216
-1.35,1.35,184
-1.35,1.5,183
-1.2,-1.5,168
-1.2,-1.35,170
-1.2,-1.2,171
-1.2,-1.05,171
-1.2,-0.9,171
-1.2,-0.75,211
-1.2,-0.6,212
-1.2,-0.45,212
-1.2,-0.3,212
-1.2,-0.15,212
-1.2,0.0,212
-1.2,0.15,226
-1.2,0.3,242
-1.2,0.45,235
-1.2,0.6,235
-1.2,0.75,235
-1.2,0.9,234
-1.2,1.05,234
-1.2,1.2,198
-1.2,1.35,197
-1.2,1.5,197
-1.05,-1.5,177
-1.05,-1.35,177
-1.05,-1.2,181
-1.05,-1.05,180
-1.05,-0.9,213
-1.05,-0.75,213
-1.05,-0.6,214
-1.05,-0.45,214
-1.05,-0.3,223
-1.05,-0.15,223
-1.05,0.0,243
-1.05,0.15,243
-1.05,0.3,236
-1.05,0.45,236
-1.05,0.6,236
-1.05,0.75,236
-1.05,0.9,235
-1.05,1.05,235
-1.05,1.2,235
-1.05,1.35,200
-1.05,1.5,199
-0.9,-1.5,207
-0.9,-1.35,207
-0.9,-1.2,182
-0.9,-1.05,182
-0.9,-0.9,224
-0.9,-0.75,224
-0.9,-0.6,224
-0.9,-0.45,224
-0.9,-0.3,224
-0.9,-0.15,224
-0.9,0.0,244
-0.9,0.15,244
-0.9,0.3,237
-0.9,0.45,237
-0.9,0.6,237
-0.9,0.75,236
-0.9,0.9,236
-0.9,1.05,216
-0.9,1.2,235
-0.9,1.35,235
-0.9,1.5,235
-0.75,-1.5,210
-0.75,-1.35,251
-0.75,-1.2,251
-0.75,-1.05,225
-0.75,-0.9,225
-0.75,-0.75,225
-0.75,-0.6,225
-0.75,-0.45,225
-0.75,-0.3,225
-0.75,-0.15,225
-0.75,0.0,245
-0.75,0.15,245
-0.75,0.3,238
-0.75,0.45,238
-0.75,0.6,238
-0.75,0.75,217
-0.75,0.9,217
-0.75,1.05,238
-0.75,1.2,238
-0.75,1.35,237
-0.75,1.5,237
-0.6,-1.5,210
-0.6,-1.35,211
-0.6,-1.2,252
-0.6,-1.05,252
-0.6,-0.9,252
-0.6,-0.75,226
-0.6,-0.6,226
-0.6,-0.45,226
-0.6,-0.3,226
-0.6,-0.15,247
-0.6,0.0,247
-0.6,0.15,247
-0.6,0.3,240
-0.6,0.45,239
-0.6,0.6,226
-0.6,0.75,239
-0.6,0.9,239
-0.6,1.05,239
-0.6,1.2,238
-0.6,1.35,237
-0.6,1.5,237
-0.45,-1.5,210
-0.45,-1.35,210
-0.45,-1.2,211
-0.45,-1.05,253
-0.45,-0.9,253
-0.45,-0.75,253
-0.45,-0.6,248
-0.45,-0.45,227
-0.45,-0.3,247
-0.45,-0.15,247
-0.45,0.0,226
-0.45,0.15,226
-0.45,0.3,226
-0.45,0.45,226
-0.45,0.6,226
-0.45,0.75,239
-0.45,0.9,239
-0.45,1.05,238
-0.45,1.2,238
-0.45,1.35,238
-0.45,1.5,238
-0.3,-1.5,204
-0.3,-1.35,205
-0.3,-1.2,205
-0.3,-1.05,206
-0.3,-0.9,255
-0.3,-0.75,255
-0.3,-0.6,255
-0.3,-0.45,255
-0.3,-0.3,255
-0.3,-0.15,226
-0.3,0.0,226
-0.3,0.15,226
-0.3,0.3,226
-0.3,0.45,226
-0.3,0.6,240
-0.3,0.75,240
-0.3,0.9,239
-0.3,1.05,239
-0.3,1.2,238
-0.3,1.35,206
-0.3,1.5,206
-0.15,-1.5,203
-0.15,-1.35,204
-0.15,-1.2,204
-0.15,-1.05,205
-0.15,-0.9,213
-0.15,-0.75,255
-0.15,-0.6,255
-0.15,-0.45,255
-0.15,-0.3,255
-0.15,-0.15,255
-0.15,0.0,255
-0.15,0.15,227
-0.15,0.3,227
-0.15,0.45,240
-0.15,0.6,240
-0.15,0.75,240
-0.15,0.9,239
-0.15,1.05,239
-0.15,1.2,239
-0.15,1.35,239
-0.15,1.5,205
0.0,-1.5,202
0.0,-1.35,203
0.0,-1.2,203
0.0,-1.05,204
0.0,-0.9,204
0.0,-0.75,212
0.0,-0.6,254
0.0,-0.45,255
0.0,-0.3,255
0.0,-0.15,255
0.0,0.0,255
0.0,0.15,255
0.0,0.3,255
0.0,0.45,240
0.0,0.6,240
0.0,0.75,240
0.0,0.9,239
0.0,1.05,239
0.0,1.2,205
0.0,1.35,205
0.0,1.5,205
0.15,-1.5,183
0.15,-1.35,183
0.15,-1.2,184
0.15,-1.05,184
0.15,-0.9,184
0.15,-0.75,184
0.15,-0.6,185
0.15,-0.45,254
0.15,-0.3,255
0.15,-0.15,255
0.15,0.0,255
0.15,0.15,255
0.15,0.3,255
0.15,0.45,255
0.15,0.6,255
0.15,0.75,240
0.15,0.9,205
0.15,1.05,205
0.15,1.2,204
0.15,1.35,177
0.15,1.5,177
0.3,-1.5,162
0.3,-1.35,161
0.3,-1.2,162
0.3,-1.05,162
0.3,-0.9,163
0.3,-0.75,163
0.3,-0.6,164
0.3,-0.45,171
0.3,-0.3,199
0.3,-0.15,233
0.3,0.0,234
0.3,0.15,234
0.3,0.3,234
0.3,0.45,228
0.3,0.6,193
0.3,0.75,194
0.3,0.9,186
0.3,1.05,157
0.3,1.2,157
0.3,1.35,157
0.3,1.5,157
0.45,-1.5,121
0.45,-1.35,121
0.45,-1.2,141
0.45,-1.05,141
0.45,-0.9,141
0.45,-0.75,142
0.45,-0.6,121
0.45,-0.45,129
0.45,-0.3,156
0.45,-0.15,156
0.45,0.0,178
0.45,0.15,178
0.45,0.3,178
0.45,0.45,172
0.45,0.6,165
0.45,0.75,165
0.45,0.9,145
0.45,1.05,146
0.45,1.2,147
0.45,1.35,147
0.45,1.5,147
0.6,-1.5,99
0.6,-1.35,99
0.6,-1.2,100
0.6,-1.05,100
0.6,-0.9,100
0.6,-0.75,100
0.6,-0.6,100
0.6,-0.45,100
0.6,-0.3,128
0.6,-0.15,142
0.6,0.0,142
0.6,0.15,135
0.6,0.3,143
0.6,0.45,143
0.6,0.6,123
0.6,0.75,144
0.6,0.9,145
0.6,1.05,125
0.6,1.2,125
0.6,1.35,126
0.6,1.5,146
0.75,-1.5,56
0.75,-1.35,56
0.75,-1.2,56
0.75,-1.05,57
0.75,-0.9,57
0.75,-0.75,57
0.75,-0.6,57
0.75,-0.45,64
0.75,-0.3,71
0.75,-0.15,85
0.75,0.0,114
0.75,0.15,107
0.75,0.3,107
0.75,0.45,107
0.75,0.6,80
0.75,0.75,123
0.75,0.9,123
0.75,1.05,124
0.75,1.2,124
0.75,1.35,124
0.75,1.5,117
0.9,-1.5,42
0.9,-1.35,49
0.9,-1.2,56
0.9,-1.05,57
0.9,-0.9,57
0.9,-0.75,50
0.9,-0.6,50
0.9,-0.45,43
0.9,-0.3,57
0.9,-0.15,57
0.9,0.0,79
0.9,0.15,57
0.9,0.3,57
0.9,0.45,79
0.9,0.6,79
0.9,0.75,87
0.9,0.9,80
0.9,1.05,80
0.9,1.2,116
0.9,1.35,115
0.9,1.5,115
1.05,-1.5,35
1.05,-1.35,35
1.05,-1.2,35
1.05,-1.05,42
1.05,-0.9,49
1.05,-0.75,50
1.05,-0.6,50
1.05,-0.45,21
1.05,-0.3,29
1.05,-0.15,29
1.05,0.0,36
1.05,0.15,57
1.05,0.3,57
1.05,0.45,58
1.05,0.6,58
1.05,0.75,80
1.05,0.9,79
1.05,1.05,72
1.05,1.2,72
1.05,1.35,72
1.05,1.5,72
1.2,-1.5,7
1.2,-1.35,7
1.2,-1.2,7
1.2,-1.05,14
1.2,-0.9,14
1.2,-0.75,21
1.2,-0.6,21
1.2,-0.45,29
1.2,-0.3,29
1.2,-0.15,29
1.2,0.0,29
1.2,0.15,57
1.2,0.3,57
1.2,0.45,57
1.2,0.6,57
1.2,0.75,58
1.2,0.9,50
1.2,1.05,72
1.2,1.2,72
1.2,1.35,72
1.2,1.5,72
1.35,-1.5,7
1.35,-1.35,0
1.35,-1.2,0
1.35,-1.05,7
1.35,-0.9,7
1.35,-0.75,14
1.35,-0.6,7
1.35,-0.45,21
1.35,-0.3,29
1.35,-0.15,22
1.35,0.0,29
1.35,0.15,22
1.35,0.3,50
1.35,0.45,50
1.35,0.6,50
1.35,0.75,43
1.35,0.9,43
1.35,1.05,43
1.35,1.2,50
1.35,1.35,50
1.35,1.5,72
1.5,-1.5,0
1.5,-1.35,0
1.5,-1.2,0
1.5,-1.05,0
1.5,-0.9,0
1.5,-0.75,0
1.5,-0.6,7
1.5,-0.45,15
1.5,-0.3,22
1.5,-0.15,22
1.5,0.0,14
1.5,0.15,15
1.5,0.3,15
1.5,0.45,50
1.5,0.6,43
1.5,0.75,43
1.5,0.9,43
1.5,1.05,43
1.5,1.2,50
1.5,1.35,50
1.5,1.5,50
1.65,-1.5,14
1.65,-1.35,14
1.65,-1.2,14
1.65,-1.05,0
1.65,-0.9,0
1.65,-0.75,0
1.65,-0.6,0
1.65,-0.45,0
1.65,-0.3,7
1.65,-0.15,7
1.65,0.0,15
1.65,0.15,22
1.65,0.3,22
1.65,0.45,21
1.65,0.6,21
1.65,0.75,21
1.65,0.9,43
1.65,1.05,71
1.65,1.2,71
1.65,1.35,71
1.65,1.5,71
1.8,-1.5,21
1.8,-1.35,21
1.8,-1.2,21
1.8,-1.05,21
1.8,-0.9,14
1.8,-0.75,14
1.8,-0.6,7
1.8,-0.45,0
1.8,-0.3,0
1.8,-0.15,15
1.8,0.0,7
1.8,0.15,15
1.8,0.3,22
1.8,0.45,21
1.8,0.6,43
1.8,0.75,50
1.8,0.9,50
1.8,1.05,49
1.8,1.2,49
1.8,1.35,71
1.8,1.5,71
1.95,-1.5,21
1.95,-1.35,21
1.95,-1.2,21
1.95,-1.05,14
1.95,-0.9,14
1.95,-0.75,14
1.95,-0.6,14
1.95,-0.45,7
1.95,-0.3,0
1.95,-0.15,0
1.95,0.0,29
1.95,0.15,29
1.95,0.3,36
1.95,0.45,43
1.95,0.6,43
1.95,0.75,43
1.95,0.9,43
1.95,1.05,43
1.95,1.2,49
1.95,1.35,49
1.95,1.5,49
2.1,-1.5,21
2.1,-1.35,21
2.1,-1.2,21
2.1,-1.05,22
2.1,-0.9,22
2.1,-0.75,14
2.1,-0.6,14
2.1,-0.45,14
2.1,-0.3,22
2.1,-0.15,7
2.1,0.0,36
2.1,0.15,36
2.1,0.3,43
2.1,0.45,43
2.1,0.6,84
2.1,0.75,50
2.1,0.9,50
2.1,1.05,50
2.1,1.2,50
2.1,1.35,49
2.1,1.5,49
2.25,-1.5,28
2.25,-1.35,28
2.25,-1.2,22
2.25,-1.05,22
2.25,-0.9,22
2.25,-0.75,15
2.25,-0.6,15
2.25,-0.45,15
2.25,-0.3,22
2.25,-0.15,43
2.25,0.0,85
2.25,0.15,92
2.25,0.3,85
2.25,0.45,92
2.25,0.6,57
2.25,0.75,57
2.25,0.9,57
2.25,1.05,56
2.25,1.2,56
2.25,1.35,56
2.25,1.5,56
2.4,-1.5,28
2.4,-1.35,29
2.4,-1.2,29
2.4,-1.05,29
2.4,-0.9,57
2.4,-0.75,57
2.4,-0.6,50
2.4,-0.45,99
2.4,-0.3,78
2.4,-0.15,92
2.4,0.0,92
2.4,0.15,92
2.4,0.3,99
2.4,0.45,99
2.4,0.6,99
2.4,0.75,98
2.4,0.9,49
2.4,1.05,56
2.4,1.2,49
2.4,1.35,42
2.4,1.5,49
2.55,-1.5,28
2.55,-1.35,28
2.55,-1.2,57
2.55,-1.05,49
2.55,-0.9,50
2.55,-0.75,57
2.55,-0.6,64
2.55,-0.45,106
2.55,-0.3,99
2.55,-0.15,99
2.55,0.0,121
2.55,0.15,106
2.55,0.3,99
2.55,0.45,85
2.55,0.6,49
2.55,0.75,49
2.55,0.9,42
2.55,1.05,42
2.55,1.2,42
2.55,1.35,42
2.55,1.5,42
2.7,-1.5,64
2.7,-1.35,64
2.7,-1.2,49
2.7,-1.05,49
2.7,-0.9,49
2.7,-0.75,57
2.7,-0.6,106
2.7,-0.45,99
2.7,-0.3,106
2.7,-0.15,106
2.7,0.0,99
2.7,0.15,92
2.7,0.3,92
2.7,0.45,92
2.7,0.6,42
2.7,0.75,42
2.7,0.9,42
2.7,1.05,42
2.7,1.2,35
2.7,1.35,35
2.7,1.5,35
2.85,-1.5,64
2.85,-1.35,84
2.85,-1.2,85
2.85,-1.05,92
2.85,-0.9,92
2.85,-0.75,92
2.85,-0.6,92
2.85,-0.45,50
2.85,-0.3,71
2.85,-0.15,106
2.85,0.0,36
2.85,0.15,71
2.85,0.3,71
2.85,0.45,71
2.85,0.6,77
2.85,0.75,42
2.85,0.9,35
2.85,1.05,28
2.85,1.2,28
2.85,1.35,28
2.85,1.5,28
3.0,-1.5,56
3.0,-1.35,56
3.0,-1.2,85
3.0,-1.05,85
3.0,-0.9,85
3.0,-0.75,85
3.0,-0.6,92
3.0,-0.45,92
3.0,-0.3,64
3.0,-0.15,114
3.0,0.0,78
3.0,0.15,71
3.0,0.3,71
3.0,0.45,57
3.0,0.6,56
3.0,0.75,42
3.0,0.9,42
3.0,1.05,34
3.0,1.2,34
3.0,1.35,34
3.0,1.5,21
3.15,-1.5,50
3.15,-1.35,50
3.15,-1.2,57
3.15,-1.05,78
3.15,-0.9,78
3.15,-0.75,78
3.15,-0.6,64
3.15,-0.45,78
3.15,-0.3,36
3.15,-0.15,99
3.15,0.0,71
3.15,0.15,64
3.15,0.3,64
3.15,0.45,50
3.15,0.6,35
3.15,0.75,35
3.15,0.9,35
3.15,1.05,34
3.15,1.2,0
3.15,1.35,0
3.15,1.5,0
3.3,-1.5,43
3.3,-1.35,71
3.3,-1.2,71
3.3,-1.05,106
3.3,-0.9,106
3.3,-0.75,92
3.3,-0.6,78
3.3,-0.45,92
3.3,-0.3,78
3.3,-0.15,57
3.3,0.0,64
3.3,0.15,57
3.3,0.3,43
3.3,0.45,35
3.3,0.6,35
3.3,0.75,28
3.3,0.9,28
3.3,1.05,28
3.3,1.2,28
3.3,1.35,28
3.3,1.5,28
3.45,-1.5,105
3.45,-1.35,105
3.45,-1.2,106
3.45,-1.05,106
3.45,-0.9,106
3.45,-0.75,106
3.45,-0.6,135
3.45,-0.45,149
3.45,-0.3,106
3.45,-0.15,85
3.45,0.0,78
3.45,0.15,0
3.45,0.3,0
3.45,0.45,29
3.45,0.6,29
3.45,0.75,36
3.45,0.9,42
3.45,1.05,36
3.45,1.2,36
3.45,1.35,36
3.45,1.5,36
3.6,-1.5,105
3.6,-1.35,112
3.6,-1.2,113
3.6,-1.05,113
3.6,-0.9,113
3.6,-0.75,113
3.6,-0.6,149
3.6,-0.45,128
3.6,-0.3,177
3.6,-0.15,114
3.6,0.0,78
3.6,0.15,78
3.6,0.3,85
3.6,0.45,85
3.6,0.6,50
3.6,0.75,50
3.6,0.9,50
3.6,1.05,49
3.6,1.2,49
3.6,1.35,36
3.6,1.5,36
3.75,-1.5,64
3.75,-1.35,63
3.75,-1.2,84
3.75,-1.05,84
3.75,-0.9,113
3.75,-0.75,71
3.75,-0.6,99
3.75,-0.45,114
3.75,-0.3,128
3.75,-0.15,78
3.75,0.0,99
3.75,0.15,128
3.75,0.3,92
3.75,0.45,50
3.75,0.6,50
3.75,0.75,50
3.75,0.9,36
3.75,1.05,36
3.75,1.2,36
3.75,1.35,36
3.75,1.5,36
3.9,-1.5,21
3.9,-1.35,21
3.9,-1.2,49
3.9,-1.05,56
3.9,-0.9,99
3.9,-0.75,113
3.9,-0.6,85
3.9,-0.45,85
3.9,-0.3,71
3.9,-0.15,71
3.9,0.0,114
3.9,0.15,149
3.9,0.3,64
3.9,0.45,71
3.9,0.6,57
3.9,0.75,57
3.9,0.9,57
3.9,1.05,36
3.9,1.2,36
3.9,1.35,36
3.9,1.5,36
4.05,-1.5,56
4.05,-1.35,28
4.05,-1.2,28
4.05,-1.05,28
4.05,-0.9,57
4.05,-0.75,57
4.05,-0.6,57
4.05,-0.45,64
4.05,-0.3,64
4.05,-0.15,92
4.05,0.0,71
4.05,0.15,71
4.05,0.3,57
4.05,0.45,64
4.05,0.6,57
4.05,0.75,57
4.05,0.9,57
4.05,1.05,36
4.05,1.2,36
4.05,1.35,36
4.05,1.5,36
4.2,-1.5,64
4.2,-1.35,64
4.2,-1.2,64
4.2,-1.05,64
4.2,-0.9,29
4.2,-0.75,57
4.2,-0.6,64
4.2,-0.45,78
4.2,-0.3,64
4.2,-0.15,128
4.2,0.0,43
4.2,0.15,29
4.2,0.3,29
4.2,0.45,29
4.2,0.6,28
4.2,0.75,36
4.2,0.9,8
4.2,1.05,8
4.2,1.2,29
4.2,1.35,29
4.2,1.5,29
4.35,-1.5,64
4.35,-1.35,64
4.35,-1.2,64
4.35,-1.05,64
4.35,-0.9,64
4.35,-0.75,71
4.35,-0.6,43
4.35,-0.45,57
4.35,-0.3,57
4.35,-0.15,57
4.35,0.0,85
4.35,0.15,43
4.35,0.3,29
4.35,0.45,7
4.35,0.6,7
4.35,0.75,8
4.35,0.9,8
4.35,1.05,8
4.35,1.2,8
4.35,1.35,8
4.35,1.5,8
4.5,-1.5,44
4.5,-1.35,43
4.5,-1.2,43
4.5,-1.05,43
4.5,-0.9,43
4.5,-0.75,85
4.5,-0.6,43
4.5,-0.45,71
4.5,-0.3,29
4.5,-0.15,50
4.5,0.0,128
4.5,0.15,163
4.5,0.3,78
4.5,0.45,71
4.5,0.6,50
4.5,0.75,50
4.5,0.9,42
4.5,1.05,35
4.5,1.2,35
4.5,1.35,42
4.5,1.5,8
4.65,-1.5,50
4.65,-1.35,50
4.65,-1.2,50
4.65,-1.05,43
4.65,-0.9,57
4.65,-0.75,57
4.65,-0.6,107
4.65,-0.45,29
4.65,-0.3,0
4.65,-0.15,0
4.65,0.0,135
4.65,0.15,128
4.65,0.3,50
4.65,0.45,43
4.65,0.6,42
4.65,0.75,42
4.65,0.9,49
4.65,1.05,49
4.65,1.2,49
4.65,1.35,49
4.65,1.5,42
4.8,-1.5,50
4.8,-1.35,50
4.8,-1.2,78
4.8,-1.05,64
4.8,-0.9,64
4.8,-0.75,142
4.8,-0.6,99
4.8,-0.45,142
4.8,-0.3,64
4.8,-0.15,0
4.8,0.0,43
4.8,0.15,78
4.8,0.3,36
4.8,0.45,36
4.8,0.6,35
4.8,0.75,35
4.8,0.9,35
4.8,1.05,35
4.8,1.2,35
4.8,1.35,35
4.8,1.5,36
4.95,-1.5,64
4.95,-1.35,64
4.95,-1.2,92
4.95,-1.05,92
4.95,-0.9,100
4.95,-0.75,92
4.95,-0.6,92
4.95,-0.45,99
4.95,-0.3,85
4.95,-0.15,85
4.95,0.0,36
4.95,0.15,0
4.95,0.3,0
4.95,0.45,0
4.95,0.6,0
4.95,0.75,36
4.95,0.9,36
4.95,1.05,36
4.95,1.2,36
4.95,1.35,43
4.95,1.5,43
5.1,-1.5,93
5.1,-1.35,121
5.1,-1.2,121
5.1,-1.05,107
5.1,-0.9,121
5.1,-0.75,78
5.1,-0.6,106
5.1,-0.45,106
5.1,-0.3,29
5.1,-0.15,36
5.1,0.0,43
5.1,0.15,43
5.1,0.3,43
5.1,0.45,57
5.1,0.6,57
5.1,0.75,43
5.1,0.9,43
5.1,1.05,43
5.1,1.2,43
5.1,1.35,36
5.1,1.5,36
5.25,-1.5,99
5.25,-1.35,107
5.25,-1.2,128
5.25,-1.05,142
5.25,-0.9,142
5.25,-0.75,184
5.25,-0.6,163
5.25,-0.45,99
5.25,-0.3,71
5.25,-0.15,29
5.25,0.0,64
5.25,0.15,29
5.25,0.3,57
5.25,0.45,57
5.25,0.6,64
5.25,0.75,64
5.25,0.9,64
5.25,1.05,64
5.25,1.2,64
5.25,1.35,57
5.25,1.5,57
5.4,-1.5,107
5.4,-1.35,99
5.4,-1.2,113
5.4,-1.05,120
5.4,-0.9,134
5.4,-0.75,163
5.4,-0.6,114
5.4,-0.45,114
5.4,-0.3,85
5.4,-0.15,71
5.4,0.0,22
5.4,0.15,50
5.4,0.3,57
5.4,0.45,57
5.4,0.6,57
5.4,0.75,78
5.4,0.9,85
5.4,1.05,93
5.4,1.2,93
5.4,1.35,93
5.4,1.5,93
5.55,-1.5,71
5.55,-1.35,78
5.55,-1.2,92
5.55,-1.05,78
5.55,-0.9,78
5.55,-0.75,113
5.55,-0.6,114
5.55,-0.45,128
5.55,-0.3,92
5.55,-0.15,7
5.55,0.0,36
5.55,0.15,135
5.55,0.3,135
5.55,0.45,85
5.55,0.6,86
5.55,0.75,86
5.55,0.9,86
5.55,1.05,86
5.55,1.2,86
5.55,1.35,93
5.55,1.5,93
5.7,-1.5,99
5.7,-1.35,71
5.7,-1.2,71
5.7,-1.05,71
5.7,-0.9,43
5.7,-0.75,36
5.7,-0.6,106
5.7,-0.45,163
5.7,-0.3,85
5.7,-0.15,7
5.7,0.0,57
5.7,0.15,85
5.7,0.3,142
5.7,0.45,128
5.7,0.6,114
5.7,0.75,114
5.7,0.9,121
5.7,1.05,121
5.7,1.2,121
5.7,1.35,121
5.7,1.5,121
5.85,-1.5,106
5.85,-1.35,106
5.85,-1.2,106
5.85,-1.05,78
5.85,-0.9,78
5.85,-0.75,64
5.85,-0.6,29
5.85,-0.45,99
5.85,-0.3,149
5.85,-0.15,50
5.85,0.0,43
5.85,0.15,92
5.85,0.3,85
5.85,0.45,85
5.85,0.6,121
5.85,0.75,121
5.85,0.9,121
5.85,1.05,121
5.85,1.2,121
5.85,1.35,121
5.85,1.5,106
6.0,-1.5,106
6.0,-1.35,106
6.0,-1.2,85
6.0,-1.05,106
6.0,-0.9,106
6.0,-0.75,71
6.0,-0.6,64
6.0,-0.45,85
6.0,-0.3,163
6.0,-0.15,50
6.0,0.0,43
6.0,0.15,50
6.0,0.3,71
6.0,0.45,78
6.0,0.6,71
6.0,0.75,71
6.0,0.9,78
6.0,1.05,71
6.0,1.2,106
6.0,1.35,99
6.0,1.5,99
6.15,-1.5,106
6.15,-1.35,106
6.15,-1.2,106
6.15,-1.05,113
6.15,-0.9,114
6.15,-0.75,114
6.15,-0.6,92
6.15,-0.45,36
6.15,-0.3,85
6.15,-0.15,92
6.15,0.0,149
6.15,0.15,64
6.15,0.3,50
6.15,0.45,36
6.15,0.6,43
6.15,0.75,43
6.15,0.9,43
6.15,1.05,64
6.15,1.2,42
6.15,1.35,63
6.15,1.5,63
6.3,-1.5,106
6.3,-1.35,106
6.3,-1.2,106
6.3,-1.05,106
6.3,-0.9,135
6.3,-0.75,85
6.3,-0.6,85
6.3,-0.45,14
6.3,-0.3,106
6.3,-0.15,85
6.3,0.0,99
6.3,0.15,36
6.3,0.3,36
6.3,0.45,36
6.3,0.6,22
6.3,0.75,36
6.3,0.9,36
6.3,1.05,36
6.3,1.2,21
6.3,1.35,21
6.3,1.5,21
6.45,-1.5,99
6.45,-1.35,106
6.45,-1.2,106
6.45,-1.05,106
6.45,-0.9,92
6.45,-0.75,64
6.45,-0.6,43
6.45,-0.45,64
6.45,-0.3,78
6.45,-0.15,92
6.45,0.0,71
6.45,0.15,14
6.45,0.3,7
6.45,0.45,7
6.45,0.6,0
6.45,0.75,0
6.45,0.9,0
6.45,1.05,21
6.45,1.2,21
6.45,1.35,21
6.45,1.5,21
6.6,-1.5,92
6.6,-1.35,92
6.6,-1.2,78
6.6,-1.05,78
6.6,-0.9,43
6.6,-0.75,43
6.6,-0.6,64
6.6,-0.45,57
6.6,-0.3,64
6.6,-0.15,85
6.6,0.0,43
6.6,0.15,7
6.6,0.3,7
6.6,0.45,7
6.6,0.6,7
6.6,0.75,7
6.6,0.9,7
6.6,1.05,7
6.6,1.2,7
6.6,1.35,7
6.6,1.5,7
6.75,-1.5,85
6.75,-1.35,85
6.75,-1.2,64
6.75,-1.05,43
6.75,-0.9,36
6.75,-0.75,29
6.75,-0.6,36
6.75,-0.45,36
6.75,-0.3,36
6.75,-0.15,106
6.75,0.0,85
6.75,0.15,14
6.75,0.3,7
6.75,0.45,7
6.75,0.6,7
6.75,0.75,7
6.75,0.9,7
6.75,1.05,7
6.75,1.2,7
6.75,1.35,7
6.75,1.5,7
6.9,-1.5,43
6.9,-1.35,71
6.9,-1.2,78
6.9,-1.05,71
6.9,-0.9,57
6.9,-0.75,71
6.9,-0.6,50
6.9,-0.45,36
6.9,-0.3,64
6.9,-0.15,57
6.9,0.0,43
6.9,0.15,7
6.9,0.3,7
6.9,0.45,7
6.9,0.6,7
6.9,0.75,7
6.9,0.9,14
6.9,1.05,7
6.9,1.2,7
6.9,1.35,7
6.9,1.5,7
7.05,-1.5,99
7.05,-1.35,92
7.05,-1.2,120
7.05,-1.05,120
7.05,-0.9,78
7.05,-0.75,85
7.05,-0.6,78
7.05,-0.45,50
7.05,-0.3,85
7.05,-0.15,78
7.05,0.0,14
7.05,0.15,29
7.05,0.3,15
7.05,0.45,14
7.05,0.6,22
7.05,0.75,15
7.05,0.9,15
7.05,1.05,8
7.05,1.2,8
7.05,1.35,8
7.05,1.5,8
7.2,-1.5,106
7.2,-1.35,113
7.2,-1.2,113
7.2,-1.05,113
7.2,-0.9,149
7.2,-0.75,170
7.2,-0.6,114
7.2,-0.45,106
7.2,-0.3,43
7.2,-0.15,64
7.2,0.0,36
7.2,0.15,36
7.2,0.3,36
7.2,0.45,43
7.2,0.6,43
7.2,0.75,22
7.2,0.9,15
7.2,1.05,22
7.2,1.2,22
7.2,1.35,8
7.2,1.5,8
7.35,-1.5,106
7.35,-1.35,106
7.35,-1.2,106
7.35,-1.05,106
7.35,-0.9,106
7.35,-0.75,135
7.35,-0.6,128
7.35,-0.45,64
7.35,-0.3,29
7.35,-0.15,22
7.35,0.0,43
7.35,0.15,43
7.35,0.3,43
7.35,0.45,71
7.35,0.6,43
7.35,0.75,43
7.35,0.9,43
7.35,1.05,35
7.35,1.2,35
7.35,1.35,35
7.35,1.5,35
7.5,-1.5,71
7.5,-1.35,78
7.5,-1.2,71
7.5,-1.05,71
7.5,-0.9,92
7.5,-0.75,92
7.5,-0.6,99
7.5,-0.45,92
7.5,-0.3,64
7.5,-0.15,14
7.5,0.0,36
7.5,0.15,43
7.5,0.3,43
7.5,0.45,36
7.5,0.6,36
7.5,0.75,36
7.5,0.9,29
7.5,1.05,29
7.5,1.2,29
7.5,1.35,28
7.5,1.5,28
7.65,-1.5,57
7.65,-1.35,57
7.65,-1.2,57
7.65,-1.05,57
7.65,-0.9,57
7.65,-0.75,57
7.65,-0.6,36
7.65,-0.45,29
7.65,-0.3,71
7.65,-0.15,50
7.65,0.0,43
7.65,0.15,36
7.65,0.3,29
7.65,0.45,29
7.65,0.6,29
7.65,0.75,29
7.65,0.9,35
7.65,1.05,28
7.65,1.2,28
7.65,1.35,29
7.65,1.5,29
7.8,-1.5,50
7.8,-1.35,50
7.8,-1.2,50
7.8,-1.05,50
7.8,-0.9,50
7.8,-0.75,7
7.8,-0.6,7
7.8,-0.45,0
7.8,-0.3,99
7.8,-0.15,71
7.8,0.0,43
7.8,0.15,29
7.8,0.3,43
7.8,0.45,43
7.8,0.6,29
7.8,0.75,29
7.8,0.9,29
7.8,1.05,29
7.8,1.2,21
7.8,1.35,21
7.8,1.5,21
7.95,-1.5,63
7.95,-1.35,21
7.95,-1.2,21
7.95,-1.05,21
7.95,-0.9,21
7.95,-0.75,22
7.95,-0.6,0
7.95,-0.45,0
7.95,-0.3,64
7.95,-0.15,14
7.95,0.0,36
7.95,0.15,50
7.95,0.3,43
7.95,0.45,43
7.95,0.6,43
7.95,0.75,36
7.95,0.9,35
7.95,1.05,15
7.95,1.2,15
7.95,1.35,15
7.95,1.5,0
8.1,-1.5,7
8.1,-1.35,7
8.1,-1.2,0
8.1,-1.05,7
8.1,-0.9,29
8.1,-0.75,29
8.1,-0.6,22
8.1,-0.45,36
8.1,-0.3,85
8.1,-0.15,99
8.1,0.0,99
8.1,0.15,50
8.1,0.3,21
8.1,0.45,21
8.1,0.6,14
8.1,0.75,14
8.1,0.9,14
8.1,1.05,14
8.1,1.2,14
8.1,1.35,14
8.1,1.5,14
8.25,-1.5,35
8.25,-1.35,35
8.25,-1.2,35
8.25,-1.05,43
8.25,-0.9,43
8.25,-0.75,50
8.25,-0.6,71
8.25,-0.45,36
8.25,-0.3,0
8.25,-0.15,29
8.25,0.0,57
8.25,0.15,50
8.25,0.3,29
8.25,0.45,0
8.25,0.6,14
8.25,0.75,14
8.25,0.9,15
8.25,1.05,15
8.25,1.2,15
8.25,1.35,15
8.25,1.5,15
8.4,-1.5,63
8.4,-1.35,63
8.4,-1.2,71
8.4,-1.05,71
8.4,-0.9,71
8.4,-0.75,85
8.4,-0.6,64
8.4,-0.45,29
8.4,-0.3,29
8.4,-0.15,92
8.4,0.0,99
8.4,0.15,36
8.4,0.3,64
8.4,0.45,57
8.4,0.6,57
8.4,0.75,57
8.4,0.9,15
8.4,1.05,57
8.4,1.2,57
8.4,1.35,58
8.4,1.5,56
8.55,-1.5,98
8.55,-1.35,77
8.55,-1.2,78
8.55,-1.05,78
8.55,-0.9,85
8.55,-0.75,85
8.55,-0.6,57
8.55,-0.45,36
8.55,-0.3,22
8.55,-0.15,135
8.55,0.0,149
8.55,0.15,99
8.55,0.3,57
8.55,0.45,64
8.55,0.6,64
8.55,0.75,93
8.55,0.9,93
8.55,1.05,93
8.55,1.2,63
8.55,1.35,63
8.55,1.5,63
8.7,-1.5,84
8.7,-1.35,84
8.7,-1.2,85
8.7,-1.05,113
8.7,-0.9,113
8.7,-0.75,113
8.7,-0.6,121
8.7,-0.45,29
8.7,-0.3,14
8.7,-0.15,57
8.7,0.0,92
8.7,0.15,57
8.7,0.3,93
8.7,0.45,93
8.7,0.6,93
8.7,0.75,92
8.7,0.9,64
8.7,1.05,63
8.7,1.2,63
8.7,1.35,63
8.7,1.5,63
8.85,-1.5,56
8.85,-1.35,56
8.85,-1.2,56
8.85,-1.05,64
8.85,-0.9,92
8.85,-0.75,121
8.85,-0.6,106
8.85,-0.45,71
8.85,-0.3,57
8.85,-0.15,29
8.85,0.0,78
8.85,0.15,92
8.85,0.3,93
8.85,0.45,93
8.85,0.6,71
8.85,0.75,64
8.85,0.9,64
8.85,1.05,64
8.85,1.2,64
8.85,1.35,64
8.85,1.5,63
9.0,-1.5,49
9.0,-1.35,35
9.0,-1.2,35
9.0,-1.05,43
9.0,-0.9,43
9.0,-0.75,50
9.0,-0.6,71
9.0,-0.45,57
9.0,-0.3,57
9.0,-0.15,57
9.0,0.0,64
9.0,0.15,107
9.0,0.3,92
9.0,0.45,92
9.0,0.6,92
9.0,0.75,85
9.0,0.9,85
9.0,1.05,85
9.0,1.2,84
9.0,1.35,84
9.0,1.5,84
9.15,-1.5,71
9.15,-1.35,71
9.15,-1.2,71
9.15,-1.05,57
9.15,-0.9,57
9.15,-0.75,36
9.15,-0.6,29
9.15,-0.45,92
9.15,-0.3,92
9.15,-0.15,50
9.15,0.0,57
9.15,0.15,78
9.15,0.3,71
9.15,0.45,64
9.15,0.6,78
9.15,0.75,85
9.15,0.9,84
9.15,1.05,84
9.15,1.2,84
9.15,1.35,84
9.15,1.5,84
9.3,-1.5,71
9.3,-1.35,71
9.3,-1.2,71
9.3,-1.05,50
9.3,-0.9,50
9.3,-0.75,64
9.3,-0.6,43
9.3,-0.45,50
9.3,-0.3,7
9.3,-0.15,50
9.3,0.0,78
9.3,0.15,92
9.3,0.3,92
9.3,0.45,92
9.3,0.6,92
9.3,0.75,113
9.3,0.9,84
9.3,1.05,84
9.3,1.2,84
9.3,1.35,84
9.3,1.5,84
9.45,-1.5,71
9.45,-1.35,71
9.45,-1.2,71
9.45,-1.05,71
9.45,-0.9,85
9.45,-0.75,85
9.45,-0.6,135
9.45,-0.45,128
9.45,-0.3,121
9.45,-0.15,106
9.45,0.0,71
9.45,0.15,57
9.45,0.3,85
9.45,0.45,78
9.45,0.6,78
9.45,0.75,78
9.45,0.9,78
9.45,1.05,106
9.45,1.2,127
9.45,1.35,84
9.45,1.5,84
9.6,-1.5,107
9.6,-1.35,107
9.6,-1.2,107
9.6,-1.05,114
9.6,-0.9,114
9.6,-0.75,113
9.6,-0.6,99
9.6,-0.45,142
9.6,-0.3,149
9.6,-0.15,149
9.6,0.0,71
9.6,0.15,43
9.6,0.3,28
9.6,0.45,71
9.6,0.6,99
9.6,0.75,99
9.6,0.9,99
9.6,1.05,99
9.6,1.2,112
9.6,1.35,112
9.6,1.5,112
9.75,-1.5,106
9.75,-1.35,99
9.75,-1.2,107
9.75,-1.05,114
9.75,-0.9,99
9.75,-0.75,100
9.75,-0.6,71
9.75,-0.45,78
9.75,-0.3,121
9.75,-0.15,120
9.75,0.0,113
9.75,0.15,50
9.75,0.3,36
9.75,0.45,57
9.75,0.6,71
9.75,0.75,71
9.75,0.9,71
9.75,1.05,85
9.75,1.2,85
9.75,1.35,85
9.75,1.5,85
9.9,-1.5,120
9.9,-1.35,120
9.9,-1.2,128
9.9,-1.05,128
9.9,-0.9,64
9.9,-0.75,64
9.9,-0.6,92
9.9,-0.45,113
9.9,-0.3,142
9.9,-0.15,85
9.9,0.0,78
9.9,0.15,121
9.9,0.3,57
9.9,0.45,57
9.9,0.6,50
9.9,0.75,50
9.9,0.9,49
9.9,1.05,49
9.9,1.2,49
9.9,1.35,64
9.9,1.5,64
10.05,-1.5,114
10.05,-1.35,93
10.05,-1.2,93
10.05,-1.05,92
10.05,-0.9,92
10.05,-0.75,57
10.05,-0.6,57
10.05,-0.45,57
10.05,-0.3,92
10.05,-0.15,113
10.05,0.0,99
10.05,0.15,92
10.05,0.3,85
10.05,0.45,36
10.05,0.6,50
10.05,0.75,22
10.05,0.9,49
10.05,1.05,29
10.05,1.2,29
10.05,1.35,29
10.05,1.5,29
10.2,-1.5,100
10.2,-1.35,99
10.2,-1.2,107
10.2,-1.05,107
10.2,-0.9,71
10.2,-0.75,99
10.2,-0.6,142
10.2,-0.45,149
10.2,-0.3,142
10.2,-0.15,177
10.2,0.0,106
10.2,0.15,36
10.2,0.3,36
10.2,0.45,36
10.2,0.6,36
10.2,0.75,29
10.2,0.9,29
10.2,1.05,29
10.2,1.2,29
10.2,1.35,29
10.2,1.5,29
10.35,-1.5,135
10.35,-1.35,149
10.35,-1.2,106
10.35,-1.05,92
10.35,-0.9,99
10.35,-0.75,106
10.35,-0.6,121
10.35,-0.45,156
10.35,-0.3,177
10.35,-0.15,149
10.35,0.0,78
10.35,0.15,71
10.35,0.3,71
10.35,0.45,43
10.35,0.6,36
10.35,0.75,36
10.35,0.9,29
10.35,1.05,29
10.35,1.2,29
10.35,1.35,29
10.35,1.5,29
10.5,-1.5,127
10.5,-1.35,127
10.5,-1.2,127
10.5,-1.05,128
10.5,-0.9,128
10.5,-0.75,99
10.5,-0.6,106
10.5,-0.45,205
10.5,-0.3,177
10.5,-0.15,149
10.5,0.0,127
10.5,0.15,78
10.5,0.3,71
10.5,0.45,71
10.5,0.6,71
10.5,0.75,36
10.5,0.9,36
10.5,1.05,36
10.5,1.2,29
10.5,1.35,29
10.5,1.5,29
10.65,-1.5,127
10.65,-1.35,128
10.65,-1.2,128
10.65,-1.05,128
10.65,-0.9,128
10.65,-0.75,149
10.65,-0.6,177
10.65,-0.45,206
10.65,-0.3,121
10.65,-0.15,120
10.65,0.0,99
10.65,0.15,106
10.65,0.3,78
10.65,0.45,71
10.65,0.6,70
10.65,0.75,70
10.65,0.9,36
10.65,1.05,36
10.65,1.2,36
10.65,1.35,29
10.65,1.5,29
10.8,-1.5,120
10.8,-1.35,120
10.8,-1.2,120
10.8,-1.05,120
10.8,-0.9,135
10.8,-0.75,135
10.8,-0.6,142
10.8,-0.45,135
10.8,-0.3,156
10.8,-0.15,92
10.8,0.0,85
10.8,0.15,142
10.8,0.3,113
10.8,0.45,113
10.8,0.6,72
10.8,0.75,72
10.8,0.9,72
10.8,1.05,85
10.8,1.2,86
10.8,1.35,78
10.8,1.5,78
10.95,-1.5,113
10.95,-1.35,113
10.95,-1.2,134
10.95,-1.05,134
10.95,-0.9,135
10.95,-0.75,135
10.95,-0.6,135
10.95,-0.45,135
10.95,-0.3,127
10.95,-0.15,135
10.95,0.0,71
10.95,0.15,78
10.95,0.3,113
10.95,0.45,113
10.95,0.6,113
10.95,0.75,86
10.95,0.9,86
10.95,1.05,86
10.95,1.2,86
10.95,1.35,86
10.95,1.5,86
11.1,-1.5,134
11.1,-1.35,156
11.1,-1.2,156
11.1,-1.05,135
11.1,-0.9,135
11.1,-0.75,135
11.1,-0.6,156
11.1,-0.45,135
11.1,-0.3,170
11.1,-0.15,128
11.1,0.0,99
11.1,0.15,71
11.1,0.3,78
11.1,0.45,92
11.1,0.6,93
11.1,0.75,93
11.1,0.9,93
11.1,1.05,82
11.1,1.2,82
11.1,1.35,82
11.1,1.5,82
11.25,-1.5,141
11.25,-1.35,141
11.25,-1.2,141
11.25,-1.05,142
11.25,-0.9,142
11.25,-0.75,142
11.25,-0.6,142
11.25,-0.45,177
11.25,-0.3,142
11.25,-0.15,135
11.25,0.0,134
11.25,0.15,113
11.25,0.3,106
11.25,0.45,93
11.25,0.6,92
11.25,0.75,85
11.25,0.9,85
11.25,1.05,85
11.25,1.2,85
11.25,1.35,82
11.25,1.5,82
11.4,-1.5,156
11.4,-1.35,141
11.4,-1.2,120
11.4,-1.05,120
11.4,-0.9,85
11.4,-0.75,85
11.4,-0.6,85
11.4,-0.45,121
11.4,-0.3,121
11.4,-0.15,135
11.4,0.0,134
11.4,0.15,121
11.4,0.3,92
11.4,0.45,91
11.4,0.6,91
11.4,0.75,78
11.4,0.9,71
11.4,1.05,90
11.4,1.2,90
11.4,1.35,82
11.4,1.5,82
11.55,-1.5,134
11.55,-1.35,134
11.55,-1.2,135
11.55,-1.05,135
11.55,-0.9,142
11.55,-0.75,142
11.55,-0.6,85
11.55,-0.45,128
11.55,-0.3,135
11.55,-0.15,128
11.55,0.0,135
11.55,0.15,134
11.55,0.3,127
11.55,0.45,98
11.55,0.6,98
11.55,0.75,98
11.55,0.9,90
11.55,1.05,90
11.55,1.2,62
11.55,1.35,82
11.55,1.5,82
11.7,-1.5,135
11.7,-1.35,135
11.7,-1.2,135
11.7,-1.05,135
11.7,-0.9,135
11.7,-0.75,142
11.7,-0.6,149
11.7,-0.45,149
11.7,-0.3,149
11.7,-0.15,149
11.7,0.0,135
11.7,0.15,127
11.7,0.3,99
11.7,0.45,99
11.7,0.6,99
11.7,0.75,91
11.7,0.9,90
11.7,1.05,75
11.7,1.2,74
11.7,1.35,74
11.7,1.5,74
11.85,-1.5,142
11.85,-1.35,127
11.85,-1.2,127
11.85,-1.05,127
11.85,-0.9,135
11.85,-0.75,142
11.85,-0.6,163
11.85,-0.45,163
11.85,-0.3,163
11.85,-0.15,135
11.85,0.0,99
11.85,0.15,98
11.85,0.3,98
11.85,0.45,98
11.85,0.6,98
11.85,0.75,133
11.85,0.9,89
11.85,1.05,81
11.85,1.2,80
11.85,1.35,80
11.85,1.5,79
12.0,-1.5,161
12.0,-1.35,163
12.0,-1.2,163
12.0,-1.05,170
12.0,-0.9,156
12.0,-0.75,142
12.0,-0.6,128
12.0,-0.45,128
12.0,-0.3,120
12.0,-0.15,155
12.0,0.0,106
12.0,0.15,126
12.0,0.3,126
12.0,0.45,126
12.0,0.6,126
12.0,0.75,124
12.0,0.9,123
12.0,1.05,122
12.0,1.2,121
12.0,1.35,79
12.0,1.5,79
12.15,-1.5,140
12.15,-1.35,141
12.15,-1.2,142
12.15,-1.05,157
12.15,-0.9,156
12.15,-0.75,156
12.15,-0.6,156
12.15,-0.45,114
12.15,-0.3,155
12.15,-0.15,114
12.15,0.0,106
12.15,0.15,91
12.15,0.3,91
12.15,0.45,126
12.15,0.6,126
12.15,0.75,123
12.15,0.9,122
12.15,1.05,121
12.15,1.2,121
12.15,1.35,120
12.15,1.5,119
12.3,-1.5,148
12.3,-1.35,148
12.3,-1.2,148
12.3,-1.05,150
12.3,-0.9,149
12.3,-0.75,149
12.3,-0.6,170
12.3,-0.45,142
12.3,-0.3,114
12.3,-0.15,99
12.3,0.0,92
12.3,0.15,92
12.3,0.3,99
12.3,0.45,91
12.3,0.6,91
12.3,0.75,89
12.3,0.9,88
12.3,1.05,121
12.3,1.2,120
12.3,1.35,119
12.3,1.5,118
12.45,-1.5,148
12.45,-1.35,148
12.45,-1.2,141
12.45,-1.05,150
12.45,-0.9,149
12.45,-0.75,149
12.45,-0.6,135
12.45,-0.45,135
12.45,-0.3,121
12.45,-0.15,114
12.45,0.0,99
12.45,0.15,99
12.45,0.3,99
12.45,0.45,99
12.45,0.6,98
12.45,0.75,89
12.45,0.9,88
12.45,1.05,87
12.45,1.2,80
12.45,1.35,79
12.45,1.5,112
12.6,-1.5,141
12.6,-1.35,148
12.6,-1.2,128
12.6,-1.05,128
12.6,-0.9,100
12.6,-0.75,142
12.6,-0.6,135
12.6,-0.45,135
12.6,-0.3,99
12.6,-0.15,120
12.6,0.0,92
12.6,0.15,85
12.6,0.3,85
12.6,0.45,85
12.6,0.6,83
12.6,0.75,82
12.6,0.9,82
12.6,1.05,80
12.6,1.2,80
12.6,1.35,79
12.6,1.5,79
12.75,-1.5,127
12.75,-1.35,127
12.75,-1.2,127
12.75,-1.05,92
12.75,-0.9,100
12.75,-0.75,100
12.75,-0.6,99
12.75,-0.45,135
12.75,-0.3,99
12.75,-0.15,99
12.75,0.0,71
12.75,0.15,85
12.75,0.3,85
12.75,0.45,84
12.75,0.6,76
12.75,0.75,75
12.75,0.9,81
12.75,1.05,81
12.75,1.2,80
12.75,1.35,79
12.75,1.5,79
12.9,-1.5,126
12.9,-1.35,92
12.9,-1.2,92
12.9,-1.05,92
12.9,-0.9,92
12.9,-0.75,100
12.9,-0.6,99
12.9,-0.45,135
12.9,-0.3,99
12.9,-0.15,99
12.9,0.0,71
12.9,0.15,70
12.9,0.3,84
12.9,0.45,71
12.9,0.6,75
12.9,0.75,75
12.9,0.9,74
12.9,1.05,74
12.9,1.2,74
12.9,1.35,79
12.9,1.5,79
13.05,-1.5,92
13.05,-1.35,92
13.05,-1.2,92
13.05,-1.05,92
13.05,-0.9,92
13.05,-0.75,99
13.05,-0.6,127
13.05,-0.45,135
13.05,-0.3,135
13.05,-0.15,99
13.05,0.0,99
13.05,0.15,70
13.05,0.3,70
13.05,0.45,55
13.05,0.6,55
13.05,0.75,54
13.05,0.9,74
13.05,1.05,74
13.05,1.2,74
13.05,1.35,74
13.05,1.5,74
