-3.0,-1.5,59
-3.0,-1.35,60
-3.0,-1.2,60
-3.0,-1.05,60
-3.0,-0.9,65
-3.0,-0.75,65
-3.0,-0.6,65
-3.0,-0.45,65
-3.0,-0.3,58
-3.0,-0.15,57
-3.0,0.0,57
-3.0,0.15,56
-3.0,0.3,83
-3.0,0.45,91
-3.0,0.6,90
-3.0,0.75,90
-3.0,0.9,89
-3.0,1.05,88
-3.0,1.2,88
-3.0,1.35,88
-3.0,1.5,88
-2.85,-1.5,59
-2.85,-1.35,59
-2.85,-1.2,59
-2.85,-1.05,59
-2.85,-0.9,65
-2.85,-0.75,65
-2.85,-0.6,65
-2.85,-0.45,65
-2.85,-0.3,65
-2.85,-0.15,57
-2.85,0.0,56
-2.85,0.15,56
-2.85,0.3,92
-2.85,0.45,91
-2.85,0.6,91
-2.85,0.75,90
-2.85,0.9,89
-2.85,1.05,89
-2.85,1.2,88
-2.85,1.35,88
-2.85,1.5,88
-2.7,-1.5,58
-2.7,-1.35,58
-2.7,-1.2,58
-2.7,-1.05,59
-2.7,-0.9,65
-2.7,-0.75,65
-2.7,-0.6,65
-2.7,-0.45,65
-2.7,-0.3,65
-2.7,-0.15,65
-2.7,0.0,56
-2.7,0.15,93
-2.7,0.3,92
-2.7,0.45,92
-2.7,0.6,91
-2.7,0.75,90
-2.7,0.9,90
-2.7,1.05,89
-2.7,1.2,89
-2.7,1.35,88
-2.7,1.5,88
-2.55,-1.5,57
-2.55,-1.35,57
-2.55,-1.2,58
-2.55,-1.05,58
-2.55,-0.9,65
-2.55,-0.75,65
-2.55,-0.6,65
-2.55,-0.45,65
-2.55,-0.3,64
-2.55,-0.15,64
-2.55,0.0,102
-2.55,0.15,93
-2.55,0.3,93
-2.55,0.45,92
-2.55,0.6,92
-2.55,0.75,91
-2.55,0.9,90
-2.55,1.05,90
-2.55,1.2,89
-2.55,1.35,70
-2.55,1.5,70
-2.4,-1.5,75
-2.4,-1.35,57
-2.4,-1.2,57
-2.4,-1.05,57
-2.4,-0.9,64
-2.4,-0.75,64
-2.4,-0.6,64
-2.4,-0.45,64
-2.4,-0.3,64
-2.4,-0.15,102
-2.4,0.0,102
-2.4,0.15,102
-2.4,0.3,93
-2.4,0.45,93
-2.4,0.6,92
-2.4,0.75,91
-2.4,0.9,91
-2.4,1.05,90
-2.4,1.2,71
-2.4,1.35,71
-2.4,1.5,71
-2.25,-1.5,75
-2.25,-1.35,75
-2.25,-1.2,75
-2.25,-1.05,56
-2.25,-0.9,57
-2.25,-0.75,64
-2.25,-0.6,63
-2.25,-0.45,63
-2.25,-0.3,102
-2.25,-0.15,102
-2.25,0.0,102
-2.25,0.15,102
-2.25,0.3,102
-2.25,0.45,93
-2.25,0.6,73
-2.25,0.75,73
-2.25,0.9,90
-2.25,1.05,72
-2.25,1.2,72
-2.25,1.35,72
-2.25,1.5,93
-2.1,-1.5,75
-2.1,-1.35,75
-2.1,-1.2,75
-2.1,-1.05,75
-2.1,-0.9,76
-2.1,-0.75,63
-2.1,-0.6,92
-2.1,-0.45,102
-2.1,-0.3,102
-2.1,-0.15,102
-2.1,0.0,102
-2.1,0.15,102
-2.1,0.3,102
-2.1,0.45,74
-2.1,0.6,74
-2.1,0.75,91
-2.1,0.9,91
-2.1,1.05,73
-2.1,1.2,73
-2.1,1.35,95
-2.1,1.5,95
-1.95,-1.5,75
-1.95,-1.35,75
-1.95,-1.2,75
-1.95,-1.05,76
-1.95,-0.9,75
-1.95,-0.75,85
-1.95,-0.6,91
-1.95,-0.45,91
-1.95,-0.3,102
-1.95,-0.15,102
-1.95,0.0,102
-1.95,0.15,100
-1.95,0.3,101
-1.95,0.45,102
-1.95,0.6,93
-1.95,0.75,93
-1.95,0.9,74
-1.95,1.05,97
-1.95,1.2,97
-1.95,1.35,97
-1.95,1.5,78
-1.8,-1.5,75
-1.8,-1.35,75
-1.8,-1.2,75
-1.8,-1.05,75
-1.8,-0.9,85
-1.8,-0.75,85
-1.8,-0.6,91
-1.8,-0.45,100
-1.8,-0.3,100
-1.8,-0.15,100
-1.8,0.0,100
-1.8,0.15,101
-1.8,0.3,102
-1.8,0.45,103
-1.8,0.6,104
-1.8,0.75,103
-1.8,0.9,99
-1.8,1.05,99
-1.8,1.2,99
-1.8,1.35,79
-1.8,1.5,96
-1.65,-1.5,75
-1.65,-1.35,75
-1.65,-1.2,75
-1.65,-1.05,84
-1.65,-0.9,84
-1.65,-0.75,84
-1.65,-0.6,92
-1.65,-0.45,100
-1.65,-0.3,101
-1.65,-0.15,120
-1.65,0.0,102
-1.65,0.15,103
-1.65,0.3,103
-1.65,0.45,104
-1.65,0.6,103
-1.65,0.75,104
-1.65,0.9,104
-1.65,1.05,101
-1.65,1.2,99
-1.65,1.35,98
-1.65,1.5,98
-1.5,-1.5,75
-1.5,-1.35,75
-1.5,-1.2,84
-1.5,-1.05,83
-1.5,-0.9,83
-1.5,-0.75,83
-1.5,-0.6,93
-1.5,-0.45,120
-1.5,-0.3,120
-1.5,-0.15,121
-1.5,0.0,122
-1.5,0.15,103
-1.5,0.3,104
-1.5,0.45,104
-1.5,0.6,104
-1.5,0.75,109
-1.5,0.9,109
-1.5,1.05,109
-1.5,1.2,110
-1.5,1.35,132
-1.5,1.5,131
-1.35,-1.5,105
-1.35,-1.35,116
-1.35,-1.2,116
-1.35,-1.05,116
-1.35,-0.9,83
-1.35,-0.75,83
-1.35,-0.6,83
-1.35,-0.45,121
-1.35,-0.3,121
-1.35,-0.15,122
-1.35,0.0,123
-1.35,0.15,103
-1.35,0.3,103
-1.35,0.45,103
-1.35,0.6,103
-1.35,0.75,136
-1.35,0.9,136
-1.35,1.05,137
-1.35,1.2,151
-1.35,1.35,151
-1.35,1.5,137
-1.2,-1.5,125
-1.2,-1.35,110
-1.2,-1.2,111
-1.2,-1.05,111
-1.2,-0.9,112
-1.2,-0.75,120
-1.2,-0.6,120
-1.2,-0.45,161
-1.2,-0.3,162
-1.2,-0.15,123
-1.2,0.0,123
-1.2,0.15,103
-1.2,0.3,103
-1.2,0.45,103
-1.2,0.6,136
-1.2,0.75,137
-1.2,0.9,150
-1.2,1.05,150
-1.2,1.2,150
-1.2,1.35,151
-1.2,1.5,150
-1.05,-1.5,125
-1.05,-1.35,125
-1.05,-1.2,125
-1.05,-1.05,112
-1.05,-0.9,113
-1.05,-0.75,114
-1.05,-0.6,114
-1.05,-0.45,141
-1.05,-0.3,141
-1.05,-0.15,142
-1.05,0.0,143
-1.05,0.15,123
-1.05,0.3,130
-1.05,0.45,156
-1.05,0.6,156
-1.05,0.75,156
-1.05,0.9,156
-1.05,1.05,156
-1.05,1.2,151
-1.05,1.35,151
-1.05,1.5,151
-0.9,-1.5,122
-0.9,-1.35,123
-0.9,-1.2,124
-0.9,-1.05,125
-0.9,-0.9,126
-0.9,-0.75,126
-0.9,-0.6,114
-0.9,-0.45,114
-0.9,-0.3,114
-0.9,-0.15,143
-0.9,0.0,123
-0.9,0.15,163
-0.9,0.3,163
-0.9,0.45,150
-0.9,0.6,151
-0.9,0.75,152
-0.9,0.9,153
-0.9,1.05,153
-0.9,1.2,156
-0.9,1.35,156
-0.9,1.5,156
-0.75,-1.5,105
-0.75,-1.35,105
-0.75,-1.2,125
-0.75,-1.05,126
-0.75,-0.9,127
-0.75,-0.75,128
-0.75,-0.6,128
-0.75,-0.45,114
-0.75,-0.3,114
-0.75,-0.15,149
-0.75,0.0,163
-0.75,0.15,163
-0.75,0.3,183
-0.75,0.45,151
-0.75,0.6,152
-0.75,0.75,153
-0.75,0.9,153
-0.75,1.05,154
-0.75,1.2,154
-0.75,1.35,155
-0.75,1.5,155
-0.6,-1.5,106
-0.6,-1.35,106
-0.6,-1.2,107
-0.6,-1.05,107
-0.6,-0.9,128
-0.6,-0.75,128
-0.6,-0.6,136
-0.6,-0.45,136
-0.6,-0.3,136
-0.6,-0.15,169
-0.6,0.0,149
-0.6,0.15,184
-0.6,0.3,184
-0.6,0.45,151
-0.6,0.6,151
-0.6,0.75,152
-0.6,0.9,153
-0.6,1.05,153
-0.6,1.2,153
-0.6,1.35,166
-0.6,1.5,147
-0.45,-1.5,126
-0.45,-1.35,127
-0.45,-1.2,107
-0.45,-1.05,107
-0.45,-0.9,134
-0.45,-0.75,134
-0.45,-0.6,137
-0.45,-0.45,137
-0.45,-0.3,169
-0.45,-0.15,169
-0.45,0.0,169
-0.45,0.15,169
-0.45,0.3,183
-0.45,0.45,184
-0.45,0.6,152
-0.45,0.75,152
-0.45,0.9,153
-0.45,1.05,173
-0.45,1.2,166
-0.45,1.35,166
-0.45,1.5,166
-0.3,-1.5,127
-0.3,-1.35,128
-0.3,-1.2,135
-0.3,-1.05,135
-0.3,-0.9,115
-0.3,-0.75,134
-0.3,-0.6,137
-0.3,-0.45,136
-0.3,-0.3,169
-0.3,-0.15,169
-0.3,0.0,169
-0.3,0.15,169
-0.3,0.3,149
-0.3,0.45,136
-0.3,0.6,137
-0.3,0.75,137
-0.3,0.9,164
-0.3,1.05,164
-0.3,1.2,165
-0.3,1.35,165
-0.3,1.5,165
-0.15,-1.5,127
-0.15,-1.35,134
-0.15,-1.2,135
-0.15,-1.05,136
-0.15,-0.9,136
-0.15,-0.75,138
-0.15,-0.6,136
-0.15,-0.45,136
-0.15,-0.3,116
-0.15,-0.15,169
-0.15,0.0,169
-0.15,0.15,169
-0.15,0.3,136
-0.15,0.45,150
-0.15,0.6,142
-0.15,0.75,162
-0.15,0.9,162
-0.15,1.05,162
-0.15,1.2,177
-0.15,1.35,177
-0.15,1.5,177
0.0,-1.5,158
0.0,-1.35,159
0.0,-1.2,168
0.0,-1.05,168
0.0,-0.9,178
0.0,-0.75,144
0.0,-0.6,117
0.0,-0.45,149
0.0,-0.3,149
0.0,-0.15,183
0.0,0.0,183
0.0,0.15,170
0.0,0.3,150
0.0,0.45,143
0.0,0.6,143
0.0,0.75,143
0.0,0.9,143
0.0,1.05,143
0.0,1.2,143
0.0,1.35,162
0.0,1.5,177
0.15,-1.5,190
0.15,-1.35,191
0.15,-1.2,172
0.15,-1.05,182
0.15,-0.9,149
0.15,-0.75,177
0.15,-0.6,190
0.15,-0.45,176
0.15,-0.3,156
0.15,-0.15,150
0.15,0.0,169
0.15,0.15,170
0.15,0.3,143
0.15,0.45,143
0.15,0.6,144
0.15,0.75,144
0.15,0.9,144
0.15,1.05,144
0.15,1.2,144
0.15,1.35,164
0.15,1.5,164
0.3,-1.5,150
0.3,-1.35,191
0.3,-1.2,203
0.3,-1.05,203
0.3,-0.9,203
0.3,-0.75,203
0.3,-0.6,209
0.3,-0.45,176
0.3,-0.3,176
0.3,-0.15,116
0.3,0.0,136
0.3,0.15,169
0.3,0.3,169
0.3,0.45,149
0.3,0.6,143
0.3,0.75,143
0.3,0.9,143
0.3,1.05,163
0.3,1.2,163
0.3,1.35,162
0.3,1.5,162
0.45,-1.5,151
0.45,-1.35,162
0.45,-1.2,157
0.45,-1.05,163
0.45,-0.9,170
0.45,-0.75,169
0.45,-0.6,202
0.45,-0.45,209
0.45,-0.3,196
0.45,-0.15,149
0.45,0.0,136
0.45,0.15,136
0.45,0.3,169
0.45,0.45,149
0.45,0.6,169
0.45,0.75,169
0.45,0.9,169
0.45,1.05,169
0.45,1.2,169
0.45,1.35,169
0.45,1.5,169
0.6,-1.5,161
0.6,-1.35,161
0.6,-1.2,161
0.6,-1.05,156
0.6,-0.9,156
0.6,-0.75,163
0.6,-0.6,163
0.6,-0.45,176
0.6,-0.3,210
0.6,-0.15,183
0.6,0.0,182
0.6,0.15,148
0.6,0.3,169
0.6,0.45,169
0.6,0.6,169
0.6,0.75,169
0.6,0.9,169
0.6,1.05,168
0.6,1.2,168
0.6,1.35,168
0.6,1.5,167
0.75,-1.5,156
0.75,-1.35,156
0.75,-1.2,156
0.75,-1.05,156
0.75,-0.9,156
0.75,-0.75,143
0.75,-0.6,143
0.75,-0.45,143
0.75,-0.3,184
0.75,-0.15,196
0.75,0.0,196
0.75,0.15,150
0.75,0.3,156
0.75,0.45,169
0.75,0.6,169
0.75,0.75,150
0.75,0.9,148
0.75,1.05,148
0.75,1.2,148
0.75,1.35,127
0.75,1.5,158
0.9,-1.5,156
0.9,-1.35,156
0.9,-1.2,156
0.9,-1.05,156
0.9,-0.9,156
0.9,-0.75,156
0.9,-0.6,156
0.9,-0.45,137
0.9,-0.3,163
0.9,-0.15,177
0.9,0.0,176
0.9,0.15,149
0.9,0.3,149
0.9,0.45,149
0.9,0.6,148
0.9,0.75,149
0.9,0.9,149
0.9,1.05,142
0.9,1.2,142
0.9,1.35,141
0.9,1.5,139
1.05,-1.5,156
1.05,-1.35,156
1.05,-1.2,156
1.05,-1.05,156
1.05,-0.9,156
1.05,-0.75,156
1.05,-0.6,156
1.05,-0.45,136
1.05,-0.3,163
1.05,-0.15,142
1.05,0.0,129
1.05,0.15,89
1.05,0.3,116
1.05,0.45,116
1.05,0.6,123
1.05,0.75,122
1.05,0.9,121
1.05,1.05,121
1.05,1.2,121
1.05,1.35,113
1.05,1.5,113
1.2,-1.5,135
1.2,-1.35,135
1.2,-1.2,155
1.2,-1.05,155
1.2,-0.9,129
1.2,-0.75,129
1.2,-0.6,129
1.2,-0.45,122
1.2,-0.3,156
1.2,-0.15,122
1.2,0.0,89
1.2,0.15,63
1.2,0.3,63
1.2,0.45,56
1.2,0.6,56
1.2,0.75,56
1.2,0.9,56
1.2,1.05,55
1.2,1.2,55
1.2,1.35,55
1.2,1.5,55
1.35,-1.5,135
1.35,-1.35,135
1.35,-1.2,129
1.35,-1.05,122
1.35,-0.9,122
1.35,-0.75,102
1.35,-0.6,122
1.35,-0.45,149
1.35,-0.3,109
1.35,-0.15,76
1.35,0.0,56
1.35,0.15,49
1.35,0.3,63
1.35,0.45,63
1.35,0.6,57
1.35,0.75,49
1.35,0.9,49
1.35,1.05,55
1.35,1.2,55
1.35,1.35,55
1.35,1.5,55
1.5,-1.5,128
1.5,-1.35,128
1.5,-1.2,128
1.5,-1.05,101
1.5,-0.9,101
1.5,-0.75,101
1.5,-0.6,68
1.5,-0.45,69
1.5,-0.3,48
1.5,-0.15,55
1.5,0.0,28
1.5,0.15,56
1.5,0.3,75
1.5,0.45,57
1.5,0.6,76
1.5,0.75,76
1.5,0.9,82
1.5,1.05,82
1.5,1.2,82
1.5,1.35,55
1.5,1.5,55
1.65,-1.5,122
1.65,-1.35,95
1.65,-1.2,68
1.65,-1.05,68
1.65,-0.9,68
1.65,-0.75,68
1.65,-0.6,35
1.65,-0.45,28
1.65,-0.3,55
1.65,-0.15,55
1.65,0.0,55
1.65,0.15,75
1.65,0.3,75
1.65,0.45,75
1.65,0.6,81
1.65,0.75,81
1.65,0.9,81
1.65,1.05,81
1.65,1.2,81
1.65,1.35,81
1.65,1.5,81
1.8,-1.5,101
1.8,-1.35,101
1.8,-1.2,68
1.8,-1.05,62
1.8,-0.9,62
1.8,-0.75,62
1.8,-0.6,42
1.8,-0.45,35
1.8,-0.3,55
1.8,-0.15,35
1.8,0.0,35
1.8,0.15,35
1.8,0.3,55
1.8,0.45,55
1.8,0.6,55
1.8,0.75,55
1.8,0.9,62
1.8,1.05,61
1.8,1.2,61
1.8,1.35,61
1.8,1.5,61
1.95,-1.5,108
1.95,-1.35,108
1.95,-1.2,68
1.95,-1.05,76
1.95,-0.9,69
1.95,-0.75,62
1.95,-0.6,55
1.95,-0.45,35
1.95,-0.3,35
1.95,-0.15,42
1.95,0.0,42
1.95,0.15,35
1.95,0.3,35
1.95,0.45,35
1.95,0.6,61
1.95,0.75,61
1.95,0.9,61
1.95,1.05,62
1.95,1.2,62
1.95,1.35,41
1.95,1.5,41
2.1,-1.5,133
2.1,-1.35,108
2.1,-1.2,108
2.1,-1.05,68
2.1,-0.9,49
2.1,-0.75,42
2.1,-0.6,42
2.1,-0.45,42
2.1,-0.3,42
2.1,-0.15,48
2.1,0.0,48
2.1,0.15,48
2.1,0.3,48
2.1,0.45,48
2.1,0.6,41
2.1,0.75,41
2.1,0.9,61
2.1,1.05,54
2.1,1.2,54
2.1,1.35,35
2.1,1.5,35
2.25,-1.5,135
2.25,-1.35,136
2.25,-1.2,136
2.25,-1.05,135
2.25,-0.9,129
2.25,-0.75,62
2.25,-0.6,42
2.25,-0.45,42
2.25,-0.3,42
2.25,-0.15,28
2.25,0.0,48
2.25,0.15,42
2.25,0.3,48
2.25,0.45,48
2.25,0.6,34
2.25,0.75,27
2.25,0.9,7
2.25,1.05,7
2.25,1.2,7
2.25,1.35,34
2.25,1.5,34
2.4,-1.5,137
2.4,-1.35,137
2.4,-1.2,137
2.4,-1.05,137
2.4,-0.9,136
2.4,-0.75,130
2.4,-0.6,62
2.4,-0.45,62
2.4,-0.3,28
2.4,-0.15,15
2.4,0.0,28
2.4,0.15,35
2.4,0.3,28
2.4,0.45,14
2.4,0.6,8
2.4,0.75,8
2.4,0.9,7
2.4,1.05,7
2.4,1.2,14
2.4,1.35,13
2.4,1.5,13
2.55,-1.5,157
2.55,-1.35,164
2.55,-1.2,163
2.55,-1.05,163
2.55,-0.9,150
2.55,-0.75,150
2.55,-0.6,109
2.55,-0.45,109
2.55,-0.3,62
2.55,-0.15,42
2.55,0.0,48
2.55,0.15,62
2.55,0.3,35
2.55,0.45,21
2.55,0.6,21
2.55,0.75,8
2.55,0.9,8
2.55,1.05,7
2.55,1.2,7
2.55,1.35,13
2.55,1.5,6
2.7,-1.5,169
2.7,-1.35,169
2.7,-1.2,163
2.7,-1.05,170
2.7,-0.9,170
2.7,-0.75,156
2.7,-0.6,156
2.7,-0.45,109
2.7,-0.3,82
2.7,-0.15,62
2.7,0.0,42
2.7,0.15,42
2.7,0.3,48
2.7,0.45,48
2.7,0.6,21
2.7,0.75,8
2.7,0.9,21
2.7,1.05,14
2.7,1.2,14
2.7,1.35,7
2.7,1.5,0
2.85,-1.5,190
2.85,-1.35,182
2.85,-1.2,182
2.85,-1.05,182
2.85,-0.9,182
2.85,-0.75,157
2.85,-0.6,156
2.85,-0.45,129
2.85,-0.3,69
2.85,-0.15,55
2.85,0.0,42
2.85,0.15,35
2.85,0.3,21
2.85,0.45,21
2.85,0.6,21
2.85,0.75,21
2.85,0.9,21
2.85,1.05,13
2.85,1.2,6
2.85,1.35,0
2.85,1.5,0
3.0,-1.5,157
3.0,-1.35,157
3.0,-1.2,157
3.0,-1.05,156
3.0,-0.9,156
3.0,-0.75,156
3.0,-0.6,136
3.0,-0.45,96
3.0,-0.3,62
3.0,-0.15,62
3.0,0.0,42
3.0,0.15,42
3.0,0.3,21
3.0,0.45,21
3.0,0.6,21
3.0,0.75,21
3.0,0.9,14
3.0,1.05,7
3.0,1.2,7
3.0,1.35,6
3.0,1.5,6
3.15,-1.5,178
3.15,-1.35,177
3.15,-1.2,170
3.15,-1.05,156
3.15,-0.9,156
3.15,-0.75,129
3.15,-0.6,129
3.15,-0.45,95
3.15,-0.3,95
3.15,-0.15,82
3.15,0.0,75
3.15,0.15,48
3.15,0.3,41
3.15,0.45,41
3.15,0.6,14
3.15,0.75,8
3.15,0.9,7
3.15,1.05,7
3.15,1.2,7
3.15,1.35,6
3.15,1.5,6
3.3,-1.5,177
3.3,-1.35,190
3.3,-1.2,190
3.3,-1.05,203
3.3,-0.9,203
3.3,-0.75,142
3.3,-0.6,142
3.3,-0.45,149
3.3,-0.3,122
3.3,-0.15,95
3.3,0.0,89
3.3,0.15,82
3.3,0.3,68
3.3,0.45,28
3.3,0.6,14
3.3,0.75,14
3.3,0.9,7
3.3,1.05,7
3.3,1.2,6
3.3,1.35,6
3.3,1.5,18
3.45,-1.5,209
3.45,-1.35,210
3.45,-1.2,190
3.45,-1.05,211
3.45,-0.9,203
3.45,-0.75,229
3.45,-0.6,189
3.45,-0.45,176
3.45,-0.3,163
3.45,-0.15,42
3.45,0.0,89
3.45,0.15,102
3.45,0.3,75
3.45,0.45,68
3.45,0.6,48
3.45,0.75,40
3.45,0.9,40
3.45,1.05,32
3.45,1.2,32
3.45,1.35,19
3.45,1.5,39
3.6,-1.5,236
3.6,-1.35,221
3.6,-1.2,216
3.6,-1.05,216
3.6,-0.9,250
3.6,-0.75,255
3.6,-0.6,255
3.6,-0.45,255
3.6,-0.3,116
3.6,-0.15,69
3.6,0.0,109
3.6,0.15,116
3.6,0.3,135
3.6,0.45,55
3.6,0.6,48
3.6,0.75,41
3.6,0.9,27
3.6,1.05,26
3.6,1.2,25
3.6,1.35,41
3.6,1.5,40
3.75,-1.5,216
3.75,-1.35,216
3.75,-1.2,216
3.75,-1.05,216
3.75,-0.9,243
3.75,-0.75,255
3.75,-0.6,255
3.75,-0.45,255
3.75,-0.3,190
3.75,-0.15,42
3.75,0.0,69
3.75,0.15,136
3.75,0.3,129
3.75,0.45,121
3.75,0.6,61
3.75,0.75,60
3.75,0.9,53
3.75,1.05,54
3.75,1.2,41
3.75,1.35,41
3.75,1.5,28
3.9,-1.5,254
3.9,-1.35,255
3.9,-1.2,255
3.9,-1.05,255
3.9,-0.9,255
3.9,-0.75,255
3.9,-0.6,255
3.9,-0.45,255
3.9,-0.3,149
3.9,-0.15,69
3.9,0.0,48
3.9,0.15,136
3.9,0.3,96
3.9,0.45,68
3.9,0.6,48
3.9,0.75,53
3.9,0.9,61
3.9,1.05,60
3.9,1.2,60
3.9,1.35,60
3.9,1.5,53
4.05,-1.5,223
4.05,-1.35,217
4.05,-1.2,190
4.05,-1.05,203
4.05,-0.9,203
4.05,-0.75,189
4.05,-0.6,223
4.05,-0.45,169
4.05,-0.3,142
4.05,-0.15,156
4.05,0.0,116
4.05,0.15,143
4.05,0.3,95
4.05,0.45,48
4.05,0.6,34
4.05,0.75,55
4.05,0.9,54
4.05,1.05,74
4.05,1.2,73
4.05,1.35,73
4.05,1.5,73
4.2,-1.5,216
4.2,-1.35,190
4.2,-1.2,190
4.2,-1.05,150
4.2,-0.9,122
4.2,-0.75,109
4.2,-0.6,116
4.2,-0.45,109
4.2,-0.3,143
4.2,-0.15,156
4.2,0.0,176
4.2,0.15,95
4.2,0.3,88
4.2,0.45,68
4.2,0.6,48
4.2,0.75,74
4.2,0.9,74
4.2,1.05,74
4.2,1.2,74
4.2,1.35,74
4.2,1.5,73
4.35,-1.5,170
4.35,-1.35,131
4.35,-1.2,76
4.35,-1.05,76
4.35,-0.9,62
4.35,-0.75,42
4.35,-0.6,75
4.35,-0.45,48
4.35,-0.3,95
4.35,-0.15,116
4.35,0.0,55
4.35,0.15,35
4.35,0.3,15
4.35,0.45,41
4.35,0.6,29
4.35,0.75,55
4.35,0.9,49
4.35,1.05,49
4.35,1.2,49
4.35,1.35,75
4.35,1.5,75
4.5,-1.5,83
4.5,-1.35,83
4.5,-1.2,83
4.5,-1.05,82
4.5,-0.9,109
4.5,-0.75,102
4.5,-0.6,109
4.5,-0.45,109
4.5,-0.3,156
4.5,-0.15,102
4.5,0.0,69
4.5,0.15,0
4.5,0.3,2
4.5,0.45,29
4.5,0.6,29
4.5,0.75,30
4.5,0.9,30
4.5,1.05,50
4.5,1.2,50
4.5,1.35,50
4.5,1.5,50
4.65,-1.5,82
4.65,-1.35,83
4.65,-1.2,82
4.65,-1.05,82
4.65,-0.9,83
4.65,-0.75,122
4.65,-0.6,116
4.65,-0.45,156
4.65,-0.3,102
4.65,-0.15,62
4.65,0.0,89
4.65,0.15,102
4.65,0.3,55
4.65,0.45,70
4.65,0.6,57
4.65,0.75,57
4.65,0.9,57
4.65,1.05,57
4.65,1.2,51
4.65,1.35,50
4.65,1.5,50
4.8,-1.5,83
4.8,-1.35,82
4.8,-1.2,82
4.8,-1.05,123
4.8,-0.9,123
4.8,-0.75,123
4.8,-0.6,183
4.8,-0.45,109
4.8,-0.3,28
4.8,-0.15,0
4.8,0.0,82
4.8,0.15,89
4.8,0.3,56
4.8,0.45,76
4.8,0.6,63
4.8,0.75,64
4.8,0.9,58
4.8,1.05,50
4.8,1.2,50
4.8,1.35,50
4.8,1.5,50
4.95,-1.5,81
4.95,-1.35,81
4.95,-1.2,82
4.95,-1.05,82
4.95,-0.9,95
4.95,-0.75,95
4.95,-0.6,109
4.95,-0.45,143
4.95,-0.3,75
4.95,-0.15,22
4.95,0.0,69
4.95,0.15,109
4.95,0.3,143
4.95,0.45,116
4.95,0.6,70
4.95,0.75,70
4.95,0.9,56
4.95,1.05,56
4.95,1.2,50
4.95,1.35,50
4.95,1.5,50
5.1,-1.5,61
5.1,-1.35,48
5.1,-1.2,48
5.1,-1.05,28
5.1,-0.9,69
5.1,-0.75,89
5.1,-0.6,95
5.1,-0.45,95
5.1,-0.3,55
5.1,-0.15,62
5.1,0.0,129
5.1,0.15,89
5.1,0.3,69
5.1,0.45,49
5.1,0.6,70
5.1,0.75,64
5.1,0.9,63
5.1,1.05,56
5.1,1.2,56
5.1,1.35,70
5.1,1.5,69
5.25,-1.5,61
5.25,-1.35,34
5.25,-1.2,67
5.25,-1.05,68
5.25,-0.9,62
5.25,-0.75,68
5.25,-0.6,129
5.25,-0.45,156
5.25,-0.3,102
5.25,-0.15,0
5.25,0.0,48
5.25,0.15,62
5.25,0.3,22
5.25,0.45,22
5.25,0.6,22
5.25,0.75,70
5.25,0.9,71
5.25,1.05,76
5.25,1.2,76
5.25,1.35,76
5.25,1.5,70
5.4,-1.5,67
5.4,-1.35,93
5.4,-1.2,94
5.4,-1.05,94
5.4,-0.9,115
5.4,-0.75,109
5.4,-0.6,82
5.4,-0.45,149
5.4,-0.3,35
5.4,-0.15,8
5.4,0.0,55
5.4,0.15,28
5.4,0.3,0
5.4,0.45,22
5.4,0.6,22
5.4,0.75,35
5.4,0.9,35
5.4,1.05,76
5.4,1.2,76
5.4,1.35,76
5.4,1.5,76
5.55,-1.5,73
5.55,-1.35,74
5.55,-1.2,74
5.55,-1.05,114
5.55,-0.9,115
5.55,-0.75,122
5.55,-0.6,109
5.55,-0.45,55
5.55,-0.3,22
5.55,-0.15,35
5.55,0.0,42
5.55,0.15,22
5.55,0.3,0
5.55,0.45,15
5.55,0.6,42
5.55,0.75,35
5.55,0.9,35
5.55,1.05,35
5.55,1.2,57
5.55,1.35,57
5.55,1.5,83
5.7,-1.5,68
5.7,-1.35,68
5.7,-1.2,68
5.7,-1.05,61
5.7,-0.9,89
5.7,-0.75,69
5.7,-0.6,69
5.7,-0.45,62
5.7,-0.3,102
5.7,-0.15,55
5.7,0.0,22
5.7,0.15,0
5.7,0.3,0
5.7,0.45,42
5.7,0.6,35
5.7,0.75,35
5.7,0.9,55
5.7,1.05,55
5.7,1.2,48
5.7,1.35,76
5.7,1.5,76
5.85,-1.5,81
5.85,-1.35,81
5.85,-1.2,81
5.85,-1.05,81
5.85,-0.9,95
5.85,-0.75,95
5.85,-0.6,95
5.85,-0.45,82
5.85,-0.3,62
5.85,-0.15,69
5.85,0.0,55
5.85,0.15,28
5.85,0.3,62
5.85,0.45,62
5.85,0.6,54
5.85,0.75,54
5.85,0.9,73
5.85,1.05,48
5.85,1.2,48
5.85,1.35,74
5.85,1.5,74
6.0,-1.5,54
6.0,-1.35,54
6.0,-1.2,54
6.0,-1.05,95
6.0,-0.9,102
6.0,-0.75,149
6.0,-0.6,149
6.0,-0.45,109
6.0,-0.3,0
6.0,-0.15,35
6.0,0.0,109
6.0,0.15,116
6.0,0.3,89
6.0,0.45,89
6.0,0.6,75
6.0,0.75,81
6.0,0.9,61
6.0,1.05,61
6.0,1.2,61
6.0,1.35,60
6.0,1.5,48
6.15,-1.5,67
6.15,-1.35,67
6.15,-1.2,48
6.15,-1.05,82
6.15,-0.9,102
6.15,-0.75,82
6.15,-0.6,62
6.15,-0.45,55
6.15,-0.3,8
6.15,-0.15,69
6.15,0.0,129
6.15,0.15,203
6.15,0.3,96
6.15,0.45,96
6.15,0.6,96
6.15,0.75,88
6.15,0.9,61
6.15,1.05,61
6.15,1.2,61
6.15,1.35,61
6.15,1.5,60
6.3,-1.5,47
6.3,-1.35,67
6.3,-1.2,68
6.3,-1.05,75
6.3,-0.9,89
6.3,-0.75,75
6.3,-0.6,89
6.3,-0.45,62
6.3,-0.3,62
6.3,-0.15,42
6.3,0.0,75
6.3,0.15,116
6.3,0.3,136
6.3,0.45,116
6.3,0.6,109
6.3,0.75,101
6.3,0.9,101
6.3,1.05,100
6.3,1.2,114
6.3,1.35,88
6.3,1.5,88
6.45,-1.5,60
6.45,-1.35,62
6.45,-1.2,48
6.45,-1.05,75
6.45,-0.9,48
6.45,-0.75,48
6.45,-0.6,95
6.45,-0.45,102
6.45,-0.3,22
6.45,-0.15,48
6.45,0.0,116
6.45,0.15,136
6.45,0.3,89
6.45,0.45,109
6.45,0.6,129
6.45,0.75,109
6.45,0.9,128
6.45,1.05,115
6.45,1.2,95
6.45,1.35,95
6.45,1.5,95
6.6,-1.5,87
6.6,-1.35,88
6.6,-1.2,88
6.6,-1.05,88
6.6,-0.9,88
6.6,-0.75,129
6.6,-0.6,169
6.6,-0.45,156
6.6,-0.3,55
6.6,-0.15,8
6.6,0.0,69
6.6,0.15,102
6.6,0.3,75
6.6,0.45,75
6.6,0.6,103
6.6,0.75,110
6.6,0.9,110
6.6,1.05,82
6.6,1.2,82
6.6,1.35,108
6.6,1.5,108
6.75,-1.5,128
6.75,-1.35,128
6.75,-1.2,88
6.75,-1.05,88
6.75,-0.9,88
6.75,-0.75,88
6.75,-0.6,142
6.75,-0.45,109
6.75,-0.3,35
6.75,-0.15,35
6.75,0.0,28
6.75,0.15,28
6.75,0.3,55
6.75,0.45,96
6.75,0.6,83
6.75,0.75,83
6.75,0.9,83
6.75,1.05,91
6.75,1.2,69
6.75,1.35,84
6.75,1.5,84
6.9,-1.5,95
6.9,-1.35,95
6.9,-1.2,95
6.9,-1.05,95
6.9,-0.9,95
6.9,-0.75,55
6.9,-0.6,62
6.9,-0.45,42
6.9,-0.3,48
6.9,-0.15,0
6.9,0.0,28
6.9,0.15,42
6.9,0.3,49
6.9,0.45,22
6.9,0.6,43
6.9,0.75,43
6.9,0.9,44
6.9,1.05,71
6.9,1.2,71
6.9,1.35,69
6.9,1.5,84
7.05,-1.5,35
7.05,-1.35,35
7.05,-1.2,68
7.05,-1.05,68
7.05,-0.9,35
7.05,-0.75,35
7.05,-0.6,69
7.05,-0.45,28
7.05,-0.3,42
7.05,-0.15,15
7.05,0.0,22
7.05,0.15,55
7.05,0.3,49
7.05,0.45,49
7.05,0.6,50
7.05,0.75,50
7.05,0.9,50
7.05,1.05,50
7.05,1.2,51
7.05,1.35,51
7.05,1.5,58
7.2,-1.5,35
7.2,-1.35,35
7.2,-1.2,35
7.2,-1.05,35
7.2,-0.9,42
7.2,-0.75,35
7.2,-0.6,95
7.2,-0.45,82
7.2,-0.3,22
7.2,-0.15,55
7.2,0.0,48
7.2,0.15,48
7.2,0.3,75
7.2,0.45,49
7.2,0.6,50
7.2,0.75,50
7.2,0.9,50
7.2,1.05,51
7.2,1.2,51
7.2,1.35,51
7.2,1.5,52
7.35,-1.5,22
7.35,-1.35,35
7.35,-1.2,62
7.35,-1.05,55
7.35,-0.9,35
7.35,-0.75,35
7.35,-0.6,69
7.35,-0.45,55
7.35,-0.3,48
7.35,-0.15,109
7.35,0.0,95
7.35,0.15,75
7.35,0.3,75
7.35,0.45,56
7.35,0.6,50
7.35,0.75,56
7.35,0.9,50
7.35,1.05,57
7.35,1.2,57
7.35,1.35,57
7.35,1.5,58
7.5,-1.5,42
7.5,-1.35,42
7.5,-1.2,69
7.5,-1.05,75
7.5,-0.9,55
7.5,-0.75,55
7.5,-0.6,22
7.5,-0.45,8
7.5,-0.3,22
7.5,-0.15,102
7.5,0.0,89
7.5,0.15,82
7.5,0.3,75
7.5,0.45,49
7.5,0.6,49
7.5,0.75,56
7.5,0.9,57
7.5,1.05,57
7.5,1.2,57
7.5,1.35,84
7.5,1.5,84
7.65,-1.5,68
7.65,-1.35,68
7.65,-1.2,69
7.65,-1.05,28
7.65,-0.9,28
7.65,-0.75,28
7.65,-0.6,8
7.65,-0.45,55
7.65,-0.3,0
7.65,-0.15,1
7.65,0.0,75
7.65,0.15,28
7.65,0.3,35
7.65,0.45,35
7.65,0.6,83
7.65,0.75,83
7.65,0.9,90
7.65,1.05,90
7.65,1.2,91
7.65,1.35,91
7.65,1.5,97
7.8,-1.5,61
7.8,-1.35,35
7.8,-1.2,55
7.8,-1.05,55
7.8,-0.9,55
7.8,-0.75,28
7.8,-0.6,8
7.8,-0.45,28
7.8,-0.3,55
7.8,-0.15,55
7.8,0.0,75
7.8,0.15,68
7.8,0.3,55
7.8,0.45,55
7.8,0.6,75
7.8,0.75,83
7.8,0.9,83
7.8,1.05,84
7.8,1.2,84
7.8,1.35,84
7.8,1.5,85
7.95,-1.5,35
7.95,-1.35,35
7.95,-1.2,35
7.95,-1.05,35
7.95,-0.9,62
7.95,-0.75,62
7.95,-0.6,102
7.95,-0.45,15
7.95,-0.3,35
7.95,-0.15,109
7.95,0.0,69
7.95,0.15,75
7.95,0.3,48
7.95,0.45,55
7.95,0.6,55
7.95,0.75,55
7.95,0.9,29
7.95,1.05,83
7.95,1.2,84
7.95,1.35,84
7.95,1.5,84
8.1,-1.5,74
8.1,-1.35,101
8.1,-1.2,101
8.1,-1.05,101
8.1,-0.9,102
8.1,-0.75,102
8.1,-0.6,129
8.1,-0.45,89
8.1,-0.3,55
8.1,-0.15,0
8.1,0.0,69
8.1,0.15,75
8.1,0.3,48
8.1,0.45,49
8.1,0.6,49
8.1,0.75,29
8.1,0.9,29
8.1,1.05,29
8.1,1.2,36
8.1,1.35,36
8.1,1.5,84
8.25,-1.5,82
8.25,-1.35,82
8.25,-1.2,115
8.25,-1.05,115
8.25,-0.9,95
8.25,-0.75,142
8.25,-0.6,142
8.25,-0.45,69
8.25,-0.3,102
8.25,-0.15,102
8.25,0.0,15
8.25,0.15,49
8.25,0.3,48
8.25,0.45,48
8.25,0.6,49
8.25,0.75,49
8.25,0.9,77
8.25,1.05,50
8.25,1.2,50
8.25,1.35,57
8.25,1.5,57
8.4,-1.5,55
8.4,-1.35,55
8.4,-1.2,55
8.4,-1.05,95
8.4,-0.9,122
8.4,-0.75,116
8.4,-0.6,89
8.4,-0.45,75
8.4,-0.3,28
8.4,-0.15,42
8.4,0.0,22
8.4,0.15,55
8.4,0.3,55
8.4,0.45,35
8.4,0.6,56
8.4,0.75,50
8.4,0.9,57
8.4,1.05,57
8.4,1.2,57
8.4,1.35,57
8.4,1.5,57
8.55,-1.5,42
8.55,-1.35,42
8.55,-1.2,42
8.55,-1.05,42
8.55,-0.9,68
8.55,-0.75,75
8.55,-0.6,116
8.55,-0.45,82
8.55,-0.3,82
8.55,-0.15,62
8.55,0.0,1
8.55,0.15,35
8.55,0.3,35
8.55,0.45,56
8.55,0.6,56
8.55,0.75,57
8.55,0.9,57
8.55,1.05,58
8.55,1.2,57
8.55,1.35,57
8.55,1.5,57
8.7,-1.5,42
8.7,-1.35,42
8.7,-1.2,42
8.7,-1.05,48
8.7,-0.9,68
8.7,-0.75,68
8.7,-0.6,95
8.7,-0.45,95
8.7,-0.3,82
8.7,-0.15,55
8.7,0.0,28
8.7,0.15,8
8.7,0.3,42
8.7,0.45,42
8.7,0.6,43
8.7,0.75,43
8.7,0.9,43
8.7,1.05,64
8.7,1.2,84
8.7,1.35,84
8.7,1.5,91
8.85,-1.5,62
8.85,-1.35,42
8.85,-1.2,42
8.85,-1.05,42
8.85,-0.9,42
8.85,-0.75,42
8.85,-0.6,22
8.85,-0.45,35
8.85,-0.3,42
8.85,-0.15,48
8.85,0.0,42
8.85,0.15,42
8.85,0.3,42
8.85,0.45,42
8.85,0.6,50
8.85,0.75,70
8.85,0.9,77
8.85,1.05,77
8.85,1.2,77
8.85,1.35,77
8.85,1.5,119
9.0,-1.5,95
9.0,-1.35,95
9.0,-1.2,95
9.0,-1.05,95
9.0,-0.9,69
9.0,-0.75,88
9.0,-0.6,42
9.0,-0.45,102
9.0,-0.3,82
9.0,-0.15,48
9.0,0.0,8
9.0,0.15,35
9.0,0.3,62
9.0,0.45,62
9.0,0.6,69
9.0,0.75,69
9.0,0.9,70
9.0,1.05,70
9.0,1.2,119
9.0,1.35,120
9.0,1.5,120
9.15,-1.5,95
9.15,-1.35,95
9.15,-1.2,76
9.15,-1.05,75
9.15,-0.9,75
9.15,-0.75,96
9.15,-0.6,95
9.15,-0.45,169
9.15,-0.3,136
9.15,-0.15,42
9.15,0.0,8
9.15,0.15,42
9.15,0.3,69
9.15,0.45,69
9.15,0.6,69
9.15,0.75,70
9.15,0.9,105
9.15,1.05,106
9.15,1.2,106
9.15,1.35,107
9.15,1.5,108
9.3,-1.5,95
9.3,-1.35,95
9.3,-1.2,62
9.3,-1.05,69
9.3,-0.9,76
9.3,-0.75,102
9.3,-0.6,96
9.3,-0.45,48
9.3,-0.3,48
9.3,-0.15,48
9.3,0.0,35
9.3,0.15,42
9.3,0.3,62
9.3,0.45,69
9.3,0.6,69
9.3,0.75,105
9.3,0.9,106
9.3,1.05,106
9.3,1.2,107
9.3,1.35,114
9.3,1.5,108
9.45,-1.5,95
9.45,-1.35,94
9.45,-1.2,94
9.45,-1.05,102
9.45,-0.9,129
9.45,-0.75,129
9.45,-0.6,136
9.45,-0.45,35
9.45,-0.3,22
9.45,-0.15,35
9.45,0.0,62
9.45,0.15,62
9.45,0.3,49
9.45,0.45,76
9.45,0.6,117
9.45,0.75,118
9.45,0.9,119
9.45,1.05,119
9.45,1.2,120
9.45,1.35,120
9.45,1.5,121
9.6,-1.5,87
9.6,-1.35,95
9.6,-1.2,95
9.6,-1.05,115
9.6,-0.9,88
9.6,-0.75,89
9.6,-0.6,69
9.6,-0.45,62
9.6,-0.3,69
9.6,-0.15,55
9.6,0.0,89
9.6,0.15,96
9.6,0.3,96
9.6,0.45,97
9.6,0.6,97
9.6,0.75,118
9.6,0.9,119
9.6,1.05,119
9.6,1.2,120
9.6,1.35,121
9.6,1.5,121
9.75,-1.5,55
9.75,-1.35,55
9.75,-1.2,55
9.75,-1.05,55
9.75,-0.9,41
9.75,-0.75,62
9.75,-0.6,35
9.75,-0.45,69
9.75,-0.3,62
9.75,-0.15,123
9.75,0.0,102
9.75,0.15,102
9.75,0.3,163
9.75,0.45,144
9.75,0.6,144
9.75,0.75,144
9.75,0.9,139
9.75,1.05,139
9.75,1.2,139
9.75,1.35,113
9.75,1.5,114
9.9,-1.5,8
9.9,-1.35,8
9.9,-1.2,8
9.9,-1.05,0
9.9,-0.9,8
9.9,-0.75,15
9.9,-0.6,21
9.9,-0.45,82
9.9,-0.3,136
9.9,-0.15,116
9.9,0.0,116
9.9,0.15,109
9.9,0.3,136
9.9,0.45,156
9.9,0.6,130
9.9,0.75,130
9.9,0.9,111
9.9,1.05,111
9.9,1.2,112
9.9,1.35,132
9.9,1.5,132
10.05,-1.5,35
10.05,-1.35,8
10.05,-1.2,8
10.05,-1.05,8
10.05,-0.9,15
10.05,-0.75,0
10.05,-0.6,8
10.05,-0.45,82
10.05,-0.3,163
10.05,-0.15,136
10.05,0.0,142
10.05,0.15,95
10.05,0.3,129
10.05,0.45,130
10.05,0.6,129
10.05,0.75,130
10.05,0.9,130
10.05,1.05,130
10.05,1.2,131
10.05,1.35,112
10.05,1.5,132
10.2,-1.5,96
10.2,-1.35,69
10.2,-1.2,55
10.2,-1.05,55
10.2,-0.9,28
10.2,-0.75,68
10.2,-0.6,69
10.2,-0.45,89
10.2,-0.3,123
10.2,-0.15,169
10.2,0.0,95
10.2,0.15,95
10.2,0.3,129
10.2,0.45,129
10.2,0.6,130
10.2,0.75,123
10.2,0.9,104
10.2,1.05,104
10.2,1.2,130
10.2,1.35,119
10.2,1.5,119
10.35,-1.5,103
10.35,-1.35,103
10.35,-1.2,103
10.35,-1.05,96
10.35,-0.9,62
10.35,-0.75,62
10.35,-0.6,48
10.35,-0.45,75
10.35,-0.3,122
10.35,-0.15,149
10.35,0.0,115
10.35,0.15,115
10.35,0.3,128
10.35,0.45,128
10.35,0.6,129
10.35,0.75,117
10.35,0.9,118
10.35,1.05,111
10.35,1.2,114
10.35,1.35,115
10.35,1.5,119
10.5,-1.5,104
10.5,-1.35,111
10.5,-1.2,110
10.5,-1.05,110
10.5,-0.9,150
10.5,-0.75,109
10.5,-0.6,149
10.5,-0.45,163
10.5,-0.3,102
10.5,-0.15,102
10.5,0.0,121
10.5,0.15,121
10.5,0.3,88
10.5,0.45,109
10.5,0.6,90
10.5,0.75,90
10.5,0.9,113
10.5,1.05,114
10.5,1.2,114
10.5,1.35,115
10.5,1.5,116
10.65,-1.5,151
10.65,-1.35,151
10.65,-1.2,151
10.65,-1.05,151
10.65,-0.9,183
10.65,-0.75,163
10.65,-0.6,163
10.65,-0.45,122
10.65,-0.3,102
10.65,-0.15,102
10.65,0.0,68
10.65,0.15,101
10.65,0.3,68
10.65,0.45,102
10.65,0.6,118
10.65,0.75,112
10.65,0.9,106
10.65,1.05,113
10.65,1.2,114
10.65,1.35,115
10.65,1.5,116
10.8,-1.5,171
10.8,-1.35,178
10.8,-1.2,178
10.8,-1.05,178
10.8,-0.9,190
10.8,-0.75,190
10.8,-0.6,190
10.8,-0.45,169
10.8,-0.3,163
10.8,-0.15,122
10.8,0.0,68
10.8,0.15,68
10.8,0.3,115
10.8,0.45,76
10.8,0.6,76
10.8,0.75,118
10.8,0.9,119
10.8,1.05,120
10.8,1.2,101
10.8,1.35,102
10.8,1.5,102
10.95,-1.5,178
10.95,-1.35,158
10.95,-1.2,158
10.95,-1.05,157
10.95,-0.9,157
10.95,-0.75,156
10.95,-0.6,170
10.95,-0.45,149
10.95,-0.3,102
10.95,-0.15,61
10.95,0.0,69
10.95,0.15,88
10.95,0.3,88
10.95,0.45,56
10.95,0.6,76
10.95,0.75,77
10.95,0.9,93
10.95,1.05,120
10.95,1.2,101
10.95,1.35,102
10.95,1.5,141
11.1,-1.5,157
11.1,-1.35,157
11.1,-1.2,157
11.1,-1.05,150
11.1,-0.9,130
11.1,-0.75,163
11.1,-0.6,142
11.1,-0.45,62
11.1,-0.3,82
11.1,-0.15,109
11.1,0.0,95
11.1,0.15,128
11.1,0.3,88
11.1,0.45,89
11.1,0.6,128
11.1,0.75,128
11.1,0.9,128
11.1,1.05,129
11.1,1.2,172
11.1,1.35,173
11.1,1.5,173
11.25,-1.5,157
11.25,-1.35,156
11.25,-1.2,150
11.25,-1.05,189
11.25,-0.9,183
11.25,-0.75,156
11.25,-0.6,82
11.25,-0.45,82
11.25,-0.3,109
11.25,-0.15,82
11.25,0.0,129
11.25,0.15,189
11.25,0.3,156
11.25,0.45,148
11.25,0.6,149
11.25,0.75,130
11.25,0.9,131
11.25,1.05,131
11.25,1.2,131
11.25,1.35,131
11.25,1.5,168
11.4,-1.5,129
11.4,-1.35,116
11.4,-1.2,149
11.4,-1.05,122
11.4,-0.9,122
11.4,-0.75,115
11.4,-0.6,81
11.4,-0.45,142
11.4,-0.3,142
11.4,-0.15,82
11.4,0.0,156
11.4,0.15,156
11.4,0.3,157
11.4,0.45,157
11.4,0.6,150
11.4,0.75,150
11.4,0.9,150
11.4,1.05,126
11.4,1.2,126
11.4,1.35,119
11.4,1.5,118
11.55,-1.5,124
11.55,-1.35,124
11.55,-1.2,83
11.55,-1.05,83
11.55,-0.9,82
11.55,-0.75,42
11.55,-0.6,81
11.55,-0.45,108
11.55,-0.3,122
11.55,-0.15,116
11.55,0.0,143
11.55,0.15,150
11.55,0.3,151
11.55,0.45,158
11.55,0.6,157
11.55,0.75,157
11.55,0.9,158
11.55,1.05,132
11.55,1.2,126
11.55,1.35,125
11.55,1.5,125
11.7,-1.5,97
11.7,-1.35,96
11.7,-1.2,96
11.7,-1.05,95
11.7,-0.9,55
11.7,-0.75,80
11.7,-0.6,80
11.7,-0.45,81
11.7,-0.3,115
11.7,-0.15,116
11.7,0.0,137
11.7,0.15,151
11.7,0.3,151
11.7,0.45,157
11.7,0.6,158
11.7,0.75,158
11.7,0.9,158
11.7,1.05,128
11.7,1.2,127
11.7,1.35,163
11.7,1.5,125
11.85,-1.5,69
11.85,-1.35,28
11.85,-1.2,55
11.85,-1.05,55
11.85,-0.9,66
11.85,-0.75,67
11.85,-0.6,67
11.85,-0.45,113
11.85,-0.3,115
11.85,-0.15,115
11.85,0.0,156
11.85,0.15,184
11.85,0.3,198
11.85,0.45,173
11.85,0.6,173
11.85,0.75,173
11.85,0.9,173
11.85,1.05,165
11.85,1.2,164
11.85,1.35,163
11.85,1.5,162
12.0,-1.5,33
12.0,-1.35,34
12.0,-1.2,28
12.0,-1.05,67
12.0,-0.9,67
12.0,-0.75,100
12.0,-0.6,101
12.0,-0.45,141
12.0,-0.3,135
12.0,-0.15,156
12.0,0.0,156
12.0,0.15,184
12.0,0.3,184
12.0,0.45,172
12.0,0.6,172
12.0,0.75,172
12.0,0.9,166
12.0,1.05,165
12.0,1.2,164
12.0,1.35,163
12.0,1.5,162
12.15,-1.5,63
12.15,-1.35,64
12.15,-1.2,65
12.15,-1.05,65
12.15,-0.9,67
12.15,-0.75,106
12.15,-0.6,107
12.15,-0.45,121
12.15,-0.3,149
12.15,-0.15,130
12.15,0.0,117
12.15,0.15,137
12.15,0.3,163
12.15,0.45,164
12.15,0.6,165
12.15,0.75,165
12.15,0.9,164
12.15,1.05,164
12.15,1.2,163
12.15,1.35,162
12.15,1.5,160
12.3,-1.5,63
12.3,-1.35,64
12.3,-1.2,65
12.3,-1.05,39
12.3,-0.9,40
12.3,-0.75,68
12.3,-0.6,80
12.3,-0.45,120
12.3,-0.3,122
12.3,-0.15,123
12.3,0.0,117
12.3,0.15,110
12.3,0.3,137
12.3,0.45,163
12.3,0.6,163
12.3,0.75,158
12.3,0.9,158
12.3,1.05,162
12.3,1.2,161
12.3,1.35,160
12.3,1.5,160
12.45,-1.5,38
12.45,-1.35,39
12.45,-1.2,39
12.45,-1.05,40
12.45,-0.9,40
12.45,-0.75,41
12.45,-0.6,80
12.45,-0.45,119
12.45,-0.3,121
12.45,-0.15,122
12.45,0.0,123
12.45,0.15,117
12.45,0.3,110
12.45,0.45,137
12.45,0.6,157
12.45,0.75,156
12.45,0.9,156
12.45,1.05,155
12.45,1.2,155
12.45,1.35,154
12.45,1.5,158
12.6,-1.5,38
12.6,-1.35,39
12.6,-1.2,39
12.6,-1.05,40
12.6,-0.9,41
12.6,-0.75,41
12.6,-0.6,79
12.6,-0.45,118
12.6,-0.3,120
12.6,-0.15,121
12.6,0.0,122
12.6,0.15,122
12.6,0.3,123
12.6,0.45,106
12.6,0.6,131
12.6,0.75,131
12.6,0.9,154
12.6,1.05,153
12.6,1.2,153
12.6,1.35,152
12.6,1.5,152
12.75,-1.5,39
12.75,-1.35,39
12.75,-1.2,40
12.75,-1.05,40
12.75,-0.9,41
12.75,-0.75,42
12.75,-0.6,79
12.75,-0.45,80
12.75,-0.3,118
12.75,-0.15,120
12.75,0.0,121
12.75,0.15,90
12.75,0.3,122
12.75,0.45,118
12.75,0.6,130
12.75,0.75,129
12.75,0.9,129
12.75,1.05,151
12.75,1.2,151
12.75,1.35,150
12.75,1.5,150
12.9,-1.5,39
12.9,-1.35,40
12.9,-1.2,40
12.9,-1.05,41
12.9,-0.9,41
12.9,-0.75,77
12.9,-0.6,78
12.9,-0.45,79
12.9,-0.3,81
12.9,-0.15,119
12.9,0.0,120
12.9,0.15,90
12.9,0.3,80
12.9,0.45,116
12.9,0.6,116
12.9,0.75,128
12.9,0.9,127
12.9,1.05,127
12.9,1.2,149
12.9,1.35,148
12.9,1.5,148
13.05,-1.5,39
13.05,-1.35,40
13.05,-1.2,40
13.05,-1.05,41
13.05,-0.9,42
13.05,-0.75,76
13.05,-0.6,77
13.05,-0.45,79
13.05,-0.3,80
13.05,-0.15,81
13.05,0.0,89
13.05,0.15,80
13.05,0.3,86
13.05,0.45,115
13.05,0.6,115
13.05,0.75,115
13.05,0.9,127
13.05,1.05,127
13.05,1.2,127
13.05,1.35,127
13.05,1.5,146
