-3.0,-1.5,90
-3.0,-1.35,91
-3.0,-1.2,91
-3.0,-1.05,92
-3.0,-0.9,93
-3.0,-0.75,94
-3.0,-0.6,94
-3.0,-0.45,95
-3.0,-0.3,96
-3.0,-0.15,97
-3.0,0.0,98
-3.0,0.15,98
-3.0,0.3,99
-3.0,0.45,117
-3.0,0.6,118
-3.0,0.75,118
-3.0,0.9,119
-3.0,1.05,119
-3.0,1.2,120
-3.0,1.35,120
-3.0,1.5,120
-2.85,-1.5,91
-2.85,-1.35,92
-2.85,-1.2,93
-2.85,-1.05,93
-2.85,-0.9,94
-2.85,-0.75,95
-2.85,-0.6,96
-2.85,-0.45,97
-2.85,-0.3,98
-2.85,-0.15,99
-2.85,0.0,100
-2.85,0.15,101
-2.85,0.3,101
-2.85,0.45,120
-2.85,0.6,120
-2.85,0.75,121
-2.85,0.9,121
-2.85,1.05,122
-2.85,1.2,122
-2.85,1.35,121
-2.85,1.5,121
-2.7,-1.5,92
-2.7,-1.35,93
-2.7,-1.2,94
-2.7,-1.05,95
-2.7,-0.9,96
-2.7,-0.75,97
-2.7,-0.6,98
-2.7,-0.45,99
-2.7,-0.3,100
-2.7,-0.15,101
-2.7,0.0,102
-2.7,0.15,103
-2.7,0.3,104
-2.7,0.45,122
-2.7,0.6,123
-2.7,0.75,124
-2.7,0.9,124
-2.7,1.05,125
-2.7,1.2,125
-2.7,1.35,138
-2.7,1.5,138
-2.55,-1.5,107
-2.55,-1.35,109
-2.55,-1.2,96
-2.55,-1.05,97
-2.55,-0.9,98
-2.55,-0.75,99
-2.55,-0.6,100
-2.55,-0.45,101
-2.55,-0.3,103
-2.55,-0.15,104
-2.55,0.0,105
-2.55,0.15,106
-2.55,0.3,107
-2.55,0.45,125
-2.55,0.6,126
-2.55,0.75,127
-2.55,0.9,127
-2.55,1.05,128
-2.55,1.2,141
-2.55,1.35,140
-2.55,1.5,140
-2.4,-1.5,108
-2.4,-1.35,109
-2.4,-1.2,111
-2.4,-1.05,99
-2.4,-0.9,100
-2.4,-0.75,101
-2.4,-0.6,103
-2.4,-0.45,104
-2.4,-0.3,105
-2.4,-0.15,106
-2.4,0.0,107
-2.4,0.15,108
-2.4,0.3,109
-2.4,0.45,128
-2.4,0.6,129
-2.4,0.75,130
-2.4,0.9,144
-2.4,1.05,144
-2.4,1.2,143
-2.4,1.35,142
-2.4,1.5,142
-2.25,-1.5,109
-2.25,-1.35,110
-2.25,-1.2,112
-2.25,-1.05,114
-2.25,-0.9,116
-2.25,-0.75,103
-2.25,-0.6,105
-2.25,-0.45,106
-2.25,-0.3,108
-2.25,-0.15,109
-2.25,0.0,110
-2.25,0.15,111
-2.25,0.3,112
-2.25,0.45,132
-2.25,0.6,147
-2.25,0.75,147
-2.25,0.9,147
-2.25,1.05,146
-2.25,1.2,145
-2.25,1.35,144
-2.25,1.5,144
-2.1,-1.5,109
-2.1,-1.35,111
-2.1,-1.2,113
-2.1,-1.05,115
-2.1,-0.9,117
-2.1,-0.75,119
-2.1,-0.6,121
-2.1,-0.45,109
-2.1,-0.3,110
-2.1,-0.15,112
-2.1,0.0,113
-2.1,0.15,114
-2.1,0.3,149
-2.1,0.45,149
-2.1,0.6,149
-2.1,0.75,149
-2.1,0.9,149
-2.1,1.05,148
-2.1,1.2,147
-2.1,1.35,146
-2.1,1.5,146
-1.95,-1.5,109
-1.95,-1.35,109
-1.95,-1.2,114
-1.95,-1.05,116
-1.95,-0.9,118
-1.95,-0.75,120
-1.95,-0.6,122
-1.95,-0.45,143
-1.95,-0.3,146
-1.95,-0.15,148
-1.95,0.0,116
-1.95,0.15,151
-1.95,0.3,151
-1.95,0.45,152
-1.95,0.6,152
-1.95,0.75,152
-1.95,0.9,151
-1.95,1.05,150
-1.95,1.2,150
-1.95,1.35,149
-1.95,1.5,148
-1.8,-1.5,109
-1.8,-1.35,109
-1.8,-1.2,109
-1.8,-1.05,117
-1.8,-0.9,119
-1.8,-0.75,121
-1.8,-0.6,123
-1.8,-0.45,126
-1.8,-0.3,148
-1.8,-0.15,150
-1.8,0.0,171
-1.8,0.15,173
-1.8,0.3,154
-1.8,0.45,154
-1.8,0.6,154
-1.8,0.75,154
-1.8,0.9,153
-1.8,1.05,153
-1.8,1.2,152
-1.8,1.35,151
-1.8,1.5,130
-1.65,-1.5,109
-1.65,-1.35,109
-1.65,-1.2,110
-1.65,-1.05,112
-1.65,-0.9,120
-1.65,-0.75,122
-1.65,-0.6,124
-1.65,-0.45,127
-1.65,-0.3,169
-1.65,-0.15,170
-1.65,0.0,171
-1.65,0.15,173
-1.65,0.3,174
-1.65,0.45,176
-1.65,0.6,157
-1.65,0.75,156
-1.65,0.9,156
-1.65,1.05,155
-1.65,1.2,154
-1.65,1.35,132
-1.65,1.5,139
-1.5,-1.5,109
-1.5,-1.35,109
-1.5,-1.2,111
-1.5,-1.05,112
-1.5,-0.9,121
-1.5,-0.75,123
-1.5,-0.6,144
-1.5,-0.45,167
-1.5,-0.3,169
-1.5,-0.15,170
-1.5,0.0,171
-1.5,0.15,173
-1.5,0.3,174
-1.5,0.45,176
-1.5,0.6,169
-1.5,0.75,178
-1.5,0.9,178
-1.5,1.05,157
-1.5,1.2,134
-1.5,1.35,141
-1.5,1.5,132
-1.35,-1.5,109
-1.35,-1.35,110
-1.35,-1.2,111
-1.35,-1.05,113
-1.35,-0.9,141
-1.35,-0.75,142
-1.35,-0.6,143
-1.35,-0.45,145
-1.35,-0.3,168
-1.35,-0.15,170
-1.35,0.0,172
-1.35,0.15,173
-1.35,0.3,175
-1.35,0.45,176
-1.35,0.6,177
-1.35,0.75,178
-1.35,0.9,178
-1.35,1.05,179
-1.35,1.2,143
-1.35,1.35,135
-1.35,1.5,133
-1.2,-1.5,109
-1.2,-1.35,110
-1.2,-1.2,112
-1.2,-1.05,132
-1.2,-0.9,133
-1.2,-0.75,141
-1.2,-0.6,142
-1.2,-0.45,144
-1.2,-0.3,168
-1.2,-0.15,170
-1.2,0.0,172
-1.2,0.15,173
-1.2,0.3,175
-1.2,0.45,176
-1.2,0.6,177
-1.2,0.75,177
-1.2,0.9,178
-1.2,1.05,155
-1.2,1.2,155
-1.2,1.35,155
-1.2,1.5,154
-1.05,-1.5,110
-1.05,-1.35,130
-1.05,-1.2,130
-1.05,-1.05,131
-1.05,-0.9,132
-1.05,-0.75,133
-1.05,-0.6,134
-1.05,-0.45,143
-1.05,-0.3,144
-1.05,-0.15,170
-1.05,0.0,172
-1.05,0.15,173
-1.05,0.3,175
-1.05,0.45,176
-1.05,0.6,177
-1.05,0.75,177
-1.05,0.9,153
-1.05,1.05,153
-1.05,1.2,153
-1.05,1.35,153
-1.05,1.5,153
-0.9,-1.5,151
-0.9,-1.35,152
-0.9,-1.2,153
-0.9,-1.05,154
-0.9,-0.9,155
-0.9,-0.75,132
-0.9,-0.6,133
-0.9,-0.45,134
-0.9,-0.3,143
-0.9,-0.15,145
-0.9,0.0,172
-0.9,0.15,173
-0.9,0.3,175
-0.9,0.45,176
-0.9,0.6,176
-0.9,0.75,152
-0.9,0.9,152
-0.9,1.05,152
-0.9,1.2,152
-0.9,1.35,152
-0.9,1.5,152
-0.75,-1.5,150
-0.75,-1.35,151
-0.75,-1.2,152
-0.75,-1.05,146
-0.75,-0.9,147
-0.75,-0.75,156
-0.75,-0.6,158
-0.75,-0.45,159
-0.75,-0.3,161
-0.75,-0.15,171
-0.75,0.0,172
-0.75,0.15,173
-0.75,0.3,176
-0.75,0.45,176
-0.75,0.6,141
-0.75,0.75,150
-0.75,0.9,150
-0.75,1.05,150
-0.75,1.2,151
-0.75,1.35,151
-0.75,1.5,151
-0.6,-1.5,117
-0.6,-1.35,118
-0.6,-1.2,118
-0.6,-1.05,119
-0.6,-0.9,120
-0.6,-0.75,147
-0.6,-0.6,149
-0.6,-0.45,123
-0.6,-0.3,124
-0.6,-0.15,125
-0.6,0.0,135
-0.6,0.15,165
-0.6,0.3,174
-0.6,0.45,138
-0.6,0.6,148
-0.6,0.75,148
-0.6,0.9,149
-0.6,1.05,149
-0.6,1.2,149
-0.6,1.35,149
-0.6,1.5,149
-0.45,-1.5,84
-0.45,-1.35,85
-0.45,-1.2,118
-0.45,-1.05,119
-0.45,-0.9,120
-0.45,-0.75,121
-0.45,-0.6,122
-0.45,-0.45,122
-0.45,-0.3,123
-0.45,-0.15,125
-0.45,0.0,145
-0.45,0.15,146
-0.45,0.3,108
-0.45,0.45,139
-0.45,0.6,146
-0.45,0.75,147
-0.45,0.9,147
-0.45,1.05,147
-0.45,1.2,154
-0.45,1.35,154
-0.45,1.5,154
-0.3,-1.5,98
-0.3,-1.35,99
-0.3,-1.2,85
-0.3,-1.05,137
-0.3,-0.9,119
-0.3,-0.75,120
-0.3,-0.6,121
-0.3,-0.45,122
-0.3,-0.3,123
-0.3,-0.15,124
-0.3,0.0,144
-0.3,0.15,145
-0.3,0.3,108
-0.3,0.45,118
-0.3,0.6,118
-0.3,0.75,147
-0.3,0.9,154
-0.3,1.05,154
-0.3,1.2,154
-0.3,1.35,154
-0.3,1.5,154
-0.15,-1.5,98
-0.15,-1.35,99
-0.15,-1.2,100
-0.15,-1.05,101
-0.15,-0.9,139
-0.15,-0.75,140
-0.15,-0.6,141
-0.15,-0.45,142
-0.15,-0.3,123
-0.15,-0.15,182
-0.15,0.0,144
-0.15,0.15,144
-0.15,0.3,117
-0.15,0.45,173
-0.15,0.6,128
-0.15,0.75,128
-0.15,0.9,217
-0.15,1.05,216
-0.15,1.2,201
-0.15,1.35,201
-0.15,1.5,202
0.0,-1.5,99
0.0,-1.35,99
0.0,-1.2,100
0.0,-1.05,101
0.0,-0.9,102
0.0,-0.75,103
0.0,-0.6,143
0.0,-0.45,144
0.0,-0.3,144
0.0,-0.15,182
0.0,0.0,183
0.0,0.15,154
0.0,0.3,174
0.0,0.45,174
0.0,0.6,173
0.0,0.75,219
0.0,0.9,219
0.0,1.05,202
0.0,1.2,202
0.0,1.35,203
0.0,1.5,203
0.15,-1.5,137
0.15,-1.35,138
0.15,-1.2,138
0.15,-1.05,139
0.15,-0.9,103
0.15,-0.75,104
0.15,-0.6,141
0.15,-0.45,142
0.15,-0.3,145
0.15,-0.15,145
0.15,0.0,125
0.15,0.15,126
0.15,0.3,183
0.15,0.45,193
0.15,0.6,193
0.15,0.75,219
0.15,0.9,219
0.15,1.05,204
0.15,1.2,246
0.15,1.35,245
0.15,1.5,245
0.3,-1.5,138
0.3,-1.35,139
0.3,-1.2,139
0.3,-1.05,140
0.3,-0.9,141
0.3,-0.75,144
0.3,-0.6,139
0.3,-0.45,140
0.3,-0.3,104
0.3,-0.15,115
0.3,0.0,116
0.3,0.15,183
0.3,0.3,212
0.3,0.45,213
0.3,0.6,213
0.3,0.75,223
0.3,0.9,223
0.3,1.05,222
0.3,1.2,222
0.3,1.35,248
0.3,1.5,247
0.45,-1.5,126
0.45,-1.35,127
0.45,-1.2,140
0.45,-1.05,141
0.45,-0.9,144
0.45,-0.75,144
0.45,-0.6,145
0.45,-0.45,142
0.45,-0.3,140
0.45,-0.15,154
0.45,0.0,172
0.45,0.15,174
0.45,0.3,214
0.45,0.45,216
0.45,0.6,217
0.45,0.75,217
0.45,0.9,226
0.45,1.05,226
0.45,1.2,226
0.45,1.35,225
0.45,1.5,250
0.6,-1.5,137
0.6,-1.35,138
0.6,-1.2,138
0.6,-1.05,139
0.6,-0.9,110
0.6,-0.75,112
0.6,-0.6,148
0.6,-0.45,150
0.6,-0.3,205
0.6,-0.15,170
0.6,0.0,175
0.6,0.15,176
0.6,0.3,177
0.6,0.45,206
0.6,0.6,208
0.6,0.75,205
0.6,0.9,205
0.6,1.05,224
0.6,1.2,224
0.6,1.35,224
0.6,1.5,224
0.75,-1.5,136
0.75,-1.35,137
0.75,-1.2,137
0.75,-1.05,109
0.75,-0.9,134
0.75,-0.75,136
0.75,-0.6,138
0.75,-0.45,202
0.75,-0.3,205
0.75,-0.15,208
0.75,0.0,201
0.75,0.15,183
0.75,0.3,176
0.75,0.45,176
0.75,0.6,166
0.75,0.75,204
0.75,0.9,230
0.75,1.05,230
0.75,1.2,229
0.75,1.35,228
0.75,1.5,228
0.9,-1.5,136
0.9,-1.35,136
0.9,-1.2,136
0.9,-1.05,101
0.9,-0.9,106
0.9,-0.75,140
0.9,-0.6,166
0.9,-0.45,168
0.9,-0.3,180
0.9,-0.15,200
0.9,0.0,232
0.9,0.15,234
0.9,0.3,203
0.9,0.45,204
0.9,0.6,205
0.9,0.75,195
0.9,0.9,195
0.9,1.05,230
0.9,1.2,229
0.9,1.35,228
0.9,1.5,228
1.05,-1.5,139
1.05,-1.35,139
1.05,-1.2,140
1.05,-1.05,140
1.05,-0.9,141
1.05,-0.75,106
1.05,-0.6,133
1.05,-0.45,171
1.05,-0.3,173
1.05,-0.15,229
1.05,0.0,230
1.05,0.15,232
1.05,0.3,255
1.05,0.45,233
1.05,0.6,232
1.05,0.75,232
1.05,0.9,232
1.05,1.05,238
1.05,1.2,237
1.05,1.35,236
1.05,1.5,235
1.2,-1.5,105
1.2,-1.35,140
1.2,-1.2,140
1.2,-1.05,136
1.2,-0.9,136
1.2,-0.75,161
1.2,-0.6,162
1.2,-0.45,135
1.2,-0.3,136
1.2,-0.15,173
1.2,0.0,212
1.2,0.15,255
1.2,0.3,255
1.2,0.45,255
1.2,0.6,238
1.2,0.75,238
1.2,0.9,238
1.2,1.05,237
1.2,1.2,236
1.2,1.35,235
1.2,1.5,235
1.35,-1.5,105
1.35,-1.35,105
1.35,-1.2,89
1.35,-1.05,113
1.35,-0.9,114
1.35,-0.75,114
1.35,-0.6,114
1.35,-0.45,141
1.35,-0.3,114
1.35,-0.15,115
1.35,0.0,145
1.35,0.15,166
1.35,0.3,216
1.35,0.45,187
1.35,0.6,188
1.35,0.75,200
1.35,0.9,201
1.35,1.05,204
1.35,1.2,204
1.35,1.35,192
1.35,1.5,191
1.5,-1.5,106
1.5,-1.35,106
1.5,-1.2,106
1.5,-1.05,98
1.5,-0.9,98
1.5,-0.75,98
1.5,-0.6,115
1.5,-0.45,142
1.5,-0.3,143
1.5,-0.15,115
1.5,0.0,126
1.5,0.15,165
1.5,0.3,165
1.5,0.45,198
1.5,0.6,200
1.5,0.75,204
1.5,0.9,204
1.5,1.05,197
1.5,1.2,204
1.5,1.35,204
1.5,1.5,204
1.65,-1.5,106
1.65,-1.35,106
1.65,-1.2,106
1.65,-1.05,107
1.65,-0.9,107
1.65,-0.75,98
1.65,-0.6,98
1.65,-0.45,124
1.65,-0.3,153
1.65,-0.15,165
1.65,0.0,136
1.65,0.15,127
1.65,0.3,99
1.65,0.45,99
1.65,0.6,99
1.65,0.75,108
1.65,0.9,139
1.65,1.05,198
1.65,1.2,199
1.65,1.35,195
1.65,1.5,195
1.8,-1.5,99
1.8,-1.35,99
1.8,-1.2,107
1.8,-1.05,107
1.8,-0.9,117
1.8,-0.75,117
1.8,-0.6,117
1.8,-0.45,117
1.8,-0.3,174
1.8,-0.15,164
1.8,0.0,164
1.8,0.15,98
1.8,0.3,98
1.8,0.45,98
1.8,0.6,98
1.8,0.75,117
1.8,0.9,118
1.8,1.05,118
1.8,1.2,108
1.8,1.35,107
1.8,1.5,138
1.95,-1.5,99
1.95,-1.35,99
1.95,-1.2,99
1.95,-1.05,108
1.95,-0.9,108
1.95,-0.75,108
1.95,-0.6,117
1.95,-0.45,119
1.95,-0.3,146
1.95,-0.15,155
1.95,0.0,146
1.95,0.15,98
1.95,0.3,97
1.95,0.45,98
1.95,0.6,117
1.95,0.75,117
1.95,0.9,117
1.95,1.05,107
1.95,1.2,106
1.95,1.35,106
1.95,1.5,106
2.1,-1.5,99
2.1,-1.35,99
2.1,-1.2,99
2.1,-1.05,98
2.1,-0.9,98
2.1,-0.75,110
2.1,-0.6,119
2.1,-0.45,118
2.1,-0.3,88
2.1,-0.15,116
2.1,0.0,117
2.1,0.15,88
2.1,0.3,78
2.1,0.45,88
2.1,0.6,98
2.1,0.75,89
2.1,0.9,89
2.1,1.05,89
2.1,1.2,88
2.1,1.35,79
2.1,1.5,79
2.25,-1.5,107
2.25,-1.35,107
2.25,-1.2,107
2.25,-1.05,109
2.25,-0.9,109
2.25,-0.75,79
2.25,-0.6,79
2.25,-0.45,79
2.25,-0.3,88
2.25,-0.15,98
2.25,0.0,88
2.25,0.15,59
2.25,0.3,68
2.25,0.45,68
2.25,0.6,59
2.25,0.75,59
2.25,0.9,50
2.25,1.05,50
2.25,1.2,79
2.25,1.35,78
2.25,1.5,50
2.4,-1.5,98
2.4,-1.35,98
2.4,-1.2,98
2.4,-1.05,98
2.4,-0.9,98
2.4,-0.75,98
2.4,-0.6,98
2.4,-0.45,98
2.4,-0.3,99
2.4,-0.15,98
2.4,0.0,59
2.4,0.15,59
2.4,0.3,59
2.4,0.45,59
2.4,0.6,59
2.4,0.75,50
2.4,0.9,50
2.4,1.05,50
2.4,1.2,50
2.4,1.35,50
2.4,1.5,50
2.55,-1.5,116
2.55,-1.35,98
2.55,-1.2,98
2.55,-1.05,98
2.55,-0.9,98
2.55,-0.75,98
2.55,-0.6,108
2.55,-0.45,108
2.55,-0.3,107
2.55,-0.15,68
2.55,0.0,68
2.55,0.15,78
2.55,0.3,59
2.55,0.45,68
2.55,0.6,49
2.55,0.75,50
2.55,0.9,50
2.55,1.05,50
2.55,1.2,50
2.55,1.35,101
2.55,1.5,102
2.7,-1.5,107
2.7,-1.35,99
2.7,-1.2,116
2.7,-1.05,138
2.7,-0.9,108
2.7,-0.75,107
2.7,-0.6,108
2.7,-0.45,78
2.7,-0.3,78
2.7,-0.15,78
2.7,0.0,68
2.7,0.15,59
2.7,0.3,68
2.7,0.45,59
2.7,0.6,59
2.7,0.75,59
2.7,0.9,50
2.7,1.05,110
2.7,1.2,110
2.7,1.35,107
2.7,1.5,107
2.85,-1.5,121
2.85,-1.35,164
2.85,-1.2,132
2.85,-1.05,164
2.85,-0.9,133
2.85,-0.75,133
2.85,-0.6,115
2.85,-0.45,115
2.85,-0.3,125
2.85,-0.15,68
2.85,0.0,59
2.85,0.15,49
2.85,0.3,59
2.85,0.45,78
2.85,0.6,78
2.85,0.75,109
2.85,0.9,110
2.85,1.05,112
2.85,1.2,99
2.85,1.35,99
2.85,1.5,100
3.0,-1.5,88
3.0,-1.35,88
3.0,-1.2,88
3.0,-1.05,133
3.0,-0.9,134
3.0,-0.75,134
3.0,-0.6,134
3.0,-0.45,125
3.0,-0.3,125
3.0,-0.15,126
3.0,0.0,126
3.0,0.15,107
3.0,0.3,88
3.0,0.45,88
3.0,0.6,146
3.0,0.75,157
3.0,0.9,117
3.0,1.05,99
3.0,1.2,100
3.0,1.35,99
3.0,1.5,108
3.15,-1.5,88
3.15,-1.35,88
3.15,-1.2,142
3.15,-1.05,143
3.15,-0.9,143
3.15,-0.75,135
3.15,-0.6,116
3.15,-0.45,145
3.15,-0.3,164
3.15,-0.15,155
3.15,0.0,126
3.15,0.15,136
3.15,0.3,107
3.15,0.45,138
3.15,0.6,137
3.15,0.75,163
3.15,0.9,162
3.15,1.05,153
3.15,1.2,152
3.15,1.35,135
3.15,1.5,135
3.3,-1.5,79
3.3,-1.35,79
3.3,-1.2,79
3.3,-1.05,125
3.3,-0.9,135
3.3,-0.75,135
3.3,-0.6,136
3.3,-0.45,136
3.3,-0.3,136
3.3,-0.15,107
3.3,0.0,116
3.3,0.15,135
3.3,0.3,117
3.3,0.45,204
3.3,0.6,192
3.3,0.75,201
3.3,0.9,172
3.3,1.05,143
3.3,1.2,133
3.3,1.35,133
3.3,1.5,105
3.45,-1.5,106
3.45,-1.35,106
3.45,-1.2,106
3.45,-1.05,106
3.45,-0.9,106
3.45,-0.75,106
3.45,-0.6,116
3.45,-0.45,88
3.45,-0.3,78
3.45,-0.15,49
3.45,0.0,59
3.45,0.15,59
3.45,0.3,127
3.45,0.45,204
3.45,0.6,203
3.45,0.75,164
3.45,0.9,163
3.45,1.05,135
3.45,1.2,126
3.45,1.35,79
3.45,1.5,78
3.6,-1.5,115
3.6,-1.35,115
3.6,-1.2,115
3.6,-1.05,115
3.6,-0.9,116
3.6,-0.75,125
3.6,-0.6,153
3.6,-0.45,164
3.6,-0.3,155
3.6,-0.15,145
3.6,0.0,59
3.6,0.15,87
3.6,0.3,155
3.6,0.45,213
3.6,0.6,203
3.6,0.75,202
3.6,0.9,164
3.6,1.05,164
3.6,1.2,154
3.6,1.35,155
3.6,1.5,117
3.75,-1.5,142
3.75,-1.35,143
3.75,-1.2,153
3.75,-1.05,151
3.75,-0.9,152
3.75,-0.75,153
3.75,-0.6,153
3.75,-0.45,192
3.75,-0.3,193
3.75,-0.15,184
3.75,0.0,164
3.75,0.15,145
3.75,0.3,164
3.75,0.45,212
3.75,0.6,182
3.75,0.75,192
3.75,0.9,191
3.75,1.05,154
3.75,1.2,154
3.75,1.35,172
3.75,1.5,171
3.9,-1.5,202
3.9,-1.35,169
3.9,-1.2,169
3.9,-1.05,170
3.9,-0.9,199
3.9,-0.75,200
3.9,-0.6,201
3.9,-0.45,182
3.9,-0.3,221
3.9,-0.15,183
3.9,0.0,164
3.9,0.15,107
3.9,0.3,193
3.9,0.45,183
3.9,0.6,182
3.9,0.75,191
3.9,0.9,152
3.9,1.05,209
3.9,1.2,208
3.9,1.35,207
3.9,1.5,206
4.05,-1.5,177
4.05,-1.35,177
4.05,-1.2,178
4.05,-1.05,179
4.05,-0.9,180
4.05,-0.75,172
4.05,-0.6,229
4.05,-0.45,230
4.05,-0.3,240
4.05,-0.15,212
4.05,0.0,183
4.05,0.15,155
4.05,0.3,136
4.05,0.45,183
4.05,0.6,183
4.05,0.75,173
4.05,0.9,124
4.05,1.05,124
4.05,1.2,123
4.05,1.35,180
4.05,1.5,179
4.2,-1.5,105
4.2,-1.35,140
4.2,-1.2,103
4.2,-1.05,114
4.2,-0.9,134
4.2,-0.75,189
4.2,-0.6,162
4.2,-0.45,182
4.2,-0.3,164
4.2,-0.15,231
4.2,0.0,193
4.2,0.15,107
4.2,0.3,183
4.2,0.45,155
4.2,0.6,146
4.2,0.75,135
4.2,0.9,116
4.2,1.05,115
4.2,1.2,125
4.2,1.35,123
4.2,1.5,123
4.35,-1.5,103
4.35,-1.35,140
4.35,-1.2,140
4.35,-1.05,140
4.35,-0.9,132
4.35,-0.75,133
4.35,-0.6,144
4.35,-0.45,192
4.35,-0.3,203
4.35,-0.15,145
4.35,0.0,68
4.35,0.15,174
4.35,0.3,183
4.35,0.45,231
4.35,0.6,203
4.35,0.75,221
4.35,0.9,191
4.35,1.05,172
4.35,1.2,135
4.35,1.35,142
4.35,1.5,150
4.5,-1.5,94
4.5,-1.35,94
4.5,-1.2,95
4.5,-1.05,105
4.5,-0.9,96
4.5,-0.75,96
4.5,-0.6,134
4.5,-0.45,145
4.5,-0.3,145
4.5,-0.15,116
4.5,0.0,88
4.5,0.15,88
4.5,0.3,222
4.5,0.45,250
4.5,0.6,255
4.5,0.75,255
4.5,0.9,247
4.5,1.05,254
4.5,1.2,253
4.5,1.35,251
4.5,1.5,175
4.65,-1.5,95
4.65,-1.35,95
4.65,-1.2,94
4.65,-1.05,95
4.65,-0.9,96
4.65,-0.75,135
4.65,-0.6,135
4.65,-0.45,144
4.65,-0.3,97
4.65,-0.15,126
4.65,0.0,231
4.65,0.15,231
4.65,0.3,255
4.65,0.45,255
4.65,0.6,255
4.65,0.75,239
4.65,0.9,255
4.65,1.05,227
4.65,1.2,150
4.65,1.35,167
4.65,1.5,138
4.8,-1.5,58
4.8,-1.35,90
4.8,-1.2,90
4.8,-1.05,127
4.8,-0.9,127
4.8,-0.75,59
4.8,-0.6,59
4.8,-0.45,97
4.8,-0.3,107
4.8,-0.15,145
4.8,0.0,183
4.8,0.15,241
4.8,0.3,203
4.8,0.45,255
4.8,0.6,212
4.8,0.75,255
4.8,0.9,236
4.8,1.05,179
4.8,1.2,151
4.8,1.35,150
4.8,1.5,150
4.95,-1.5,41
4.95,-1.35,41
4.95,-1.2,41
4.95,-1.05,41
4.95,-0.9,50
4.95,-0.75,50
4.95,-0.6,11
4.95,-0.45,11
4.95,-0.3,21
4.95,-0.15,87
4.95,0.0,135
4.95,0.15,164
4.95,0.3,203
4.95,0.45,212
4.95,0.6,173
4.95,0.75,154
4.95,0.9,151
4.95,1.05,179
4.95,1.2,151
4.95,1.35,150
4.95,1.5,149
5.1,-1.5,50
5.1,-1.35,50
5.1,-1.2,41
5.1,-1.05,41
5.1,-0.9,41
5.1,-0.75,41
5.1,-0.6,31
5.1,-0.45,1
5.1,-0.3,1
5.1,-0.15,49
5.1,0.0,155
5.1,0.15,222
5.1,0.3,174
5.1,0.45,202
5.1,0.6,173
5.1,0.75,135
5.1,0.9,143
5.1,1.05,133
5.1,1.2,94
5.1,1.35,96
5.1,1.5,135
5.25,-1.5,50
5.25,-1.35,41
5.25,-1.2,50
5.25,-1.05,50
5.25,-0.9,41
5.25,-0.75,31
5.25,-0.6,31
5.25,-0.45,49
5.25,-0.3,11
5.25,-0.15,87
5.25,0.0,126
5.25,0.15,126
5.25,0.3,174
5.25,0.45,221
5.25,0.6,163
5.25,0.75,162
5.25,0.9,106
5.25,1.05,106
5.25,1.2,144
5.25,1.35,133
5.25,1.5,133
5.4,-1.5,68
5.4,-1.35,59
5.4,-1.2,50
5.4,-1.05,40
5.4,-0.9,40
5.4,-0.75,40
5.4,-0.6,31
5.4,-0.45,31
5.4,-0.3,49
5.4,-0.15,59
5.4,0.0,49
5.4,0.15,107
5.4,0.3,203
5.4,0.45,203
5.4,0.6,192
5.4,0.75,107
5.4,0.9,145
5.4,1.05,145
5.4,1.2,145
5.4,1.35,135
5.4,1.5,135
5.55,-1.5,78
5.55,-1.35,78
5.55,-1.2,78
5.55,-1.05,78
5.55,-0.9,78
5.55,-0.75,69
5.55,-0.6,59
5.55,-0.45,49
5.55,-0.3,49
5.55,-0.15,68
5.55,0.0,30
5.55,0.15,145
5.55,0.3,135
5.55,0.45,126
5.55,0.6,145
5.55,0.75,145
5.55,0.9,173
5.55,1.05,173
5.55,1.2,145
5.55,1.35,145
5.55,1.5,146
5.7,-1.5,88
5.7,-1.35,88
5.7,-1.2,78
5.7,-1.05,78
5.7,-0.9,79
5.7,-0.75,79
5.7,-0.6,78
5.7,-0.45,30
5.7,-0.3,40
5.7,-0.15,68
5.7,0.0,107
5.7,0.15,116
5.7,0.3,155
5.7,0.45,183
5.7,0.6,183
5.7,0.75,183
5.7,0.9,183
5.7,1.05,146
5.7,1.2,146
5.7,1.35,184
5.7,1.5,184
5.85,-1.5,97
5.85,-1.35,97
5.85,-1.2,97
5.85,-1.05,97
5.85,-0.9,59
5.85,-0.75,59
5.85,-0.6,40
5.85,-0.45,49
5.85,-0.3,30
5.85,-0.15,78
5.85,0.0,116
5.85,0.15,155
5.85,0.3,231
5.85,0.45,212
5.85,0.6,203
5.85,0.75,165
5.85,0.9,156
5.85,1.05,146
5.85,1.2,148
5.85,1.35,148
5.85,1.5,147
6.0,-1.5,106
6.0,-1.35,97
6.0,-1.2,68
6.0,-1.05,68
6.0,-0.9,68
6.0,-0.75,69
6.0,-0.6,69
6.0,-0.45,69
6.0,-0.3,59
6.0,-0.15,21
6.0,0.0,49
6.0,0.15,155
6.0,0.3,155
6.0,0.45,136
6.0,0.6,117
6.0,0.75,117
6.0,0.9,138
6.0,1.05,148
6.0,1.2,128
6.0,1.35,129
6.0,1.5,129
6.15,-1.5,59
6.15,-1.35,59
6.15,-1.2,59
6.15,-1.05,59
6.15,-0.9,59
6.15,-0.75,87
6.15,-0.6,87
6.15,-0.45,78
6.15,-0.3,78
6.15,-0.15,11
6.15,0.0,21
6.15,0.15,1
6.15,0.3,59
6.15,0.45,78
6.15,0.6,116
6.15,0.75,156
6.15,0.9,156
6.15,1.05,157
6.15,1.2,158
6.15,1.35,159
6.15,1.5,147
6.3,-1.5,49
6.3,-1.35,49
6.3,-1.2,49
6.3,-1.05,87
6.3,-0.9,87
6.3,-0.75,87
6.3,-0.6,78
6.3,-0.45,69
6.3,-0.3,40
6.3,-0.15,1
6.3,0.0,88
6.3,0.15,126
6.3,0.3,40
6.3,0.45,88
6.3,0.6,136
6.3,0.75,107
6.3,0.9,147
6.3,1.05,185
6.3,1.2,186
6.3,1.35,168
6.3,1.5,168
6.45,-1.5,49
6.45,-1.35,107
6.45,-1.2,134
6.45,-1.05,135
6.45,-0.9,135
6.45,-0.75,116
6.45,-0.6,116
6.45,-0.45,49
6.45,-0.3,59
6.45,-0.15,68
6.45,0.0,164
6.45,0.15,155
6.45,0.3,116
6.45,0.45,107
6.45,0.6,98
6.45,0.75,98
6.45,0.9,118
6.45,1.05,139
6.45,1.2,140
6.45,1.35,141
6.45,1.5,149
6.6,-1.5,77
6.6,-1.35,87
6.6,-1.2,87
6.6,-1.05,125
6.6,-0.9,125
6.6,-0.75,125
6.6,-0.6,107
6.6,-0.45,126
6.6,-0.3,155
6.6,-0.15,116
6.6,0.0,88
6.6,0.15,145
6.6,0.3,183
6.6,0.45,126
6.6,0.6,136
6.6,0.75,137
6.6,0.9,137
6.6,1.05,100
6.6,1.2,109
6.6,1.35,148
6.6,1.5,148
6.75,-1.5,86
6.75,-1.35,87
6.75,-1.2,97
6.75,-1.05,77
6.75,-0.9,68
6.75,-0.75,68
6.75,-0.6,116
6.75,-0.45,116
6.75,-0.3,126
6.75,-0.15,145
6.75,0.0,88
6.75,0.15,68
6.75,0.3,116
6.75,0.45,107
6.75,0.6,107
6.75,0.75,165
6.75,0.9,146
6.75,1.05,109
6.75,1.2,109
6.75,1.35,147
6.75,1.5,137
6.9,-1.5,96
6.9,-1.35,96
6.9,-1.2,96
6.9,-1.05,96
6.9,-0.9,96
6.9,-0.75,78
6.9,-0.6,78
6.9,-0.45,107
6.9,-0.3,155
6.9,-0.15,155
6.9,0.0,97
6.9,0.15,11
6.9,0.3,68
6.9,0.45,107
6.9,0.6,155
6.9,0.75,174
6.9,0.9,174
6.9,1.05,174
6.9,1.2,173
6.9,1.35,173
6.9,1.5,137
7.05,-1.5,49
7.05,-1.35,49
7.05,-1.2,49
7.05,-1.05,49
7.05,-0.9,59
7.05,-0.75,59
7.05,-0.6,59
7.05,-0.45,68
7.05,-0.3,68
7.05,-0.15,88
7.05,0.0,136
7.05,0.15,78
7.05,0.3,59
7.05,0.45,69
7.05,0.6,126
7.05,0.75,127
7.05,0.9,136
7.05,1.05,136
7.05,1.2,127
7.05,1.35,128
7.05,1.5,127
7.2,-1.5,68
7.2,-1.35,68
7.2,-1.2,78
7.2,-1.05,78
7.2,-0.9,68
7.2,-0.75,40
7.2,-0.6,40
7.2,-0.45,40
7.2,-0.3,30
7.2,-0.15,11
7.2,0.0,40
7.2,0.15,88
7.2,0.3,49
7.2,0.45,78
7.2,0.6,117
7.2,0.75,78
7.2,0.9,78
7.2,1.05,78
7.2,1.2,116
7.2,1.35,116
7.2,1.5,116
7.35,-1.5,58
7.35,-1.35,69
7.35,-1.2,69
7.35,-1.05,69
7.35,-0.9,78
7.35,-0.75,78
7.35,-0.6,78
7.35,-0.45,78
7.35,-0.3,49
7.35,-0.15,21
7.35,0.0,21
7.35,0.15,59
7.35,0.3,116
7.35,0.45,59
7.35,0.6,116
7.35,0.75,106
7.35,0.9,78
7.35,1.05,41
7.35,1.2,41
7.35,1.35,78
7.35,1.5,115
7.5,-1.5,68
7.5,-1.35,68
7.5,-1.2,68
7.5,-1.05,68
7.5,-0.9,68
7.5,-0.75,69
7.5,-0.6,78
7.5,-0.45,69
7.5,-0.3,40
7.5,-0.15,11
7.5,0.0,40
7.5,0.15,59
7.5,0.3,97
7.5,0.45,97
7.5,0.6,106
7.5,0.75,87
7.5,0.9,78
7.5,1.05,106
7.5,1.2,106
7.5,1.35,106
7.5,1.5,106
7.65,-1.5,77
7.65,-1.35,87
7.65,-1.2,87
7.65,-1.05,78
7.65,-0.9,78
7.65,-0.75,78
7.65,-0.6,78
7.65,-0.45,68
7.65,-0.3,97
7.65,-0.15,1
7.65,0.0,30
7.65,0.15,11
7.65,0.3,49
7.65,0.45,68
7.65,0.6,30
7.65,0.75,59
7.65,0.9,69
7.65,1.05,88
7.65,1.2,106
7.65,1.35,106
7.65,1.5,106
7.8,-1.5,86
7.8,-1.35,86
7.8,-1.2,86
7.8,-1.05,87
7.8,-0.9,78
7.8,-0.75,78
7.8,-0.6,59
7.8,-0.45,126
7.8,-0.3,88
7.8,-0.15,78
7.8,0.0,30
7.8,0.15,0
7.8,0.3,11
7.8,0.45,30
7.8,0.6,69
7.8,0.75,69
7.8,0.9,59
7.8,1.05,69
7.8,1.2,69
7.8,1.35,70
7.8,1.5,70
7.95,-1.5,77
7.95,-1.35,77
7.95,-1.2,77
7.95,-1.05,68
7.95,-0.9,77
7.95,-0.75,77
7.95,-0.6,78
7.95,-0.45,49
7.95,-0.3,88
7.95,-0.15,40
7.95,0.0,1
7.95,0.15,1
7.95,0.3,59
7.95,0.45,68
7.95,0.6,88
7.95,0.75,88
7.95,0.9,117
7.95,1.05,79
7.95,1.2,79
7.95,1.35,79
7.95,1.5,79
8.1,-1.5,57
8.1,-1.35,58
8.1,-1.2,58
8.1,-1.05,29
8.1,-0.9,30
8.1,-0.75,30
8.1,-0.6,30
8.1,-0.45,30
8.1,-0.3,49
8.1,-0.15,11
8.1,0.0,40
8.1,0.15,117
8.1,0.3,145
8.1,0.45,78
8.1,0.6,117
8.1,0.75,117
8.1,0.9,108
8.1,1.05,127
8.1,1.2,136
8.1,1.35,88
8.1,1.5,88
8.25,-1.5,10
8.25,-1.35,19
8.25,-1.2,20
8.25,-1.05,20
8.25,-0.9,30
8.25,-0.75,30
8.25,-0.6,20
8.25,-0.45,59
8.25,-0.3,59
8.25,-0.15,88
8.25,0.0,88
8.25,0.15,97
8.25,0.3,78
8.25,0.45,135
8.25,0.6,145
8.25,0.75,117
8.25,0.9,135
8.25,1.05,125
8.25,1.2,125
8.25,1.35,133
8.25,1.5,133
8.4,-1.5,19
8.4,-1.35,28
8.4,-1.2,19
8.4,-1.05,20
8.4,-0.9,20
8.4,-0.75,30
8.4,-0.6,30
8.4,-0.45,49
8.4,-0.3,88
8.4,-0.15,135
8.4,0.0,174
8.4,0.15,49
8.4,0.3,59
8.4,0.45,49
8.4,0.6,116
8.4,0.75,68
8.4,0.9,106
8.4,1.05,106
8.4,1.2,125
8.4,1.35,125
8.4,1.5,114
8.55,-1.5,9
8.55,-1.35,10
8.55,-1.2,10
8.55,-1.05,10
8.55,-0.9,10
8.55,-0.75,11
8.55,-0.6,11
8.55,-0.45,77
8.55,-0.3,78
8.55,-0.15,174
8.55,0.0,193
8.55,0.15,97
8.55,0.3,68
8.55,0.45,88
8.55,0.6,77
8.55,0.75,49
8.55,0.9,40
8.55,1.05,59
8.55,1.2,59
8.55,1.35,49
8.55,1.5,70
8.7,-1.5,0
8.7,-1.35,0
8.7,-1.2,9
8.7,-1.05,10
8.7,-0.9,10
8.7,-0.75,10
8.7,-0.6,48
8.7,-0.45,30
8.7,-0.3,49
8.7,-0.15,68
8.7,0.0,107
8.7,0.15,68
8.7,0.3,40
8.7,0.45,40
8.7,0.6,49
8.7,0.75,40
8.7,0.9,40
8.7,1.05,40
8.7,1.2,49
8.7,1.35,49
8.7,1.5,49
8.85,-1.5,0
8.85,-1.35,0
8.85,-1.2,0
8.85,-1.05,0
8.85,-0.9,0
8.85,-0.75,1
8.85,-0.6,0
8.85,-0.45,0
8.85,-0.3,30
8.85,-0.15,30
8.85,0.0,21
8.85,0.15,30
8.85,0.3,11
8.85,0.45,21
8.85,0.6,40
8.85,0.75,40
8.85,0.9,40
8.85,1.05,49
8.85,1.2,40
8.85,1.35,40
8.85,1.5,40
9.0,-1.5,2
9.0,-1.35,0
9.0,-1.2,0
9.0,-1.05,0
9.0,-0.9,0
9.0,-0.75,0
9.0,-0.6,0
9.0,-0.45,0
9.0,-0.3,0
9.0,-0.15,1
9.0,0.0,40
9.0,0.15,68
9.0,0.3,40
9.0,0.45,30
9.0,0.6,30
9.0,0.75,30
9.0,0.9,30
9.0,1.05,49
9.0,1.2,40
9.0,1.35,40
9.0,1.5,40
9.15,-1.5,19
9.15,-1.35,20
9.15,-1.2,19
9.15,-1.05,20
9.15,-0.9,47
9.15,-0.75,29
9.15,-0.6,10
9.15,-0.45,11
9.15,-0.3,40
9.15,-0.15,40
9.15,0.0,78
9.15,0.15,49
9.15,0.3,68
9.15,0.45,11
9.15,0.6,20
9.15,0.75,59
9.15,0.9,41
9.15,1.05,41
9.15,1.2,59
9.15,1.35,78
9.15,1.5,69
9.3,-1.5,66
9.3,-1.35,66
9.3,-1.2,75
9.3,-1.05,38
9.3,-0.9,38
9.3,-0.75,67
9.3,-0.6,67
9.3,-0.45,58
9.3,-0.3,68
9.3,-0.15,88
9.3,0.0,88
9.3,0.15,68
9.3,0.3,30
9.3,0.45,40
9.3,0.6,50
9.3,0.75,41
9.3,0.9,41
9.3,1.05,51
9.3,1.2,51
9.3,1.35,51
9.3,1.5,51
9.45,-1.5,77
9.45,-1.35,77
9.45,-1.2,86
9.45,-1.05,86
9.45,-0.9,86
9.45,-0.75,49
9.45,-0.6,87
9.45,-0.45,87
9.45,-0.3,97
9.45,-0.15,116
9.45,0.0,88
9.45,0.15,78
9.45,0.3,50
9.45,0.45,41
9.45,0.6,60
9.45,0.75,51
9.45,0.9,51
9.45,1.05,42
9.45,1.2,52
9.45,1.35,52
9.45,1.5,52
9.6,-1.5,114
9.6,-1.35,87
9.6,-1.2,87
9.6,-1.05,88
9.6,-0.9,88
9.6,-0.75,97
9.6,-0.6,97
9.6,-0.45,69
9.6,-0.3,126
9.6,-0.15,107
9.6,0.0,145
9.6,0.15,116
9.6,0.3,98
9.6,0.45,69
9.6,0.6,69
9.6,0.75,79
9.6,0.9,70
9.6,1.05,70
9.6,1.2,52
9.6,1.35,52
9.6,1.5,52
9.75,-1.5,117
9.75,-1.35,117
9.75,-1.2,117
9.75,-1.05,126
9.75,-0.9,98
9.75,-0.75,98
9.75,-0.6,107
9.75,-0.45,116
9.75,-0.3,145
9.75,-0.15,193
9.75,0.0,164
9.75,0.15,135
9.75,0.3,116
9.75,0.45,116
9.75,0.6,117
9.75,0.75,108
9.75,0.9,117
9.75,1.05,80
9.75,1.2,80
9.75,1.35,70
9.75,1.5,71
9.9,-1.5,143
9.9,-1.35,117
9.9,-1.2,156
9.9,-1.05,157
9.9,-0.9,147
9.9,-0.75,146
9.9,-0.6,146
9.9,-0.45,156
9.9,-0.3,193
9.9,-0.15,174
9.9,0.0,174
9.9,0.15,107
9.9,0.3,183
9.9,0.45,117
9.9,0.6,126
9.9,0.75,127
9.9,0.9,127
9.9,1.05,107
9.9,1.2,107
9.9,1.35,107
9.9,1.5,107
10.05,-1.5,145
10.05,-1.35,154
10.05,-1.2,164
10.05,-1.05,164
10.05,-0.9,155
10.05,-0.75,193
10.05,-0.6,204
10.05,-0.45,185
10.05,-0.3,174
10.05,-0.15,193
10.05,0.0,164
10.05,0.15,202
10.05,0.3,173
10.05,0.45,125
10.05,0.6,125
10.05,0.75,136
10.05,0.9,126
10.05,1.05,126
10.05,1.2,126
10.05,1.35,126
10.05,1.5,126
10.2,-1.5,154
10.2,-1.35,154
10.2,-1.2,155
10.2,-1.05,155
10.2,-0.9,156
10.2,-0.75,165
10.2,-0.6,165
10.2,-0.45,156
10.2,-0.3,194
10.2,-0.15,184
10.2,0.0,116
10.2,0.15,164
10.2,0.3,145
10.2,0.45,154
10.2,0.6,154
10.2,0.75,126
10.2,0.9,164
10.2,1.05,164
10.2,1.2,163
10.2,1.35,163
10.2,1.5,163
10.35,-1.5,173
10.35,-1.35,174
10.35,-1.2,175
10.35,-1.05,157
10.35,-0.9,119
10.35,-0.75,147
10.35,-0.6,184
10.35,-0.45,145
10.35,-0.3,174
10.35,-0.15,203
10.35,0.0,144
10.35,0.15,116
10.35,0.3,145
10.35,0.45,155
10.35,0.6,162
10.35,0.75,135
10.35,0.9,134
10.35,1.05,134
10.35,1.2,134
10.35,1.35,162
10.35,1.5,162
10.5,-1.5,190
10.5,-1.35,190
10.5,-1.2,191
10.5,-1.05,176
10.5,-0.9,176
10.5,-0.75,175
10.5,-0.6,175
10.5,-0.45,166
10.5,-0.3,126
10.5,-0.15,164
10.5,0.0,135
10.5,0.15,183
10.5,0.3,184
10.5,0.45,154
10.5,0.6,154
10.5,0.75,162
10.5,0.9,135
10.5,1.05,134
10.5,1.2,134
10.5,1.35,134
10.5,1.5,162
10.65,-1.5,180
10.65,-1.35,180
10.65,-1.2,183
10.65,-1.05,183
10.65,-0.9,183
10.65,-0.75,174
10.65,-0.6,166
10.65,-0.45,164
10.65,-0.3,164
10.65,-0.15,164
10.65,0.0,193
10.65,0.15,126
10.65,0.3,202
10.65,0.45,201
10.65,0.6,182
10.65,0.75,182
10.65,0.9,163
10.65,1.05,134
10.65,1.2,134
10.65,1.35,134
10.65,1.5,134
10.8,-1.5,180
10.8,-1.35,180
10.8,-1.2,181
10.8,-1.05,178
10.8,-0.9,181
10.8,-0.75,175
10.8,-0.6,172
10.8,-0.45,144
10.8,-0.3,145
10.8,-0.15,145
10.8,0.0,164
10.8,0.15,126
10.8,0.3,136
10.8,0.45,212
10.8,0.6,211
10.8,0.75,191
10.8,0.9,189
10.8,1.05,162
10.8,1.2,162
10.8,1.35,161
10.8,1.5,160
10.95,-1.5,176
10.95,-1.35,142
10.95,-1.2,140
10.95,-1.05,142
10.95,-0.9,143
10.95,-0.75,144
10.95,-0.6,155
10.95,-0.45,192
10.95,-0.3,116
10.95,-0.15,117
10.95,0.0,155
10.95,0.15,212
10.95,0.3,174
10.95,0.45,182
10.95,0.6,154
10.95,0.75,190
10.95,0.9,189
10.95,1.05,189
10.95,1.2,187
10.95,1.35,161
10.95,1.5,160
11.1,-1.5,113
11.1,-1.35,140
11.1,-1.2,140
11.1,-1.05,141
11.1,-0.9,105
11.1,-0.75,105
11.1,-0.6,115
11.1,-0.45,116
11.1,-0.3,154
11.1,-0.15,193
11.1,0.0,194
11.1,0.15,192
11.1,0.3,174
11.1,0.45,154
11.1,0.6,154
11.1,0.75,154
11.1,0.9,162
11.1,1.05,188
11.1,1.2,188
11.1,1.35,187
11.1,1.5,187
11.25,-1.5,104
11.25,-1.35,104
11.25,-1.2,103
11.25,-1.05,77
11.25,-0.9,77
11.25,-0.75,78
11.25,-0.6,78
11.25,-0.45,115
11.25,-0.3,153
11.25,-0.15,182
11.25,0.0,155
11.25,0.15,164
11.25,0.3,172
11.25,0.45,136
11.25,0.6,153
11.25,0.75,153
11.25,0.9,153
11.25,1.05,153
11.25,1.2,152
11.25,1.35,186
11.25,1.5,186
11.4,-1.5,107
11.4,-1.35,110
11.4,-1.2,118
11.4,-1.05,118
11.4,-0.9,77
11.4,-0.75,78
11.4,-0.6,78
11.4,-0.45,114
11.4,-0.3,143
11.4,-0.15,154
11.4,0.0,163
11.4,0.15,172
11.4,0.3,172
11.4,0.45,172
11.4,0.6,152
11.4,0.75,152
11.4,0.9,152
11.4,1.05,152
11.4,1.2,152
11.4,1.35,152
11.4,1.5,142
11.55,-1.5,128
11.55,-1.35,135
11.55,-1.2,135
11.55,-1.05,145
11.55,-0.9,146
11.55,-0.75,108
11.55,-0.6,107
11.55,-0.45,144
11.55,-0.3,114
11.55,-0.15,151
11.55,0.0,161
11.55,0.15,134
11.55,0.3,134
11.55,0.45,133
11.55,0.6,170
11.55,0.75,132
11.55,0.9,132
11.55,1.05,151
11.55,1.2,151
11.55,1.35,133
11.55,1.5,131
11.7,-1.5,102
11.7,-1.35,103
11.7,-1.2,145
11.7,-1.05,145
11.7,-0.9,146
11.7,-0.75,145
11.7,-0.6,108
11.7,-0.45,144
11.7,-0.3,144
11.7,-0.15,77
11.7,0.0,87
11.7,0.15,125
11.7,0.3,96
11.7,0.45,96
11.7,0.6,96
11.7,0.75,96
11.7,0.9,131
11.7,1.05,97
11.7,1.2,92
11.7,1.35,91
11.7,1.5,98
11.85,-1.5,102
11.85,-1.35,103
11.85,-1.2,104
11.85,-1.05,109
11.85,-0.9,109
11.85,-0.75,108
11.85,-0.6,108
11.85,-0.45,108
11.85,-0.3,107
11.85,-0.15,106
11.85,0.0,116
11.85,0.15,115
11.85,0.3,115
11.85,0.45,115
11.85,0.6,124
11.85,0.75,94
11.85,0.9,58
11.85,1.05,91
11.85,1.2,91
11.85,1.35,91
11.85,1.5,88
12.0,-1.5,102
12.0,-1.35,103
12.0,-1.2,104
12.0,-1.05,105
12.0,-0.9,109
12.0,-0.75,109
12.0,-0.6,108
12.0,-0.45,108
12.0,-0.3,107
12.0,-0.15,107
12.0,0.0,144
12.0,0.15,143
12.0,0.3,143
12.0,0.45,115
12.0,0.6,115
12.0,0.75,90
12.0,0.9,84
12.0,1.05,91
12.0,1.2,90
12.0,1.35,88
12.0,1.5,88
12.15,-1.5,97
12.15,-1.35,97
12.15,-1.2,97
12.15,-1.05,97
12.15,-0.9,97
12.15,-0.75,109
12.15,-0.6,109
12.15,-0.45,108
12.15,-0.3,108
12.15,-0.15,107
12.15,0.0,143
12.15,0.15,143
12.15,0.3,142
12.15,0.45,142
12.15,0.6,116
12.15,0.75,76
12.15,0.9,75
12.15,1.05,82
12.15,1.2,81
12.15,1.35,89
12.15,1.5,88
12.3,-1.5,97
12.3,-1.35,97
12.3,-1.2,97
12.3,-1.05,97
12.3,-0.9,97
12.3,-0.75,97
12.3,-0.6,109
12.3,-0.45,109
12.3,-0.3,108
12.3,-0.15,108
12.3,0.0,143
12.3,0.15,142
12.3,0.3,141
12.3,0.45,116
12.3,0.6,101
12.3,0.75,100
12.3,0.9,99
12.3,1.05,81
12.3,1.2,81
12.3,1.35,81
12.3,1.5,81
12.45,-1.5,97
12.45,-1.35,97
12.45,-1.2,97
12.45,-1.05,97
12.45,-0.9,97
12.45,-0.75,97
12.45,-0.6,98
12.45,-0.45,98
12.45,-0.3,109
12.45,-0.15,109
12.45,0.0,108
12.45,0.15,142
12.45,0.3,141
12.45,0.45,102
12.45,0.6,101
12.45,0.75,99
12.45,0.9,98
12.45,1.05,97
12.45,1.2,97
12.45,1.35,97
12.45,1.5,81
12.6,-1.5,97
12.6,-1.35,97
12.6,-1.2,97
12.6,-1.05,97
12.6,-0.9,97
12.6,-0.75,97
12.6,-0.6,97
12.6,-0.45,98
12.6,-0.3,98
12.6,-0.15,109
12.6,0.0,108
12.6,0.15,141
12.6,0.3,103
12.6,0.45,102
12.6,0.6,100
12.6,0.75,99
12.6,0.9,98
12.6,1.05,97
12.6,1.2,97
12.6,1.35,97
12.6,1.5,97
12.75,-1.5,97
12.75,-1.35,97
12.75,-1.2,97
12.75,-1.05,97
12.75,-0.9,97
12.75,-0.75,97
12.75,-0.6,97
12.75,-0.45,98
12.75,-0.3,98
12.75,-0.15,98
12.75,0.0,109
12.75,0.15,104
12.75,0.3,103
12.75,0.45,101
12.75,0.6,100
12.75,0.75,98
12.75,0.9,97
12.75,1.05,97
12.75,1.2,97
12.75,1.35,97
12.75,1.5,97
12.9,-1.5,97
12.9,-1.35,97
12.9,-1.2,97
12.9,-1.05,97
12.9,-0.9,97
12.9,-0.75,97
12.9,-0.6,97
12.9,-0.45,97
12.9,-0.3,97
12.9,-0.15,97
12.9,0.0,109
12.9,0.15,73
12.9,0.3,102
12.9,0.45,101
12.9,0.6,99
12.9,0.75,98
12.9,0.9,97
12.9,1.05,97
12.9,1.2,97
12.9,1.35,97
12.9,1.5,97
13.05,-1.5,97
13.05,-1.35,97
13.05,-1.2,97
13.05,-1.05,97
13.05,-0.9,97
13.05,-0.75,97
13.05,-0.6,97
13.05,-0.45,97
13.05,-0.3,97
13.05,-0.15,97
13.05,0.0,63
13.05,0.15,74
13.05,0.3,102
13.05,0.45,101
13.05,0.6,99
13.05,0.75,98
13.05,0.9,97
13.05,1.05,97
13.05,1.2,97
13.05,1.35,97
13.05,1.5,97
