-3.0,-1.5,93
-3.0,-1.35,93
-3.0,-1.2,93
-3.0,-1.05,93
-3.0,-0.9,83
-3.0,-0.75,83
-3.0,-0.6,83
-3.0,-0.45,83
-3.0,-0.3,110
-3.0,-0.15,110
-3.0,0.0,110
-3.0,0.15,119
-3.0,0.3,119
-3.0,0.45,119
-3.0,0.6,119
-3.0,0.75,119
-3.0,0.9,119
-3.0,1.05,173
-3.0,1.2,173
-3.0,1.35,173
-3.0,1.5,173
-2.85,-1.5,93
-2.85,-1.35,93
-2.85,-1.2,93
-2.85,-1.05,93
-2.85,-0.9,93
-2.85,-0.75,83
-2.85,-0.6,83
-2.85,-0.45,83
-2.85,-0.3,110
-2.85,-0.15,110
-2.85,0.0,110
-2.85,0.15,119
-2.85,0.3,119
-2.85,0.45,120
-2.85,0.6,120
-2.85,0.75,120
-2.85,0.9,173
-2.85,1.05,173
-2.85,1.2,173
-2.85,1.35,173
-2.85,1.5,173
-2.7,-1.5,93
-2.7,-1.35,93
-2.7,-1.2,93
-2.7,-1.05,93
-2.7,-0.9,93
-2.7,-0.75,93
-2.7,-0.6,93
-2.7,-0.45,84
-2.7,-0.3,110
-2.7,-0.15,111
-2.7,0.0,111
-2.7,0.15,120
-2.7,0.3,120
-2.7,0.45,120
-2.7,0.6,121
-2.7,0.75,174
-2.7,0.9,174
-2.7,1.05,174
-2.7,1.2,174
-2.7,1.35,173
-2.7,1.5,156
-2.55,-1.5,93
-2.55,-1.35,93
-2.55,-1.2,93
-2.55,-1.05,93
-2.55,-0.9,93
-2.55,-0.75,93
-2.55,-0.6,93
-2.55,-0.45,120
-2.55,-0.3,111
-2.55,-0.15,111
-2.55,0.0,111
-2.55,0.15,120
-2.55,0.3,122
-2.55,0.45,122
-2.55,0.6,122
-2.55,0.75,175
-2.55,0.9,175
-2.55,1.05,174
-2.55,1.2,174
-2.55,1.35,174
-2.55,1.5,157
-2.4,-1.5,93
-2.4,-1.35,93
-2.4,-1.2,93
-2.4,-1.05,93
-2.4,-0.9,93
-2.4,-0.75,93
-2.4,-0.6,94
-2.4,-0.45,94
-2.4,-0.3,121
-2.4,-0.15,121
-2.4,0.0,112
-2.4,0.15,122
-2.4,0.3,122
-2.4,0.45,122
-2.4,0.6,122
-2.4,0.75,175
-2.4,0.9,175
-2.4,1.05,175
-2.4,1.2,175
-2.4,1.35,157
-2.4,1.5,157
-2.25,-1.5,93
-2.25,-1.35,93
-2.25,-1.2,93
-2.25,-1.05,93
-2.25,-0.9,93
-2.25,-0.75,93
-2.25,-0.6,94
-2.25,-0.45,94
-2.25,-0.3,121
-2.25,-0.15,122
-2.25,0.0,178
-2.25,0.15,122
-2.25,0.3,122
-2.25,0.45,122
-2.25,0.6,176
-2.25,0.75,176
-2.25,0.9,176
-2.25,1.05,176
-2.25,1.2,175
-2.25,1.35,158
-2.25,1.5,158
-2.1,-1.5,109
-2.1,-1.35,110
-2.1,-1.2,93
-2.1,-1.05,93
-2.1,-0.9,93
-2.1,-0.75,93
-2.1,-0.6,94
-2.1,-0.45,94
-2.1,-0.3,132
-2.1,-0.15,178
-2.1,0.0,178
-2.1,0.15,178
-2.1,0.3,178
-2.1,0.45,122
-2.1,0.6,177
-2.1,0.75,177
-2.1,0.9,176
-2.1,1.05,176
-2.1,1.2,158
-2.1,1.35,158
-2.1,1.5,158
-1.95,-1.5,110
-1.95,-1.35,110
-1.95,-1.2,110
-1.95,-1.05,110
-1.95,-0.9,111
-1.95,-0.75,93
-1.95,-0.6,94
-1.95,-0.45,150
-1.95,-0.3,132
-1.95,-0.15,178
-1.95,0.0,178
-1.95,0.15,178
-1.95,0.3,179
-1.95,0.45,179
-1.95,0.6,178
-1.95,0.75,177
-1.95,0.9,177
-1.95,1.05,177
-1.95,1.2,159
-1.95,1.35,159
-1.95,1.5,159
-1.8,-1.5,110
-1.8,-1.35,111
-1.8,-1.2,111
-1.8,-1.05,111
-1.8,-0.9,111
-1.8,-0.75,111
-1.8,-0.6,150
-1.8,-0.45,189
-1.8,-0.3,189
-1.8,-0.15,178
-1.8,0.0,179
-1.8,0.15,179
-1.8,0.3,179
-1.8,0.45,179
-1.8,0.6,179
-1.8,0.75,188
-1.8,0.9,178
-1.8,1.05,215
-1.8,1.2,169
-1.8,1.35,169
-1.8,1.5,168
-1.65,-1.5,147
-1.65,-1.35,148
-1.65,-1.2,148
-1.65,-1.05,148
-1.65,-0.9,148
-1.65,-0.75,188
-1.65,-0.6,188
-1.65,-0.45,189
-1.65,-0.3,189
-1.65,-0.15,189
-1.65,0.0,189
-1.65,0.15,189
-1.65,0.3,189
-1.65,0.45,189
-1.65,0.6,189
-1.65,0.75,226
-1.65,0.9,226
-1.65,1.05,227
-1.65,1.2,215
-1.65,1.35,169
-1.65,1.5,169
-1.5,-1.5,148
-1.5,-1.35,148
-1.5,-1.2,148
-1.5,-1.05,149
-1.5,-0.9,160
-1.5,-0.75,160
-1.5,-0.6,160
-1.5,-0.45,160
-1.5,-0.3,160
-1.5,-0.15,189
-1.5,0.0,189
-1.5,0.15,189
-1.5,0.3,189
-1.5,0.45,189
-1.5,0.6,189
-1.5,0.75,227
-1.5,0.9,227
-1.5,1.05,226
-1.5,1.2,226
-1.5,1.35,190
-1.5,1.5,169
-1.35,-1.5,148
-1.35,-1.35,148
-1.35,-1.2,149
-1.35,-1.05,160
-1.35,-0.9,160
-1.35,-0.75,160
-1.35,-0.6,160
-1.35,-0.45,160
-1.35,-0.3,160
-1.35,-0.15,161
-1.35,0.0,161
-1.35,0.15,161
-1.35,0.3,161
-1.35,0.45,189
-1.35,0.6,189
-1.35,0.75,227
-1.35,0.9,227
-1.35,1.05,226
-1.35,1.2,190
-1.35,1.35,226
-1.35,1.5,226
-1.2,-1.5,148
-1.2,-1.35,160
-1.2,-1.2,160
-1.2,-1.05,160
-1.2,-0.9,160
-1.2,-0.75,160
-1.2,-0.6,160
-1.2,-0.45,160
-1.2,-0.3,160
-1.2,-0.15,161
-1.2,0.0,161
-1.2,0.15,161
-1.2,0.3,161
-1.2,0.45,161
-1.2,0.6,217
-1.2,0.75,255
-1.2,0.9,226
-1.2,1.05,226
-1.2,1.2,226
-1.2,1.35,226
-1.2,1.5,208
-1.05,-1.5,159
-1.05,-1.35,160
-1.05,-1.2,160
-1.05,-1.05,160
-1.05,-0.9,160
-1.05,-0.75,160
-1.05,-0.6,160
-1.05,-0.45,160
-1.05,-0.3,161
-1.05,-0.15,161
-1.05,0.0,160
-1.05,0.15,132
-1.05,0.3,160
-1.05,0.45,189
-1.05,0.6,188
-1.05,0.75,207
-1.05,0.9,207
-1.05,1.05,207
-1.05,1.2,226
-1.05,1.35,226
-1.05,1.5,226
-0.9,-1.5,167
-0.9,-1.35,159
-0.9,-1.2,197
-0.9,-1.05,197
-0.9,-0.9,160
-0.9,-0.75,160
-0.9,-0.6,160
-0.9,-0.45,160
-0.9,-0.3,160
-0.9,-0.15,161
-0.9,0.0,161
-0.9,0.15,161
-0.9,0.3,189
-0.9,0.45,189
-0.9,0.6,189
-0.9,0.75,207
-0.9,0.9,207
-0.9,1.05,207
-0.9,1.2,207
-0.9,1.35,207
-0.9,1.5,197
-0.75,-1.5,196
-0.75,-1.35,168
-0.75,-1.2,168
-0.75,-1.05,206
-0.75,-0.9,197
-0.75,-0.75,160
-0.75,-0.6,160
-0.75,-0.45,160
-0.75,-0.3,160
-0.75,-0.15,161
-0.75,0.0,161
-0.75,0.15,198
-0.75,0.3,198
-0.75,0.45,198
-0.75,0.6,208
-0.75,0.75,208
-0.75,0.9,207
-0.75,1.05,188
-0.75,1.2,188
-0.75,1.35,197
-0.75,1.5,197
-0.6,-1.5,177
-0.6,-1.35,177
-0.6,-1.2,178
-0.6,-1.05,187
-0.6,-0.9,188
-0.6,-0.75,197
-0.6,-0.6,197
-0.6,-0.45,197
-0.6,-0.3,197
-0.6,-0.15,189
-0.6,0.0,189
-0.6,0.15,189
-0.6,0.3,198
-0.6,0.45,198
-0.6,0.6,208
-0.6,0.75,208
-0.6,0.9,198
-0.6,1.05,198
-0.6,1.2,198
-0.6,1.35,198
-0.6,1.5,197
-0.45,-1.5,159
-0.45,-1.35,141
-0.45,-1.2,141
-0.45,-1.05,141
-0.45,-0.9,178
-0.45,-0.75,141
-0.45,-0.6,179
-0.45,-0.45,179
-0.45,-0.3,189
-0.45,-0.15,189
-0.45,0.0,189
-0.45,0.15,217
-0.45,0.3,217
-0.45,0.45,217
-0.45,0.6,227
-0.45,0.75,198
-0.45,0.9,198
-0.45,1.05,180
-0.45,1.2,179
-0.45,1.35,123
-0.45,1.5,123
-0.3,-1.5,159
-0.3,-1.35,159
-0.3,-1.2,150
-0.3,-1.05,151
-0.3,-0.9,169
-0.3,-0.75,169
-0.3,-0.6,170
-0.3,-0.45,179
-0.3,-0.3,179
-0.3,-0.15,179
-0.3,0.0,207
-0.3,0.15,198
-0.3,0.3,208
-0.3,0.45,217
-0.3,0.6,217
-0.3,0.75,217
-0.3,0.9,179
-0.3,1.05,179
-0.3,1.2,179
-0.3,1.35,179
-0.3,1.5,178
-0.15,-1.5,150
-0.15,-1.35,150
-0.15,-1.2,150
-0.15,-1.05,150
-0.15,-0.9,132
-0.15,-0.75,169
-0.15,-0.6,170
-0.15,-0.45,170
-0.15,-0.3,179
-0.15,-0.15,179
-0.15,0.0,170
-0.15,0.15,217
-0.15,0.3,208
-0.15,0.45,208
-0.15,0.6,151
-0.15,0.75,160
-0.15,0.9,160
-0.15,1.05,160
-0.15,1.2,160
-0.15,1.35,160
-0.15,1.5,160
0.0,-1.5,123
0.0,-1.35,123
0.0,-1.2,123
0.0,-1.05,85
0.0,-0.9,85
0.0,-0.75,85
0.0,-0.6,85
0.0,-0.45,85
0.0,-0.3,123
0.0,-0.15,132
0.0,0.0,180
0.0,0.15,104
0.0,0.3,142
0.0,0.45,123
0.0,0.6,123
0.0,0.75,123
0.0,0.9,123
0.0,1.05,123
0.0,1.2,123
0.0,1.35,123
0.0,1.5,123
0.15,-1.5,114
0.15,-1.35,114
0.15,-1.2,123
0.15,-1.05,123
0.15,-0.9,95
0.15,-0.75,95
0.15,-0.6,95
0.15,-0.45,95
0.15,-0.3,95
0.15,-0.15,123
0.15,0.0,123
0.15,0.15,114
0.15,0.3,95
0.15,0.45,114
0.15,0.6,114
0.15,0.75,123
0.15,0.9,123
0.15,1.05,151
0.15,1.2,151
0.15,1.35,123
0.15,1.5,113
0.3,-1.5,114
0.3,-1.35,123
0.3,-1.2,123
0.3,-1.05,114
0.3,-0.9,123
0.3,-0.75,86
0.3,-0.6,86
0.3,-0.45,85
0.3,-0.3,85
0.3,-0.15,85
0.3,0.0,85
0.3,0.15,85
0.3,0.3,57
0.3,0.45,66
0.3,0.6,66
0.3,0.75,123
0.3,0.9,123
0.3,1.05,123
0.3,1.2,113
0.3,1.35,114
0.3,1.5,113
0.45,-1.5,86
0.45,-1.35,86
0.45,-1.2,86
0.45,-1.05,86
0.45,-0.9,86
0.45,-0.75,114
0.45,-0.6,85
0.45,-0.45,85
0.45,-0.3,85
0.45,-0.15,85
0.45,0.0,85
0.45,0.15,85
0.45,0.3,48
0.45,0.45,85
0.45,0.6,76
0.45,0.75,85
0.45,0.9,123
0.45,1.05,85
0.45,1.2,85
0.45,1.35,86
0.45,1.5,86
0.6,-1.5,77
0.6,-1.35,77
0.6,-1.2,77
0.6,-1.05,86
0.6,-0.9,86
0.6,-0.75,86
0.6,-0.6,86
0.6,-0.45,57
0.6,-0.3,85
0.6,-0.15,85
0.6,0.0,95
0.6,0.15,95
0.6,0.3,85
0.6,0.45,57
0.6,0.6,57
0.6,0.75,57
0.6,0.9,66
0.6,1.05,113
0.6,1.2,95
0.6,1.35,95
0.6,1.5,95
0.75,-1.5,86
0.75,-1.35,86
0.75,-1.2,86
0.75,-1.05,86
0.75,-0.9,86
0.75,-0.75,86
0.75,-0.6,86
0.75,-0.45,95
0.75,-0.3,57
0.75,-0.15,57
0.75,0.0,57
0.75,0.15,57
0.75,0.3,104
0.75,0.45,57
0.75,0.6,95
0.75,0.75,95
0.75,0.9,94
0.75,1.05,104
0.75,1.2,104
0.75,1.35,104
0.75,1.5,103
0.9,-1.5,77
0.9,-1.35,77
0.9,-1.2,86
0.9,-1.05,86
0.9,-0.9,86
0.9,-0.75,86
0.9,-0.6,86
0.9,-0.45,86
0.9,-0.3,85
0.9,-0.15,66
0.9,0.0,114
0.9,0.15,85
0.9,0.3,114
0.9,0.45,95
0.9,0.6,95
0.9,0.75,94
0.9,0.9,94
0.9,1.05,94
0.9,1.2,94
0.9,1.35,94
0.9,1.5,94
1.05,-1.5,77
1.05,-1.35,77
1.05,-1.2,86
1.05,-1.05,86
1.05,-0.9,86
1.05,-0.75,86
1.05,-0.6,95
1.05,-0.45,95
1.05,-0.3,76
1.05,-0.15,95
1.05,0.0,66
1.05,0.15,76
1.05,0.3,95
1.05,0.45,104
1.05,0.6,104
1.05,0.75,95
1.05,0.9,94
1.05,1.05,85
1.05,1.2,85
1.05,1.35,85
1.05,1.5,75
1.2,-1.5,67
1.2,-1.35,58
1.2,-1.2,58
1.2,-1.05,67
1.2,-0.9,58
1.2,-0.75,58
1.2,-0.6,58
1.2,-0.45,38
1.2,-0.3,38
1.2,-0.15,38
1.2,0.0,76
1.2,0.15,67
1.2,0.3,104
1.2,0.45,104
1.2,0.6,95
1.2,0.75,95
1.2,0.9,85
1.2,1.05,85
1.2,1.2,85
1.2,1.35,85
1.2,1.5,75
1.35,-1.5,58
1.35,-1.35,58
1.35,-1.2,58
1.35,-1.05,29
1.35,-0.9,29
1.35,-0.75,29
1.35,-0.6,29
1.35,-0.45,48
1.35,-0.3,48
1.35,-0.15,48
1.35,0.0,66
1.35,0.15,76
1.35,0.3,85
1.35,0.45,114
1.35,0.6,95
1.35,0.75,104
1.35,0.9,104
1.35,1.05,104
1.35,1.2,104
1.35,1.35,113
1.35,1.5,66
1.5,-1.5,77
1.5,-1.35,77
1.5,-1.2,39
1.5,-1.05,29
1.5,-0.9,29
1.5,-0.75,67
1.5,-0.6,67
1.5,-0.45,38
1.5,-0.3,48
1.5,-0.15,19
1.5,0.0,29
1.5,0.15,76
1.5,0.3,95
1.5,0.45,85
1.5,0.6,76
1.5,0.75,104
1.5,0.9,85
1.5,1.05,85
1.5,1.2,104
1.5,1.35,104
1.5,1.5,104
1.65,-1.5,86
1.65,-1.35,86
1.65,-1.2,123
1.65,-1.05,86
1.65,-0.9,76
1.65,-0.75,86
1.65,-0.6,95
1.65,-0.45,95
1.65,-0.3,76
1.65,-0.15,48
1.65,0.0,19
1.65,0.15,29
1.65,0.3,29
1.65,0.45,104
1.65,0.6,95
1.65,0.75,85
1.65,0.9,85
1.65,1.05,122
1.65,1.2,113
1.65,1.35,113
1.65,1.5,113
1.8,-1.5,87
1.8,-1.35,87
1.8,-1.2,87
1.8,-1.05,114
1.8,-0.9,86
1.8,-0.75,86
1.8,-0.6,86
1.8,-0.45,86
1.8,-0.3,48
1.8,-0.15,48
1.8,0.0,38
1.8,0.15,19
1.8,0.3,104
1.8,0.45,114
1.8,0.6,142
1.8,0.75,132
1.8,0.9,142
1.8,1.05,141
1.8,1.2,151
1.8,1.35,150
1.8,1.5,141
1.95,-1.5,78
1.95,-1.35,105
1.95,-1.2,114
1.95,-1.05,114
1.95,-0.9,114
1.95,-0.75,85
1.95,-0.6,48
1.95,-0.45,57
1.95,-0.3,57
1.95,-0.15,57
1.95,0.0,57
1.95,0.15,95
1.95,0.3,104
1.95,0.45,151
1.95,0.6,151
1.95,0.75,142
1.95,0.9,132
1.95,1.05,141
1.95,1.2,141
1.95,1.35,141
1.95,1.5,141
2.1,-1.5,68
2.1,-1.35,68
2.1,-1.2,68
2.1,-1.05,105
2.1,-0.9,76
2.1,-0.75,76
2.1,-0.6,47
2.1,-0.45,38
2.1,-0.3,48
2.1,-0.15,48
2.1,0.0,57
2.1,0.15,104
2.1,0.3,104
2.1,0.45,142
2.1,0.6,132
2.1,0.75,161
2.1,0.9,142
2.1,1.05,142
2.1,1.2,142
2.1,1.35,141
2.1,1.5,141
2.25,-1.5,59
2.25,-1.35,59
2.25,-1.2,30
2.25,-1.05,67
2.25,-0.9,67
2.25,-0.75,67
2.25,-0.6,67
2.25,-0.45,38
2.25,-0.3,38
2.25,-0.15,57
2.25,0.0,170
2.25,0.15,123
2.25,0.3,142
2.25,0.45,104
2.25,0.6,123
2.25,0.75,170
2.25,0.9,170
2.25,1.05,170
2.25,1.2,170
2.25,1.35,170
2.25,1.5,170
2.4,-1.5,49
2.4,-1.35,49
2.4,-1.2,48
2.4,-1.05,48
2.4,-0.9,58
2.4,-0.75,67
2.4,-0.6,67
2.4,-0.45,48
2.4,-0.3,48
2.4,-0.15,104
2.4,0.0,151
2.4,0.15,170
2.4,0.3,123
2.4,0.45,123
2.4,0.6,161
2.4,0.75,151
2.4,0.9,142
2.4,1.05,179
2.4,1.2,179
2.4,1.35,170
2.4,1.5,170
2.55,-1.5,49
2.55,-1.35,49
2.55,-1.2,48
2.55,-1.05,48
2.55,-0.9,48
2.55,-0.75,48
2.55,-0.6,48
2.55,-0.45,29
2.55,-0.3,29
2.55,-0.15,48
2.55,0.0,133
2.55,0.15,170
2.55,0.3,132
2.55,0.45,76
2.55,0.6,151
2.55,0.75,142
2.55,0.9,132
2.55,1.05,132
2.55,1.2,160
2.55,1.35,160
2.55,1.5,160
2.7,-1.5,21
2.7,-1.35,39
2.7,-1.2,39
2.7,-1.05,58
2.7,-0.9,58
2.7,-0.75,58
2.7,-0.6,57
2.7,-0.45,29
2.7,-0.3,38
2.7,-0.15,57
2.7,0.0,67
2.7,0.15,76
2.7,0.3,38
2.7,0.45,76
2.7,0.6,142
2.7,0.75,142
2.7,0.9,142
2.7,1.05,142
2.7,1.2,123
2.7,1.35,142
2.7,1.5,141
2.85,-1.5,21
2.85,-1.35,21
2.85,-1.2,20
2.85,-1.05,11
2.85,-0.9,20
2.85,-0.75,29
2.85,-0.6,48
2.85,-0.45,29
2.85,-0.3,38
2.85,-0.15,48
2.85,0.0,38
2.85,0.15,38
2.85,0.3,29
2.85,0.45,67
2.85,0.6,114
2.85,0.75,104
2.85,0.9,151
2.85,1.05,151
2.85,1.2,151
2.85,1.35,142
2.85,1.5,141
3.0,-1.5,11
3.0,-1.35,11
3.0,-1.2,11
3.0,-1.05,20
3.0,-0.9,20
3.0,-0.75,39
3.0,-0.6,39
3.0,-0.45,10
3.0,-0.3,1
3.0,-0.15,1
3.0,0.0,76
3.0,0.15,104
3.0,0.3,48
3.0,0.45,38
3.0,0.6,48
3.0,0.75,85
3.0,0.9,85
3.0,1.05,85
3.0,1.2,85
3.0,1.35,113
3.0,1.5,113
3.15,-1.5,49
3.15,-1.35,49
3.15,-1.2,49
3.15,-1.05,58
3.15,-0.9,58
3.15,-0.75,48
3.15,-0.6,48
3.15,-0.45,38
3.15,-0.3,1
3.15,-0.15,38
3.15,0.0,123
3.15,0.15,104
3.15,0.3,38
3.15,0.45,38
3.15,0.6,38
3.15,0.75,38
3.15,0.9,19
3.15,1.05,19
3.15,1.2,48
3.15,1.35,48
3.15,1.5,76
3.3,-1.5,49
3.3,-1.35,49
3.3,-1.2,39
3.3,-1.05,39
3.3,-0.9,39
3.3,-0.75,29
3.3,-0.6,19
3.3,-0.45,19
3.3,-0.3,19
3.3,-0.15,67
3.3,0.0,123
3.3,0.15,151
3.3,0.3,76
3.3,0.45,10
3.3,0.6,29
3.3,0.75,29
3.3,0.9,10
3.3,1.05,10
3.3,1.2,10
3.3,1.35,10
3.3,1.5,47
3.45,-1.5,86
3.45,-1.35,86
3.45,-1.2,86
3.45,-1.05,48
3.45,-0.9,48
3.45,-0.75,29
3.45,-0.6,29
3.45,-0.45,29
3.45,-0.3,29
3.45,-0.15,38
3.45,0.0,48
3.45,0.15,85
3.45,0.3,76
3.45,0.45,38
3.45,0.6,48
3.45,0.75,48
3.45,0.9,29
3.45,1.05,19
3.45,1.2,19
3.45,1.35,1
3.45,1.5,1
3.6,-1.5,105
3.6,-1.35,96
3.6,-1.2,114
3.6,-1.05,114
3.6,-0.9,76
3.6,-0.75,76
3.6,-0.6,66
3.6,-0.45,29
3.6,-0.3,19
3.6,-0.15,29
3.6,0.0,10
3.6,0.15,67
3.6,0.3,95
3.6,0.45,104
3.6,0.6,48
3.6,0.75,48
3.6,0.9,48
3.6,1.05,38
3.6,1.2,1
3.6,1.35,0
3.6,1.5,0
3.75,-1.5,143
3.75,-1.35,114
3.75,-1.2,85
3.75,-1.05,123
3.75,-0.9,123
3.75,-0.75,123
3.75,-0.6,123
3.75,-0.45,85
3.75,-0.3,85
3.75,-0.15,48
3.75,0.0,1
3.75,0.15,66
3.75,0.3,142
3.75,0.45,132
3.75,0.6,123
3.75,0.75,76
3.75,0.9,38
3.75,1.05,38
3.75,1.2,10
3.75,1.35,10
3.75,1.5,10
3.9,-1.5,123
3.9,-1.35,123
3.9,-1.2,123
3.9,-1.05,132
3.9,-0.9,132
3.9,-0.75,132
3.9,-0.6,132
3.9,-0.45,123
3.9,-0.3,123
3.9,-0.15,189
3.9,0.0,38
3.9,0.15,67
3.9,0.3,76
3.9,0.45,76
3.9,0.6,38
3.9,0.75,38
3.9,0.9,48
3.9,1.05,38
3.9,1.2,38
3.9,1.35,38
3.9,1.5,10
4.05,-1.5,133
4.05,-1.35,133
4.05,-1.2,133
4.05,-1.05,133
4.05,-0.9,123
4.05,-0.75,123
4.05,-0.6,123
4.05,-0.45,132
4.05,-0.3,151
4.05,-0.15,123
4.05,0.0,104
4.05,0.15,38
4.05,0.3,19
4.05,0.45,67
4.05,0.6,38
4.05,0.75,38
4.05,0.9,38
4.05,1.05,38
4.05,1.2,47
4.05,1.35,47
4.05,1.5,29
4.2,-1.5,133
4.2,-1.35,133
4.2,-1.2,133
4.2,-1.05,133
4.2,-0.9,152
4.2,-0.75,151
4.2,-0.6,114
4.2,-0.45,114
4.2,-0.3,57
4.2,-0.15,123
4.2,0.0,48
4.2,0.15,10
4.2,0.3,67
4.2,0.45,66
4.2,0.6,48
4.2,0.75,48
4.2,0.9,57
4.2,1.05,66
4.2,1.2,29
4.2,1.35,29
4.2,1.5,29
4.35,-1.5,133
4.35,-1.35,133
4.35,-1.2,133
4.35,-1.05,133
4.35,-0.9,133
4.35,-0.75,95
4.35,-0.6,67
4.35,-0.45,38
4.35,-0.3,95
4.35,-0.15,161
4.35,0.0,142
4.35,0.15,0
4.35,0.3,132
4.35,0.45,85
4.35,0.6,48
4.35,0.75,38
4.35,0.9,38
4.35,1.05,29
4.35,1.2,29
4.35,1.35,57
4.35,1.5,57
4.5,-1.5,95
4.5,-1.35,95
4.5,-1.2,95
4.5,-1.05,95
4.5,-0.9,95
4.5,-0.75,95
4.5,-0.6,85
4.5,-0.45,76
4.5,-0.3,38
4.5,-0.15,123
4.5,0.0,67
4.5,0.15,76
4.5,0.3,227
4.5,0.45,95
4.5,0.6,95
4.5,0.75,76
4.5,0.9,95
4.5,1.05,57
4.5,1.2,57
4.5,1.35,57
4.5,1.5,94
4.65,-1.5,77
4.65,-1.35,105
4.65,-1.2,142
4.65,-1.05,142
4.65,-0.9,104
4.65,-0.75,104
4.65,-0.6,114
4.65,-0.45,142
4.65,-0.3,104
4.65,-0.15,104
4.65,0.0,57
4.65,0.15,189
4.65,0.3,189
4.65,0.45,95
4.65,0.6,104
4.65,0.75,132
4.65,0.9,95
4.65,1.05,151
4.65,1.2,95
4.65,1.35,104
4.65,1.5,104
4.8,-1.5,67
4.8,-1.35,67
4.8,-1.2,95
4.8,-1.05,95
4.8,-0.9,133
4.8,-0.75,133
4.8,-0.6,133
4.8,-0.45,104
4.8,-0.3,85
4.8,-0.15,142
4.8,0.0,38
4.8,0.15,76
4.8,0.3,123
4.8,0.45,123
4.8,0.6,132
4.8,0.75,180
4.8,0.9,142
4.8,1.05,142
4.8,1.2,142
4.8,1.35,151
4.8,1.5,160
4.95,-1.5,95
4.95,-1.35,58
4.95,-1.2,95
4.95,-1.05,95
4.95,-0.9,95
4.95,-0.75,95
4.95,-0.6,67
4.95,-0.45,104
4.95,-0.3,114
4.95,-0.15,189
4.95,0.0,57
4.95,0.15,0
4.95,0.3,132
4.95,0.45,170
4.95,0.6,198
4.95,0.75,170
4.95,0.9,142
4.95,1.05,142
4.95,1.2,151
4.95,1.35,151
4.95,1.5,151
5.1,-1.5,86
5.1,-1.35,86
5.1,-1.2,95
5.1,-1.05,95
5.1,-0.9,95
5.1,-0.75,57
5.1,-0.6,57
5.1,-0.45,151
5.1,-0.3,161
5.1,-0.15,132
5.1,0.0,76
5.1,0.15,132
5.1,0.3,161
5.1,0.45,132
5.1,0.6,132
5.1,0.75,170
5.1,0.9,132
5.1,1.05,142
5.1,1.2,142
5.1,1.35,142
5.1,1.5,142
5.25,-1.5,114
5.25,-1.35,114
5.25,-1.2,95
5.25,-1.05,95
5.25,-0.9,114
5.25,-0.75,76
5.25,-0.6,85
5.25,-0.45,85
5.25,-0.3,95
5.25,-0.15,114
5.25,0.0,85
5.25,0.15,67
5.25,0.3,76
5.25,0.45,95
5.25,0.6,142
5.25,0.75,189
5.25,0.9,114
5.25,1.05,95
5.25,1.2,95
5.25,1.35,104
5.25,1.5,113
5.4,-1.5,77
5.4,-1.35,76
5.4,-1.2,76
5.4,-1.05,38
5.4,-0.9,38
5.4,-0.75,38
5.4,-0.6,38
5.4,-0.45,85
5.4,-0.3,114
5.4,-0.15,198
5.4,0.0,189
5.4,0.15,142
5.4,0.3,85
5.4,0.45,104
5.4,0.6,142
5.4,0.75,142
5.4,0.9,123
5.4,1.05,123
5.4,1.2,123
5.4,1.35,179
5.4,1.5,151
5.55,-1.5,67
5.55,-1.35,29
5.55,-1.2,48
5.55,-1.05,48
5.55,-0.9,48
5.55,-0.75,48
5.55,-0.6,48
5.55,-0.45,48
5.55,-0.3,76
5.55,-0.15,104
5.55,0.0,104
5.55,0.15,67
5.55,0.3,189
5.55,0.45,95
5.55,0.6,114
5.55,0.75,57
5.55,0.9,85
5.55,1.05,85
5.55,1.2,114
5.55,1.35,123
5.55,1.5,123
5.7,-1.5,19
5.7,-1.35,19
5.7,-1.2,29
5.7,-1.05,29
5.7,-0.9,29
5.7,-0.75,38
5.7,-0.6,76
5.7,-0.45,76
5.7,-0.3,95
5.7,-0.15,151
5.7,0.0,48
5.7,0.15,114
5.7,0.3,114
5.7,0.45,114
5.7,0.6,85
5.7,0.75,29
5.7,0.9,76
5.7,1.05,48
5.7,1.2,76
5.7,1.35,76
5.7,1.5,86
5.85,-1.5,19
5.85,-1.35,29
5.85,-1.2,38
5.85,-1.05,38
5.85,-0.9,0
5.85,-0.75,29
5.85,-0.6,29
5.85,-0.45,57
5.85,-0.3,76
5.85,-0.15,132
5.85,0.0,19
5.85,0.15,114
5.85,0.3,104
5.85,0.45,189
5.85,0.6,161
5.85,0.75,142
5.85,0.9,132
5.85,1.05,161
5.85,1.2,104
5.85,1.35,114
5.85,1.5,114
6.0,-1.5,38
6.0,-1.35,38
6.0,-1.2,38
6.0,-1.05,29
6.0,-0.9,38
6.0,-0.75,38
6.0,-0.6,38
6.0,-0.45,38
6.0,-0.3,66
6.0,-0.15,104
6.0,0.0,76
6.0,0.15,95
6.0,0.3,123
6.0,0.45,161
6.0,0.6,151
6.0,0.75,161
6.0,0.9,161
6.0,1.05,114
6.0,1.2,114
6.0,1.35,114
6.0,1.5,114
6.15,-1.5,38
6.15,-1.35,38
6.15,-1.2,38
6.15,-1.05,38
6.15,-0.9,38
6.15,-0.75,66
6.15,-0.6,29
6.15,-0.45,38
6.15,-0.3,57
6.15,-0.15,114
6.15,0.0,95
6.15,0.15,132
6.15,0.3,236
6.15,0.45,76
6.15,0.6,76
6.15,0.75,161
6.15,0.9,161
6.15,1.05,104
6.15,1.2,104
6.15,1.35,104
6.15,1.5,105
6.3,-1.5,76
6.3,-1.35,38
6.3,-1.2,38
6.3,-1.05,38
6.3,-0.9,38
6.3,-0.75,38
6.3,-0.6,104
6.3,-0.45,104
6.3,-0.3,85
6.3,-0.15,48
6.3,0.0,48
6.3,0.15,38
6.3,0.3,123
6.3,0.45,76
6.3,0.6,123
6.3,0.75,151
6.3,0.9,161
6.3,1.05,161
6.3,1.2,161
6.3,1.35,142
6.3,1.5,114
6.45,-1.5,123
6.45,-1.35,95
6.45,-1.2,85
6.45,-1.05,85
6.45,-0.9,48
6.45,-0.75,48
6.45,-0.6,104
6.45,-0.45,104
6.45,-0.3,104
6.45,-0.15,123
6.45,0.0,57
6.45,0.15,67
6.45,0.3,67
6.45,0.45,132
6.45,0.6,189
6.45,0.75,170
6.45,0.9,189
6.45,1.05,151
6.45,1.2,189
6.45,1.35,152
6.45,1.5,161
6.6,-1.5,104
6.6,-1.35,104
6.6,-1.2,133
6.6,-1.05,95
6.6,-0.9,95
6.6,-0.75,95
6.6,-0.6,95
6.6,-0.45,114
6.6,-0.3,132
6.6,-0.15,76
6.6,0.0,57
6.6,0.15,170
6.6,0.3,1
6.6,0.45,104
6.6,0.6,132
6.6,0.75,142
6.6,0.9,180
6.6,1.05,180
6.6,1.2,180
6.6,1.35,180
6.6,1.5,180
6.75,-1.5,114
6.75,-1.35,114
6.75,-1.2,114
6.75,-1.05,114
6.75,-0.9,95
6.75,-0.75,104
6.75,-0.6,114
6.75,-0.45,114
6.75,-0.3,48
6.75,-0.15,57
6.75,0.0,189
6.75,0.15,170
6.75,0.3,19
6.75,0.45,67
6.75,0.6,123
6.75,0.75,142
6.75,0.9,170
6.75,1.05,180
6.75,1.2,180
6.75,1.35,180
6.75,1.5,199
6.9,-1.5,104
6.9,-1.35,114
6.9,-1.2,114
6.9,-1.05,114
6.9,-0.9,114
6.9,-0.75,76
6.9,-0.6,85
6.9,-0.45,57
6.9,-0.3,38
6.9,-0.15,48
6.9,0.0,114
6.9,0.15,38
6.9,0.3,76
6.9,0.45,67
6.9,0.6,151
6.9,0.75,170
6.9,0.9,180
6.9,1.05,161
6.9,1.2,133
6.9,1.35,133
6.9,1.5,161
7.05,-1.5,86
7.05,-1.35,104
7.05,-1.2,104
7.05,-1.05,86
7.05,-0.9,67
7.05,-0.75,67
7.05,-0.6,66
7.05,-0.45,76
7.05,-0.3,10
7.05,-0.15,85
7.05,0.0,114
7.05,0.15,29
7.05,0.3,67
7.05,0.45,48
7.05,0.6,123
7.05,0.75,151
7.05,0.9,151
7.05,1.05,189
7.05,1.2,208
7.05,1.35,151
7.05,1.5,142
7.2,-1.5,57
7.2,-1.35,57
7.2,-1.2,57
7.2,-1.05,57
7.2,-0.9,57
7.2,-0.75,86
7.2,-0.6,76
7.2,-0.45,19
7.2,-0.3,29
7.2,-0.15,29
7.2,0.0,114
7.2,0.15,29
7.2,0.3,19
7.2,0.45,57
7.2,0.6,132
7.2,0.75,170
7.2,0.9,170
7.2,1.05,170
7.2,1.2,198
7.2,1.35,198
7.2,1.5,161
7.35,-1.5,57
7.35,-1.35,48
7.35,-1.2,57
7.35,-1.05,48
7.35,-0.9,10
7.35,-0.75,67
7.35,-0.6,76
7.35,-0.45,57
7.35,-0.3,57
7.35,-0.15,10
7.35,0.0,161
7.35,0.15,48
7.35,0.3,10
7.35,0.45,76
7.35,0.6,85
7.35,0.75,104
7.35,0.9,104
7.35,1.05,142
7.35,1.2,161
7.35,1.35,170
7.35,1.5,152
7.5,-1.5,1
7.5,-1.35,1
7.5,-1.2,1
7.5,-1.05,67
7.5,-0.9,67
7.5,-0.75,67
7.5,-0.6,67
7.5,-0.45,48
7.5,-0.3,170
7.5,-0.15,29
7.5,0.0,142
7.5,0.15,95
7.5,0.3,38
7.5,0.45,19
7.5,0.6,67
7.5,0.75,85
7.5,0.9,132
7.5,1.05,132
7.5,1.2,123
7.5,1.35,123
7.5,1.5,151
7.65,-1.5,0
7.65,-1.35,1
7.65,-1.2,1
7.65,-1.05,1
7.65,-0.9,1
7.65,-0.75,1
7.65,-0.6,1
7.65,-0.45,1
7.65,-0.3,29
7.65,-0.15,19
7.65,0.0,57
7.65,0.15,189
7.65,0.3,76
7.65,0.45,19
7.65,0.6,38
7.65,0.75,85
7.65,0.9,123
7.65,1.05,123
7.65,1.2,132
7.65,1.35,95
7.65,1.5,95
7.8,-1.5,11
7.8,-1.35,10
7.8,-1.2,10
7.8,-1.05,10
7.8,-0.9,10
7.8,-0.75,38
7.8,-0.6,1
7.8,-0.45,1
7.8,-0.3,76
7.8,-0.15,142
7.8,0.0,48
7.8,0.15,29
7.8,0.3,48
7.8,0.45,67
7.8,0.6,95
7.8,0.75,104
7.8,0.9,57
7.8,1.05,38
7.8,1.2,67
7.8,1.35,67
7.8,1.5,67
7.95,-1.5,11
7.95,-1.35,48
7.95,-1.2,48
7.95,-1.05,48
7.95,-0.9,57
7.95,-0.75,10
7.95,-0.6,19
7.95,-0.45,57
7.95,-0.3,123
7.95,-0.15,104
7.95,0.0,76
7.95,0.15,151
7.95,0.3,67
7.95,0.45,57
7.95,0.6,85
7.95,0.75,48
7.95,0.9,38
7.95,1.05,38
7.95,1.2,38
7.95,1.35,38
7.95,1.5,29
8.1,-1.5,48
8.1,-1.35,48
8.1,-1.2,57
8.1,-1.05,19
8.1,-0.9,19
8.1,-0.75,29
8.1,-0.6,29
8.1,-0.45,76
8.1,-0.3,76
8.1,-0.15,57
8.1,0.0,76
8.1,0.15,38
8.1,0.3,19
8.1,0.45,19
8.1,0.6,19
8.1,0.75,19
8.1,0.9,38
8.1,1.05,38
8.1,1.2,38
8.1,1.35,38
8.1,1.5,38
8.25,-1.5,57
8.25,-1.35,19
8.25,-1.2,19
8.25,-1.05,19
8.25,-0.9,29
8.25,-0.75,38
8.25,-0.6,38
8.25,-0.45,38
8.25,-0.3,19
8.25,-0.15,29
8.25,0.0,29
8.25,0.15,19
8.25,0.3,19
8.25,0.45,48
8.25,0.6,57
8.25,0.75,19
8.25,0.9,19
8.25,1.05,29
8.25,1.2,29
8.25,1.35,10
8.25,1.5,10
8.4,-1.5,29
8.4,-1.35,29
8.4,-1.2,38
8.4,-1.05,38
8.4,-0.9,38
8.4,-0.75,57
8.4,-0.6,29
8.4,-0.45,76
8.4,-0.3,38
8.4,-0.15,0
8.4,0.0,67
8.4,0.15,19
8.4,0.3,10
8.4,0.45,85
8.4,0.6,38
8.4,0.75,48
8.4,0.9,48
8.4,1.05,19
8.4,1.2,19
8.4,1.35,1
8.4,1.5,1
8.55,-1.5,0
8.55,-1.35,0
8.55,-1.2,10
8.55,-1.05,10
8.55,-0.9,10
8.55,-0.75,10
8.55,-0.6,66
8.55,-0.45,66
8.55,-0.3,67
8.55,-0.15,38
8.55,0.0,57
8.55,0.15,19
8.55,0.3,19
8.55,0.45,95
8.55,0.6,142
8.55,0.75,104
8.55,0.9,95
8.55,1.05,95
8.55,1.2,85
8.55,1.35,29
8.55,1.5,29
8.7,-1.5,10
8.7,-1.35,10
8.7,-1.2,10
8.7,-1.05,10
8.7,-0.9,10
8.7,-0.75,10
8.7,-0.6,57
8.7,-0.45,76
8.7,-0.3,67
8.7,-0.15,85
8.7,0.0,48
8.7,0.15,95
8.7,0.3,10
8.7,0.45,170
8.7,0.6,198
8.7,0.75,198
8.7,0.9,123
8.7,1.05,123
8.7,1.2,85
8.7,1.35,85
8.7,1.5,29
8.85,-1.5,0
8.85,-1.35,0
8.85,-1.2,19
8.85,-1.05,19
8.85,-0.9,19
8.85,-0.75,19
8.85,-0.6,29
8.85,-0.45,85
8.85,-0.3,132
8.85,-0.15,198
8.85,0.0,104
8.85,0.15,142
8.85,0.3,76
8.85,0.45,161
8.85,0.6,255
8.85,0.75,161
8.85,0.9,123
8.85,1.05,161
8.85,1.2,160
8.85,1.35,123
8.85,1.5,123
9.0,-1.5,0
9.0,-1.35,0
9.0,-1.2,1
9.0,-1.05,1
9.0,-0.9,1
9.0,-0.75,10
9.0,-0.6,38
9.0,-0.45,38
9.0,-0.3,95
9.0,-0.15,132
9.0,0.0,114
9.0,0.15,132
9.0,0.3,104
9.0,0.45,114
9.0,0.6,76
9.0,0.75,85
9.0,0.9,76
9.0,1.05,104
9.0,1.2,66
9.0,1.35,66
9.0,1.5,66
9.15,-1.5,10
9.15,-1.35,10
9.15,-1.2,10
9.15,-1.05,10
9.15,-0.9,1
9.15,-0.75,19
9.15,-0.6,19
9.15,-0.45,29
9.15,-0.3,29
9.15,-0.15,57
9.15,0.0,76
9.15,0.15,67
9.15,0.3,48
9.15,0.45,57
9.15,0.6,48
9.15,0.75,57
9.15,0.9,132
9.15,1.05,132
9.15,1.2,95
9.15,1.35,94
9.15,1.5,66
9.3,-1.5,56
9.3,-1.35,57
9.3,-1.2,66
9.3,-1.05,29
9.3,-0.9,38
9.3,-0.75,38
9.3,-0.6,29
9.3,-0.45,66
9.3,-0.3,114
9.3,-0.15,123
9.3,0.0,114
9.3,0.15,48
9.3,0.3,19
9.3,0.45,67
9.3,0.6,114
9.3,0.75,104
9.3,0.9,95
9.3,1.05,95
9.3,1.2,85
9.3,1.35,85
9.3,1.5,85
9.45,-1.5,66
9.45,-1.35,66
9.45,-1.2,66
9.45,-1.05,66
9.45,-0.9,66
9.45,-0.75,66
9.45,-0.6,142
9.45,-0.45,114
9.45,-0.3,142
9.45,-0.15,161
9.45,0.0,95
9.45,0.15,10
9.45,0.3,19
9.45,0.45,57
9.45,0.6,76
9.45,0.75,95
9.45,0.9,85
9.45,1.05,85
9.45,1.2,95
9.45,1.35,113
9.45,1.5,113
9.6,-1.5,57
9.6,-1.35,57
9.6,-1.2,57
9.6,-1.05,66
9.6,-0.9,66
9.6,-0.75,66
9.6,-0.6,76
9.6,-0.45,123
9.6,-0.3,170
9.6,-0.15,151
9.6,0.0,85
9.6,0.15,48
9.6,0.3,95
9.6,0.45,85
9.6,0.6,76
9.6,0.75,104
9.6,0.9,104
9.6,1.05,132
9.6,1.2,132
9.6,1.35,114
9.6,1.5,114
9.75,-1.5,66
9.75,-1.35,66
9.75,-1.2,66
9.75,-1.05,94
9.75,-0.9,76
9.75,-0.75,76
9.75,-0.6,95
9.75,-0.45,95
9.75,-0.3,114
9.75,-0.15,123
9.75,0.0,85
9.75,0.15,57
9.75,0.3,114
9.75,0.45,104
9.75,0.6,151
9.75,0.75,142
9.75,0.9,133
9.75,1.05,133
9.75,1.2,95
9.75,1.35,95
9.75,1.5,95
9.9,-1.5,85
9.9,-1.35,85
9.9,-1.2,122
9.9,-1.05,160
9.9,-0.9,160
9.9,-0.75,113
9.9,-0.6,95
9.9,-0.45,114
9.9,-0.3,76
9.9,-0.15,104
9.9,0.0,67
9.9,0.15,10
9.9,0.3,57
9.9,0.45,67
9.9,0.6,104
9.9,0.75,132
9.9,0.9,132
9.9,1.05,95
9.9,1.2,132
9.9,1.35,132
9.9,1.5,95
10.05,-1.5,122
10.05,-1.35,122
10.05,-1.2,122
10.05,-1.05,123
10.05,-0.9,141
10.05,-0.75,160
10.05,-0.6,161
10.05,-0.45,189
10.05,-0.3,85
10.05,-0.15,29
10.05,0.0,29
10.05,0.15,57
10.05,0.3,10
10.05,0.45,85
10.05,0.6,132
10.05,0.75,123
10.05,0.9,142
10.05,1.05,123
10.05,1.2,123
10.05,1.35,123
10.05,1.5,94
10.2,-1.5,141
10.2,-1.35,132
10.2,-1.2,141
10.2,-1.05,141
10.2,-0.9,132
10.2,-0.75,132
10.2,-0.6,142
10.2,-0.45,170
10.2,-0.3,132
10.2,-0.15,85
10.2,0.0,95
10.2,0.15,95
10.2,0.3,85
10.2,0.45,76
10.2,0.6,85
10.2,0.75,142
10.2,0.9,104
10.2,1.05,104
10.2,1.2,104
10.2,1.35,104
10.2,1.5,104
10.35,-1.5,141
10.35,-1.35,141
10.35,-1.2,141
10.35,-1.05,141
10.35,-0.9,141
10.35,-0.75,132
10.35,-0.6,114
10.35,-0.45,151
10.35,-0.3,132
10.35,-0.15,132
10.35,0.0,151
10.35,0.15,151
10.35,0.3,142
10.35,0.45,95
10.35,0.6,132
10.35,0.75,170
10.35,0.9,170
10.35,1.05,132
10.35,1.2,132
10.35,1.35,132
10.35,1.5,132
10.5,-1.5,141
10.5,-1.35,141
10.5,-1.2,113
10.5,-1.05,113
10.5,-0.9,123
10.5,-0.75,123
10.5,-0.6,123
10.5,-0.45,95
10.5,-0.3,114
10.5,-0.15,170
10.5,0.0,217
10.5,0.15,161
10.5,0.3,151
10.5,0.45,180
10.5,0.6,170
10.5,0.75,132
10.5,0.9,170
10.5,1.05,170
10.5,1.2,170
10.5,1.35,170
10.5,1.5,169
10.65,-1.5,85
10.65,-1.35,85
10.65,-1.2,85
10.65,-1.05,85
10.65,-0.9,57
10.65,-0.75,104
10.65,-0.6,132
10.65,-0.45,104
10.65,-0.3,161
10.65,-0.15,217
10.65,0.0,151
10.65,0.15,217
10.65,0.3,123
10.65,0.45,114
10.65,0.6,114
10.65,0.75,142
10.65,0.9,142
10.65,1.05,142
10.65,1.2,142
10.65,1.35,141
10.65,1.5,141
10.8,-1.5,57
10.8,-1.35,57
10.8,-1.2,57
10.8,-1.05,104
10.8,-0.9,104
10.8,-0.75,132
10.8,-0.6,132
10.8,-0.45,132
10.8,-0.3,161
10.8,-0.15,198
10.8,0.0,151
10.8,0.15,161
10.8,0.3,189
10.8,0.45,151
10.8,0.6,161
10.8,0.75,151
10.8,0.9,151
10.8,1.05,151
10.8,1.2,113
10.8,1.35,151
10.8,1.5,151
10.95,-1.5,57
10.95,-1.35,95
10.95,-1.2,95
10.95,-1.05,94
10.95,-0.9,94
10.95,-0.75,95
10.95,-0.6,104
10.95,-0.45,142
10.95,-0.3,170
10.95,-0.15,217
10.95,0.0,179
10.95,0.15,123
10.95,0.3,170
10.95,0.45,151
10.95,0.6,142
10.95,0.75,132
10.95,0.9,170
10.95,1.05,142
10.95,1.2,104
10.95,1.35,104
10.95,1.5,104
11.1,-1.5,85
11.1,-1.35,85
11.1,-1.2,113
11.1,-1.05,113
11.1,-0.9,114
11.1,-0.75,104
11.1,-0.6,104
11.1,-0.45,142
11.1,-0.3,142
11.1,-0.15,132
11.1,0.0,85
11.1,0.15,142
11.1,0.3,142
11.1,0.45,142
11.1,0.6,132
11.1,0.75,151
11.1,0.9,151
11.1,1.05,142
11.1,1.2,141
11.1,1.35,141
11.1,1.5,141
11.25,-1.5,114
11.25,-1.35,114
11.25,-1.2,114
11.25,-1.05,151
11.25,-0.9,123
11.25,-0.75,123
11.25,-0.6,132
11.25,-0.45,132
11.25,-0.3,85
11.25,-0.15,114
11.25,0.0,104
11.25,0.15,142
11.25,0.3,151
11.25,0.45,179
11.25,0.6,142
11.25,0.75,142
11.25,0.9,142
11.25,1.05,151
11.25,1.2,151
11.25,1.35,151
11.25,1.5,179
11.4,-1.5,133
11.4,-1.35,142
11.4,-1.2,142
11.4,-1.05,142
11.4,-0.9,114
11.4,-0.75,170
11.4,-0.6,142
11.4,-0.45,142
11.4,-0.3,123
11.4,-0.15,95
11.4,0.0,132
11.4,0.15,104
11.4,0.3,180
11.4,0.45,217
11.4,0.6,217
11.4,0.75,179
11.4,0.9,170
11.4,1.05,170
11.4,1.2,170
11.4,1.35,170
11.4,1.5,170
11.55,-1.5,142
11.55,-1.35,161
11.55,-1.2,161
11.55,-1.05,161
11.55,-0.9,161
11.55,-0.75,161
11.55,-0.6,161
11.55,-0.45,161
11.55,-0.3,142
11.55,-0.15,142
11.55,0.0,132
11.55,0.15,161
11.55,0.3,198
11.55,0.45,246
11.55,0.6,245
11.55,0.75,217
11.55,0.9,208
11.55,1.05,208
11.55,1.2,198
11.55,1.35,170
11.55,1.5,170
11.7,-1.5,170
11.7,-1.35,170
11.7,-1.2,170
11.7,-1.05,161
11.7,-0.9,189
11.7,-0.75,189
11.7,-0.6,189
11.7,-0.45,198
11.7,-0.3,208
11.7,-0.15,132
11.7,0.0,151
11.7,0.15,199
11.7,0.3,236
11.7,0.45,236
11.7,0.6,246
11.7,0.75,246
11.7,0.9,246
11.7,1.05,245
11.7,1.2,208
11.7,1.35,198
11.7,1.5,198
11.85,-1.5,170
11.85,-1.35,170
11.85,-1.2,180
11.85,-1.05,180
11.85,-0.9,189
11.85,-0.75,217
11.85,-0.6,189
11.85,-0.45,189
11.85,-0.3,236
11.85,-0.15,255
11.85,0.0,255
11.85,0.15,227
11.85,0.3,217
11.85,0.45,198
11.85,0.6,198
11.85,0.75,208
11.85,0.9,208
11.85,1.05,189
11.85,1.2,198
11.85,1.35,198
11.85,1.5,159
12.0,-1.5,197
12.0,-1.35,198
12.0,-1.2,217
12.0,-1.05,217
12.0,-0.9,217
12.0,-0.75,255
12.0,-0.6,255
12.0,-0.45,255
12.0,-0.3,245
12.0,-0.15,255
12.0,0.0,255
12.0,0.15,255
12.0,0.3,236
12.0,0.45,189
12.0,0.6,179
12.0,0.75,179
12.0,0.9,179
12.0,1.05,189
12.0,1.2,189
12.0,1.35,178
12.0,1.5,178
12.15,-1.5,197
12.15,-1.35,197
12.15,-1.2,170
12.15,-1.05,142
12.15,-0.9,142
12.15,-0.75,227
12.15,-0.6,245
12.15,-0.45,255
12.15,-0.3,245
12.15,-0.15,236
12.15,0.0,255
12.15,0.15,255
12.15,0.3,189
12.15,0.45,170
12.15,0.6,189
12.15,0.75,179
12.15,0.9,179
12.15,1.05,179
12.15,1.2,169
12.15,1.35,169
12.15,1.5,168
12.3,-1.5,141
12.3,-1.35,141
12.3,-1.2,132
12.3,-1.05,142
12.3,-0.9,133
12.3,-0.75,133
12.3,-0.6,133
12.3,-0.45,142
12.3,-0.3,227
12.3,-0.15,198
12.3,0.0,132
12.3,0.15,179
12.3,0.3,179
12.3,0.45,142
12.3,0.6,142
12.3,0.75,179
12.3,0.9,179
12.3,1.05,141
12.3,1.2,141
12.3,1.35,141
12.3,1.5,168
12.45,-1.5,141
12.45,-1.35,160
12.45,-1.2,132
12.45,-1.05,123
12.45,-0.9,123
12.45,-0.75,123
12.45,-0.6,85
12.45,-0.45,76
12.45,-0.3,76
12.45,-0.15,95
12.45,0.0,95
12.45,0.15,67
12.45,0.3,67
12.45,0.45,142
12.45,0.6,151
12.45,0.75,151
12.45,0.9,178
12.45,1.05,178
12.45,1.2,140
12.45,1.35,140
12.45,1.5,140
12.6,-1.5,122
12.6,-1.35,122
12.6,-1.2,122
12.6,-1.05,85
12.6,-0.9,104
12.6,-0.75,104
12.6,-0.6,67
12.6,-0.45,48
12.6,-0.3,66
12.6,-0.15,38
12.6,0.0,29
12.6,0.15,19
12.6,0.3,67
12.6,0.45,67
12.6,0.6,114
12.6,0.75,113
12.6,0.9,150
12.6,1.05,150
12.6,1.2,140
12.6,1.35,140
12.6,1.5,140
12.75,-1.5,113
12.75,-1.35,103
12.75,-1.2,75
12.75,-1.05,94
12.75,-0.9,57
12.75,-0.75,38
12.75,-0.6,29
12.75,-0.45,29
12.75,-0.3,19
12.75,-0.15,19
12.75,0.0,29
12.75,0.15,10
12.75,0.3,1
12.75,0.45,66
12.75,0.6,66
12.75,0.75,75
12.75,0.9,113
12.75,1.05,112
12.75,1.2,149
12.75,1.35,149
12.75,1.5,149
12.9,-1.5,75
12.9,-1.35,75
12.9,-1.2,38
12.9,-1.05,29
12.9,-0.9,29
12.9,-0.75,29
12.9,-0.6,29
12.9,-0.45,29
12.9,-0.3,19
12.9,-0.15,1
12.9,0.0,19
12.9,0.15,10
12.9,0.3,10
12.9,0.45,10
12.9,0.6,38
12.9,0.75,38
12.9,0.9,75
12.9,1.05,112
12.9,1.2,112
12.9,1.35,148
12.9,1.5,148
13.05,-1.5,66
13.05,-1.35,29
13.05,-1.2,29
13.05,-1.05,29
13.05,-0.9,29
13.05,-0.75,29
13.05,-0.6,29
13.05,-0.45,29
13.05,-0.3,29
13.05,-0.15,1
13.05,0.0,19
13.05,0.15,19
13.05,0.3,19
13.05,0.45,10
13.05,0.6,10
13.05,0.75,38
13.05,0.9,38
13.05,1.05,38
13.05,1.2,75
13.05,1.35,111
13.05,1.5,111
