-3.0,-1.5,52
-3.0,-1.35,52
-3.0,-1.2,52
-3.0,-1.05,52
-3.0,-0.9,52
-3.0,-0.75,52
-3.0,-0.6,52
-3.0,-0.45,52
-3.0,-0.3,51
-3.0,-0.15,51
-3.0,0.0,51
-3.0,0.15,42
-3.0,0.3,75
-3.0,0.45,75
-3.0,0.6,75
-3.0,0.75,75
-3.0,0.9,75
-3.0,1.05,75
-3.0,1.2,82
-3.0,1.35,82
-3.0,1.5,82
-2.85,-1.5,53
-2.85,-1.35,53
-2.85,-1.2,53
-2.85,-1.05,52
-2.85,-0.9,52
-2.85,-0.75,52
-2.85,-0.6,52
-2.85,-0.45,52
-2.85,-0.3,52
-2.85,-0.15,52
-2.85,0.0,43
-2.85,0.15,77
-2.85,0.3,76
-2.85,0.45,76
-2.85,0.6,76
-2.85,0.75,76
-2.85,0.9,83
-2.85,1.05,83
-2.85,1.2,83
-2.85,1.35,82
-2.85,1.5,82
-2.7,-1.5,87
-2.7,-1.35,87
-2.7,-1.2,53
-2.7,-1.05,53
-2.7,-0.9,53
-2.7,-0.75,53
-2.7,-0.6,53
-2.7,-0.45,53
-2.7,-0.3,53
-2.7,-0.15,52
-2.7,0.0,43
-2.7,0.15,78
-2.7,0.3,77
-2.7,0.45,77
-2.7,0.6,85
-2.7,0.75,84
-2.7,0.9,84
-2.7,1.05,84
-2.7,1.2,83
-2.7,1.35,83
-2.7,1.5,83
-2.55,-1.5,88
-2.55,-1.35,88
-2.55,-1.2,88
-2.55,-1.05,53
-2.55,-0.9,53
-2.55,-0.75,53
-2.55,-0.6,53
-2.55,-0.45,53
-2.55,-0.3,53
-2.55,-0.15,53
-2.55,0.0,79
-2.55,0.15,79
-2.55,0.3,86
-2.55,0.45,86
-2.55,0.6,86
-2.55,0.75,85
-2.55,0.9,85
-2.55,1.05,84
-2.55,1.2,84
-2.55,1.35,84
-2.55,1.5,83
-2.4,-1.5,88
-2.4,-1.35,88
-2.4,-1.2,88
-2.4,-1.05,89
-2.4,-0.9,54
-2.4,-0.75,54
-2.4,-0.6,54
-2.4,-0.45,54
-2.4,-0.3,53
-2.4,-0.15,53
-2.4,0.0,88
-2.4,0.15,88
-2.4,0.3,87
-2.4,0.45,87
-2.4,0.6,86
-2.4,0.75,86
-2.4,0.9,86
-2.4,1.05,85
-2.4,1.2,85
-2.4,1.35,84
-2.4,1.5,84
-2.25,-1.5,115
-2.25,-1.35,89
-2.25,-1.2,89
-2.25,-1.05,89
-2.25,-0.9,89
-2.25,-0.75,89
-2.25,-0.6,54
-2.25,-0.45,54
-2.25,-0.3,89
-2.25,-0.15,89
-2.25,0.0,89
-2.25,0.15,89
-2.25,0.3,88
-2.25,0.45,88
-2.25,0.6,87
-2.25,0.75,87
-2.25,0.9,86
-2.25,1.05,86
-2.25,1.2,85
-2.25,1.35,85
-2.25,1.5,60
-2.1,-1.5,116
-2.1,-1.35,116
-2.1,-1.2,116
-2.1,-1.05,90
-2.1,-0.9,90
-2.1,-0.75,90
-2.1,-0.6,63
-2.1,-0.45,99
-2.1,-0.3,90
-2.1,-0.15,90
-2.1,0.0,90
-2.1,0.15,90
-2.1,0.3,89
-2.1,0.45,88
-2.1,0.6,88
-2.1,0.75,88
-2.1,0.9,87
-2.1,1.05,87
-2.1,1.2,60
-2.1,1.35,60
-2.1,1.5,60
-1.95,-1.5,116
-1.95,-1.35,116
-1.95,-1.2,116
-1.95,-1.05,117
-1.95,-0.9,91
-1.95,-0.75,99
-1.95,-0.6,99
-1.95,-0.45,99
-1.95,-0.3,99
-1.95,-0.15,90
-1.95,0.0,90
-1.95,0.15,125
-1.95,0.3,125
-1.95,0.45,89
-1.95,0.6,89
-1.95,0.75,88
-1.95,0.9,88
-1.95,1.05,87
-1.95,1.2,52
-1.95,1.35,52
-1.95,1.5,51
-1.8,-1.5,117
-1.8,-1.35,117
-1.8,-1.2,117
-1.8,-1.05,117
-1.8,-0.9,127
-1.8,-0.75,126
-1.8,-0.6,100
-1.8,-0.45,100
-1.8,-0.3,127
-1.8,-0.15,127
-1.8,0.0,127
-1.8,0.15,126
-1.8,0.3,90
-1.8,0.45,90
-1.8,0.6,89
-1.8,0.75,88
-1.8,0.9,53
-1.8,1.05,87
-1.8,1.2,51
-1.8,1.35,51
-1.8,1.5,77
-1.65,-1.5,117
-1.65,-1.35,118
-1.65,-1.2,153
-1.65,-1.05,153
-1.65,-0.9,154
-1.65,-0.75,154
-1.65,-0.6,154
-1.65,-0.45,127
-1.65,-0.3,154
-1.65,-0.15,154
-1.65,0.0,118
-1.65,0.15,117
-1.65,0.3,125
-1.65,0.45,125
-1.65,0.6,125
-1.65,0.75,88
-1.65,0.9,88
-1.65,1.05,88
-1.65,1.2,52
-1.65,1.35,78
-1.65,1.5,68
-1.5,-1.5,154
-1.5,-1.35,154
-1.5,-1.2,154
-1.5,-1.05,154
-1.5,-0.9,154
-1.5,-0.75,154
-1.5,-0.6,154
-1.5,-0.45,154
-1.5,-0.3,154
-1.5,-0.15,154
-1.5,0.0,154
-1.5,0.15,136
-1.5,0.3,162
-1.5,0.45,162
-1.5,0.6,126
-1.5,0.75,89
-1.5,0.9,89
-1.5,1.05,79
-1.5,1.2,79
-1.5,1.35,69
-1.5,1.5,68
-1.35,-1.5,163
-1.35,-1.35,163
-1.35,-1.2,190
-1.35,-1.05,190
-1.35,-0.9,190
-1.35,-0.75,154
-1.35,-0.6,154
-1.35,-0.45,155
-1.35,-0.3,154
-1.35,-0.15,154
-1.35,0.0,136
-1.35,0.15,136
-1.35,0.3,163
-1.35,0.45,136
-1.35,0.6,126
-1.35,0.75,90
-1.35,0.9,90
-1.35,1.05,80
-1.35,1.2,69
-1.35,1.35,69
-1.35,1.5,95
-1.2,-1.5,190
-1.2,-1.35,190
-1.2,-1.2,190
-1.2,-1.05,190
-1.2,-0.9,191
-1.2,-0.75,182
-1.2,-0.6,155
-1.2,-0.45,182
-1.2,-0.3,155
-1.2,-0.15,155
-1.2,0.0,190
-1.2,0.15,208
-1.2,0.3,181
-1.2,0.45,171
-1.2,0.6,171
-1.2,0.75,135
-1.2,0.9,161
-1.2,1.05,161
-1.2,1.2,107
-1.2,1.35,87
-1.2,1.5,87
-1.05,-1.5,190
-1.05,-1.35,191
-1.05,-1.2,191
-1.05,-1.05,191
-1.05,-0.9,191
-1.05,-0.75,182
-1.05,-0.6,182
-1.05,-0.45,182
-1.05,-0.3,191
-1.05,-0.15,209
-1.05,0.0,209
-1.05,0.15,209
-1.05,0.3,172
-1.05,0.45,162
-1.05,0.6,162
-1.05,0.75,162
-1.05,0.9,189
-1.05,1.05,188
-1.05,1.2,178
-1.05,1.35,178
-1.05,1.5,167
-0.9,-1.5,191
-0.9,-1.35,191
-0.9,-1.2,182
-0.9,-1.05,182
-0.9,-0.9,182
-0.9,-0.75,209
-0.9,-0.6,209
-0.9,-0.45,227
-0.9,-0.3,236
-0.9,-0.15,236
-0.9,0.0,236
-0.9,0.15,200
-0.9,0.3,200
-0.9,0.45,190
-0.9,0.6,190
-0.9,0.75,180
-0.9,0.9,180
-0.9,1.05,180
-0.9,1.2,180
-0.9,1.35,179
-0.9,1.5,178
-0.75,-1.5,182
-0.75,-1.35,182
-0.75,-1.2,182
-0.75,-1.05,200
-0.75,-0.9,227
-0.75,-0.75,227
-0.75,-0.6,227
-0.75,-0.45,255
-0.75,-0.3,255
-0.75,-0.15,255
-0.75,0.0,218
-0.75,0.15,218
-0.75,0.3,209
-0.75,0.45,208
-0.75,0.6,208
-0.75,0.75,208
-0.75,0.9,180
-0.75,1.05,180
-0.75,1.2,180
-0.75,1.35,170
-0.75,1.5,170
-0.6,-1.5,218
-0.6,-1.35,218
-0.6,-1.2,218
-0.6,-1.05,218
-0.6,-0.9,245
-0.6,-0.75,245
-0.6,-0.6,255
-0.6,-0.45,255
-0.6,-0.3,255
-0.6,-0.15,255
-0.6,0.0,218
-0.6,0.15,218
-0.6,0.3,209
-0.6,0.45,208
-0.6,0.6,208
-0.6,0.75,208
-0.6,0.9,172
-0.6,1.05,172
-0.6,1.2,171
-0.6,1.35,171
-0.6,1.5,197
-0.45,-1.5,218
-0.45,-1.35,218
-0.45,-1.2,218
-0.45,-1.05,245
-0.45,-0.9,246
-0.45,-0.75,246
-0.45,-0.6,255
-0.45,-0.45,255
-0.45,-0.3,255
-0.45,-0.15,255
-0.45,0.0,218
-0.45,0.15,209
-0.45,0.3,209
-0.45,0.45,208
-0.45,0.6,208
-0.45,0.75,172
-0.45,0.9,172
-0.45,1.05,198
-0.45,1.2,225
-0.45,1.35,225
-0.45,1.5,225
-0.3,-1.5,191
-0.3,-1.35,191
-0.3,-1.2,191
-0.3,-1.05,246
-0.3,-0.9,246
-0.3,-0.75,255
-0.3,-0.6,255
-0.3,-0.45,255
-0.3,-0.3,255
-0.3,-0.15,255
-0.3,0.0,209
-0.3,0.15,209
-0.3,0.3,209
-0.3,0.45,208
-0.3,0.6,172
-0.3,0.75,199
-0.3,0.9,199
-0.3,1.05,226
-0.3,1.2,225
-0.3,1.35,225
-0.3,1.5,225
-0.15,-1.5,181
-0.15,-1.35,181
-0.15,-1.2,191
-0.15,-1.05,227
-0.15,-0.9,227
-0.15,-0.75,255
-0.15,-0.6,255
-0.15,-0.45,255
-0.15,-0.3,255
-0.15,-0.15,218
-0.15,0.0,182
-0.15,0.15,182
-0.15,0.3,200
-0.15,0.45,172
-0.15,0.6,172
-0.15,0.75,181
-0.15,0.9,199
-0.15,1.05,207
-0.15,1.2,207
-0.15,1.35,216
-0.15,1.5,216
0.0,-1.5,189
0.0,-1.35,191
0.0,-1.2,191
0.0,-1.05,191
0.0,-0.9,200
0.0,-0.75,200
0.0,-0.6,200
0.0,-0.45,227
0.0,-0.3,200
0.0,-0.15,200
0.0,0.0,219
0.0,0.15,218
0.0,0.3,209
0.0,0.45,208
0.0,0.6,190
0.0,0.75,217
0.0,0.9,217
0.0,1.05,217
0.0,1.2,216
0.0,1.35,216
0.0,1.5,216
0.15,-1.5,199
0.15,-1.35,199
0.15,-1.2,200
0.15,-1.05,173
0.15,-0.9,200
0.15,-0.75,237
0.15,-0.6,255
0.15,-0.45,237
0.15,-0.3,255
0.15,-0.15,255
0.15,0.0,218
0.15,0.15,164
0.15,0.3,172
0.15,0.45,172
0.15,0.6,172
0.15,0.75,217
0.15,0.9,217
0.15,1.05,217
0.15,1.2,217
0.15,1.35,217
0.15,1.5,217
0.3,-1.5,146
0.3,-1.35,155
0.3,-1.2,182
0.3,-1.05,182
0.3,-0.9,182
0.3,-0.75,182
0.3,-0.6,182
0.3,-0.45,237
0.3,-0.3,218
0.3,-0.15,228
0.3,0.0,219
0.3,0.15,145
0.3,0.3,145
0.3,0.45,190
0.3,0.6,217
0.3,0.75,217
0.3,0.9,218
0.3,1.05,217
0.3,1.2,217
0.3,1.35,217
0.3,1.5,217
0.45,-1.5,109
0.45,-1.35,110
0.45,-1.2,146
0.45,-1.05,155
0.45,-0.9,127
0.45,-0.75,118
0.45,-0.6,154
0.45,-0.45,182
0.45,-0.3,200
0.45,-0.15,200
0.45,0.0,218
0.45,0.15,218
0.45,0.3,191
0.45,0.45,218
0.45,0.6,218
0.45,0.75,218
0.45,0.9,218
0.45,1.05,217
0.45,1.2,217
0.45,1.35,216
0.45,1.5,190
0.6,-1.5,100
0.6,-1.35,72
0.6,-1.2,72
0.6,-1.05,90
0.6,-0.9,117
0.6,-0.75,118
0.6,-0.6,118
0.6,-0.45,154
0.6,-0.3,173
0.6,-0.15,173
0.6,0.0,209
0.6,0.15,209
0.6,0.3,227
0.6,0.45,191
0.6,0.6,218
0.6,0.75,218
0.6,0.9,218
0.6,1.05,217
0.6,1.2,217
0.6,1.35,217
0.6,1.5,217
0.75,-1.5,72
0.75,-1.35,72
0.75,-1.2,72
0.75,-1.05,72
0.75,-0.9,81
0.75,-0.75,81
0.75,-0.6,118
0.75,-0.45,118
0.75,-0.3,155
0.75,-0.15,164
0.75,0.0,209
0.75,0.15,209
0.75,0.3,210
0.75,0.45,173
0.75,0.6,227
0.75,0.75,191
0.75,0.9,190
0.75,1.05,190
0.75,1.2,190
0.75,1.35,190
0.75,1.5,190
0.9,-1.5,72
0.9,-1.35,72
0.9,-1.2,45
0.9,-1.05,45
0.9,-0.9,36
0.9,-0.75,72
0.9,-0.6,100
0.9,-0.45,82
0.9,-0.3,118
0.9,-0.15,100
0.9,0.0,146
0.9,0.15,173
0.9,0.3,173
0.9,0.45,173
0.9,0.6,173
0.9,0.75,173
0.9,0.9,173
0.9,1.05,190
0.9,1.2,190
0.9,1.35,190
0.9,1.5,190
1.05,-1.5,63
1.05,-1.35,72
1.05,-1.2,72
1.05,-1.05,72
1.05,-0.9,45
1.05,-0.75,36
1.05,-0.6,45
1.05,-0.45,45
1.05,-0.3,63
1.05,-0.15,82
1.05,0.0,118
1.05,0.15,118
1.05,0.3,155
1.05,0.45,155
1.05,0.6,155
1.05,0.75,155
1.05,0.9,146
1.05,1.05,146
1.05,1.2,173
1.05,1.35,190
1.05,1.5,190
1.2,-1.5,63
1.2,-1.35,63
1.2,-1.2,63
1.2,-1.05,72
1.2,-0.9,72
1.2,-0.75,54
1.2,-0.6,36
1.2,-0.45,54
1.2,-0.3,63
1.2,-0.15,63
1.2,0.0,109
1.2,0.15,127
1.2,0.3,164
1.2,0.45,155
1.2,0.6,155
1.2,0.75,155
1.2,0.9,156
1.2,1.05,156
1.2,1.2,146
1.2,1.35,137
1.2,1.5,137
1.35,-1.5,27
1.35,-1.35,63
1.35,-1.2,63
1.35,-1.05,63
1.35,-0.9,72
1.35,-0.75,82
1.35,-0.6,73
1.35,-0.45,82
1.35,-0.3,91
1.35,-0.15,91
1.35,0.0,82
1.35,0.15,127
1.35,0.3,155
1.35,0.45,155
1.35,0.6,155
1.35,0.75,155
1.35,0.9,165
1.35,1.05,155
1.35,1.2,155
1.35,1.35,146
1.35,1.5,137
1.5,-1.5,27
1.5,-1.35,63
1.5,-1.2,63
1.5,-1.05,100
1.5,-0.9,72
1.5,-0.75,100
1.5,-0.6,118
1.5,-0.45,127
1.5,-0.3,109
1.5,-0.15,118
1.5,0.0,109
1.5,0.15,118
1.5,0.3,155
1.5,0.45,155
1.5,0.6,155
1.5,0.75,146
1.5,0.9,137
1.5,1.05,137
1.5,1.2,137
1.5,1.35,137
1.5,1.5,137
1.65,-1.5,91
1.65,-1.35,91
1.65,-1.2,91
1.65,-1.05,91
1.65,-0.9,91
1.65,-0.75,136
1.65,-0.6,82
1.65,-0.45,136
1.65,-0.3,100
1.65,-0.15,109
1.65,0.0,109
1.65,0.15,118
1.65,0.3,72
1.65,0.45,100
1.65,0.6,91
1.65,0.75,91
1.65,0.9,137
1.65,1.05,137
1.65,1.2,137
1.65,1.35,127
1.65,1.5,127
1.8,-1.5,127
1.8,-1.35,136
1.8,-1.2,136
1.8,-1.05,136
1.8,-0.9,127
1.8,-0.75,127
1.8,-0.6,127
1.8,-0.45,136
1.8,-0.3,91
1.8,-0.15,109
1.8,0.0,73
1.8,0.15,72
1.8,0.3,91
1.8,0.45,63
1.8,0.6,91
1.8,0.75,91
1.8,0.9,119
1.8,1.05,119
1.8,1.2,119
1.8,1.35,173
1.8,1.5,173
1.95,-1.5,127
1.95,-1.35,127
1.95,-1.2,145
1.95,-1.05,145
1.95,-0.9,145
1.95,-0.75,145
1.95,-0.6,155
1.95,-0.45,127
1.95,-0.3,73
1.95,-0.15,91
1.95,0.0,91
1.95,0.15,54
1.95,0.3,27
1.95,0.45,27
1.95,0.6,54
1.95,0.75,54
1.95,0.9,91
1.95,1.05,83
1.95,1.2,110
1.95,1.35,110
1.95,1.5,110
2.1,-1.5,109
2.1,-1.35,145
2.1,-1.2,145
2.1,-1.05,109
2.1,-0.9,109
2.1,-0.75,118
2.1,-0.6,127
2.1,-0.45,118
2.1,-0.3,91
2.1,-0.15,100
2.1,0.0,54
2.1,0.15,82
2.1,0.3,81
2.1,0.45,81
2.1,0.6,54
2.1,0.75,45
2.1,0.9,45
2.1,1.05,54
2.1,1.2,92
2.1,1.35,92
2.1,1.5,92
2.25,-1.5,145
2.25,-1.35,163
2.25,-1.2,191
2.25,-1.05,173
2.25,-0.9,191
2.25,-0.75,191
2.25,-0.6,237
2.25,-0.45,191
2.25,-0.3,109
2.25,-0.15,54
2.25,0.0,82
2.25,0.15,72
2.25,0.3,54
2.25,0.45,45
2.25,0.6,45
2.25,0.75,45
2.25,0.9,45
2.25,1.05,45
2.25,1.2,45
2.25,1.35,45
2.25,1.5,45
2.4,-1.5,144
2.4,-1.35,145
2.4,-1.2,118
2.4,-1.05,127
2.4,-0.9,127
2.4,-0.75,209
2.4,-0.6,200
2.4,-0.45,200
2.4,-0.3,173
2.4,-0.15,63
2.4,0.0,91
2.4,0.15,54
2.4,0.3,18
2.4,0.45,27
2.4,0.6,27
2.4,0.75,27
2.4,0.9,27
2.4,1.05,36
2.4,1.2,36
2.4,1.35,9
2.4,1.5,9
2.55,-1.5,72
2.55,-1.35,108
2.55,-1.2,109
2.55,-1.05,118
2.55,-0.9,191
2.55,-0.75,182
2.55,-0.6,173
2.55,-0.45,164
2.55,-0.3,91
2.55,-0.15,54
2.55,0.0,63
2.55,0.15,27
2.55,0.3,36
2.55,0.45,36
2.55,0.6,45
2.55,0.75,9
2.55,0.9,9
2.55,1.05,9
2.55,1.2,9
2.55,1.35,9
2.55,1.5,9
2.7,-1.5,72
2.7,-1.35,72
2.7,-1.2,82
2.7,-1.05,82
2.7,-0.9,45
2.7,-0.75,91
2.7,-0.6,127
2.7,-0.45,18
2.7,-0.3,54
2.7,-0.15,91
2.7,0.0,27
2.7,0.15,54
2.7,0.3,36
2.7,0.45,36
2.7,0.6,0
2.7,0.75,0
2.7,0.9,18
2.7,1.05,18
2.7,1.2,18
2.7,1.35,36
2.7,1.5,36
2.85,-1.5,45
2.85,-1.35,45
2.85,-1.2,45
2.85,-1.05,45
2.85,-0.9,45
2.85,-0.75,18
2.85,-0.6,0
2.85,-0.45,27
2.85,-0.3,73
2.85,-0.15,63
2.85,0.0,27
2.85,0.15,0
2.85,0.3,18
2.85,0.45,18
2.85,0.6,18
2.85,0.75,55
2.85,0.9,55
2.85,1.05,37
2.85,1.2,37
2.85,1.35,55
2.85,1.5,64
3.0,-1.5,18
3.0,-1.35,18
3.0,-1.2,18
3.0,-1.05,9
3.0,-0.9,18
3.0,-0.75,18
3.0,-0.6,36
3.0,-0.45,73
3.0,-0.3,82
3.0,-0.15,91
3.0,0.0,73
3.0,0.15,82
3.0,0.3,45
3.0,0.45,27
3.0,0.6,64
3.0,0.75,64
3.0,0.9,55
3.0,1.05,64
3.0,1.2,64
3.0,1.35,64
3.0,1.5,73
3.15,-1.5,45
3.15,-1.35,45
3.15,-1.2,27
3.15,-1.05,27
3.15,-0.9,36
3.15,-0.75,100
3.15,-0.6,63
3.15,-0.45,127
3.15,-0.3,100
3.15,-0.15,127
3.15,0.0,155
3.15,0.15,127
3.15,0.3,82
3.15,0.45,100
3.15,0.6,73
3.15,0.75,73
3.15,0.9,91
3.15,1.05,91
3.15,1.2,91
3.15,1.35,91
3.15,1.5,91
3.3,-1.5,45
3.3,-1.35,45
3.3,-1.2,99
3.3,-1.05,100
3.3,-0.9,100
3.3,-0.75,182
3.3,-0.6,200
3.3,-0.45,109
3.3,-0.3,127
3.3,-0.15,91
3.3,0.0,164
3.3,0.15,127
3.3,0.3,136
3.3,0.45,100
3.3,0.6,118
3.3,0.75,145
3.3,0.9,145
3.3,1.05,109
3.3,1.2,109
3.3,1.35,109
3.3,1.5,109
3.45,-1.5,36
3.45,-1.35,90
3.45,-1.2,90
3.45,-1.05,100
3.45,-0.9,145
3.45,-0.75,155
3.45,-0.6,182
3.45,-0.45,155
3.45,-0.3,118
3.45,-0.15,127
3.45,0.0,155
3.45,0.15,136
3.45,0.3,118
3.45,0.45,127
3.45,0.6,127
3.45,0.75,136
3.45,0.9,136
3.45,1.05,136
3.45,1.2,136
3.45,1.35,137
3.45,1.5,137
3.6,-1.5,99
3.6,-1.35,99
3.6,-1.2,90
3.6,-1.05,136
3.6,-0.9,145
3.6,-0.75,145
3.6,-0.6,136
3.6,-0.45,118
3.6,-0.3,136
3.6,-0.15,136
3.6,0.0,145
3.6,0.15,164
3.6,0.3,146
3.6,0.45,155
3.6,0.6,155
3.6,0.75,209
3.6,0.9,209
3.6,1.05,209
3.6,1.2,209
3.6,1.35,209
3.6,1.5,209
3.75,-1.5,99
3.75,-1.35,99
3.75,-1.2,145
3.75,-1.05,91
3.75,-0.9,100
3.75,-0.75,109
3.75,-0.6,82
3.75,-0.45,73
3.75,-0.3,109
3.75,-0.15,36
3.75,0.0,155
3.75,0.15,118
3.75,0.3,182
3.75,0.45,173
3.75,0.6,209
3.75,0.75,209
3.75,0.9,209
3.75,1.05,209
3.75,1.2,209
3.75,1.35,209
3.75,1.5,209
3.9,-1.5,190
3.9,-1.35,145
3.9,-1.2,100
3.9,-1.05,100
3.9,-0.9,109
3.9,-0.75,191
3.9,-0.6,182
3.9,-0.45,182
3.9,-0.3,145
3.9,-0.15,73
3.9,0.0,91
3.9,0.15,164
3.9,0.3,182
3.9,0.45,182
3.9,0.6,182
3.9,0.75,200
3.9,0.9,200
3.9,1.05,200
3.9,1.2,246
3.9,1.35,246
3.9,1.5,209
4.05,-1.5,200
4.05,-1.35,200
4.05,-1.2,118
4.05,-1.05,118
4.05,-0.9,118
4.05,-0.75,136
4.05,-0.6,173
4.05,-0.45,155
4.05,-0.3,91
4.05,-0.15,63
4.05,0.0,73
4.05,0.15,164
4.05,0.3,164
4.05,0.45,164
4.05,0.6,164
4.05,0.75,237
4.05,0.9,227
4.05,1.05,227
4.05,1.2,227
4.05,1.35,200
4.05,1.5,200
4.2,-1.5,200
4.2,-1.35,200
4.2,-1.2,191
4.2,-1.05,191
4.2,-0.9,145
4.2,-0.75,82
4.2,-0.6,91
4.2,-0.45,73
4.2,-0.3,100
4.2,-0.15,63
4.2,0.0,54
4.2,0.15,91
4.2,0.3,128
4.2,0.45,128
4.2,0.6,128
4.2,0.75,128
4.2,0.9,164
4.2,1.05,191
4.2,1.2,191
4.2,1.35,191
4.2,1.5,191
4.35,-1.5,200
4.35,-1.35,200
4.35,-1.2,191
4.35,-1.05,182
4.35,-0.9,173
4.35,-0.75,136
4.35,-0.6,54
4.35,-0.45,82
4.35,-0.3,145
4.35,-0.15,82
4.35,0.0,118
4.35,0.15,155
4.35,0.3,200
4.35,0.45,164
4.35,0.6,173
4.35,0.75,164
4.35,0.9,173
4.35,1.05,164
4.35,1.2,200
4.35,1.35,200
4.35,1.5,200
4.5,-1.5,200
4.5,-1.35,191
4.5,-1.2,192
4.5,-1.05,191
4.5,-0.9,182
4.5,-0.75,100
4.5,-0.6,82
4.5,-0.45,91
4.5,-0.3,127
4.5,-0.15,91
4.5,0.0,164
4.5,0.15,191
4.5,0.3,237
4.5,0.45,200
4.5,0.6,200
4.5,0.75,209
4.5,0.9,209
4.5,1.05,209
4.5,1.2,164
4.5,1.35,164
4.5,1.5,172
4.65,-1.5,209
4.65,-1.35,155
4.65,-1.2,155
4.65,-1.05,146
4.65,-0.9,146
4.65,-0.75,127
4.65,-0.6,54
4.65,-0.45,136
4.65,-0.3,82
4.65,-0.15,109
4.65,0.0,209
4.65,0.15,255
4.65,0.3,246
4.65,0.45,227
4.65,0.6,145
4.65,0.75,145
4.65,0.9,118
4.65,1.05,118
4.65,1.2,163
4.65,1.35,172
4.65,1.5,172
4.8,-1.5,155
4.8,-1.35,155
4.8,-1.2,146
4.8,-1.05,146
4.8,-0.9,146
4.8,-0.75,45
4.8,-0.6,63
4.8,-0.45,109
4.8,-0.3,209
4.8,-0.15,9
4.8,0.0,127
4.8,0.15,136
4.8,0.3,136
4.8,0.45,136
4.8,0.6,154
4.8,0.75,154
4.8,0.9,100
4.8,1.05,109
4.8,1.2,118
4.8,1.35,118
4.8,1.5,118
4.95,-1.5,137
4.95,-1.35,137
4.95,-1.2,146
4.95,-1.05,91
4.95,-0.9,100
4.95,-0.75,54
4.95,-0.6,54
4.95,-0.45,45
4.95,-0.3,63
4.95,-0.15,109
4.95,0.0,9
4.95,0.15,0
4.95,0.3,36
4.95,0.45,82
4.95,0.6,82
4.95,0.75,82
4.95,0.9,82
4.95,1.05,82
4.95,1.2,82
4.95,1.35,82
4.95,1.5,82
5.1,-1.5,110
5.1,-1.35,109
5.1,-1.2,109
5.1,-1.05,91
5.1,-0.9,45
5.1,-0.75,100
5.1,-0.6,91
5.1,-0.45,100
5.1,-0.3,54
5.1,-0.15,9
5.1,0.0,0
5.1,0.15,0
5.1,0.3,0
5.1,0.45,0
5.1,0.6,0
5.1,0.75,36
5.1,0.9,36
5.1,1.05,36
5.1,1.2,36
5.1,1.35,36
5.1,1.5,36
5.25,-1.5,110
5.25,-1.35,146
5.25,-1.2,82
5.25,-1.05,54
5.25,-0.9,45
5.25,-0.75,54
5.25,-0.6,82
5.25,-0.45,127
5.25,-0.3,82
5.25,-0.15,100
5.25,0.0,73
5.25,0.15,82
5.25,0.3,27
5.25,0.45,27
5.25,0.6,18
5.25,0.75,0
5.25,0.9,0
5.25,1.05,0
5.25,1.2,36
5.25,1.35,36
5.25,1.5,36
5.4,-1.5,101
5.4,-1.35,45
5.4,-1.2,45
5.4,-1.05,36
5.4,-0.9,72
5.4,-0.75,54
5.4,-0.6,91
5.4,-0.45,54
5.4,-0.3,45
5.4,-0.15,54
5.4,0.0,91
5.4,0.15,63
5.4,0.3,63
5.4,0.45,54
5.4,0.6,54
5.4,0.75,36
5.4,0.9,36
5.4,1.05,0
5.4,1.2,0
5.4,1.35,0
5.4,1.5,0
5.55,-1.5,72
5.55,-1.35,72
5.55,-1.2,72
5.55,-1.05,72
5.55,-0.9,109
5.55,-0.75,73
5.55,-0.6,63
5.55,-0.45,100
5.55,-0.3,54
5.55,-0.15,63
5.55,0.0,18
5.55,0.15,54
5.55,0.3,54
5.55,0.45,54
5.55,0.6,63
5.55,0.75,63
5.55,0.9,18
5.55,1.05,9
5.55,1.2,9
5.55,1.35,9
5.55,1.5,9
5.7,-1.5,81
5.7,-1.35,81
5.7,-1.2,82
5.7,-1.05,100
5.7,-0.9,136
5.7,-0.75,136
5.7,-0.6,145
5.7,-0.45,45
5.7,-0.3,27
5.7,-0.15,73
5.7,0.0,27
5.7,0.15,45
5.7,0.3,45
5.7,0.45,54
5.7,0.6,54
5.7,0.75,54
5.7,0.9,54
5.7,1.05,36
5.7,1.2,36
5.7,1.35,36
5.7,1.5,26
5.85,-1.5,81
5.85,-1.35,118
5.85,-1.2,118
5.85,-1.05,109
5.85,-0.9,100
5.85,-0.75,118
5.85,-0.6,118
5.85,-0.45,82
5.85,-0.3,27
5.85,-0.15,63
5.85,0.0,54
5.85,0.15,73
5.85,0.3,45
5.85,0.45,45
5.85,0.6,36
5.85,0.75,54
5.85,0.9,45
5.85,1.05,45
5.85,1.2,45
5.85,1.35,36
5.85,1.5,35
6.0,-1.5,100
6.0,-1.35,100
6.0,-1.2,91
6.0,-1.05,82
6.0,-0.9,82
6.0,-0.75,54
6.0,-0.6,36
6.0,-0.45,82
6.0,-0.3,145
6.0,-0.15,109
6.0,0.0,91
6.0,0.15,82
6.0,0.3,45
6.0,0.45,45
6.0,0.6,45
6.0,0.75,45
6.0,0.9,36
6.0,1.05,27
6.0,1.2,54
6.0,1.35,54
6.0,1.5,54
6.15,-1.5,63
6.15,-1.35,63
6.15,-1.2,54
6.15,-1.05,91
6.15,-0.9,82
6.15,-0.75,82
6.15,-0.6,73
6.15,-0.45,54
6.15,-0.3,100
6.15,-0.15,136
6.15,0.0,73
6.15,0.15,36
6.15,0.3,45
6.15,0.45,72
6.15,0.6,72
6.15,0.75,72
6.15,0.9,36
6.15,1.05,54
6.15,1.2,54
6.15,1.35,54
6.15,1.5,54
6.3,-1.5,73
6.3,-1.35,73
6.3,-1.2,109
6.3,-1.05,73
6.3,-0.9,109
6.3,-0.75,45
6.3,-0.6,36
6.3,-0.45,18
6.3,-0.3,27
6.3,-0.15,118
6.3,0.0,54
6.3,0.15,54
6.3,0.3,45
6.3,0.45,54
6.3,0.6,82
6.3,0.75,81
6.3,0.9,81
6.3,1.05,81
6.3,1.2,81
6.3,1.35,81
6.3,1.5,81
6.45,-1.5,90
6.45,-1.35,81
6.45,-1.2,100
6.45,-1.05,100
6.45,-0.9,154
6.45,-0.75,155
6.45,-0.6,145
6.45,-0.45,45
6.45,-0.3,36
6.45,-0.15,63
6.45,0.0,63
6.45,0.15,27
6.45,0.3,45
6.45,0.45,82
6.45,0.6,82
6.45,0.75,82
6.45,0.9,82
6.45,1.05,81
6.45,1.2,81
6.45,1.35,81
6.45,1.5,81
6.6,-1.5,63
6.6,-1.35,63
6.6,-1.2,72
6.6,-1.05,109
6.6,-0.9,145
6.6,-0.75,146
6.6,-0.6,173
6.6,-0.45,82
6.6,-0.3,100
6.6,-0.15,73
6.6,0.0,18
6.6,0.15,27
6.6,0.3,64
6.6,0.45,63
6.6,0.6,63
6.6,0.75,82
6.6,0.9,82
6.6,1.05,82
6.6,1.2,81
6.6,1.35,81
6.6,1.5,81
6.75,-1.5,63
6.75,-1.35,63
6.75,-1.2,63
6.75,-1.05,63
6.75,-0.9,100
6.75,-0.75,145
6.75,-0.6,136
6.75,-0.45,36
6.75,-0.3,82
6.75,-0.15,73
6.75,0.0,27
6.75,0.15,36
6.75,0.3,54
6.75,0.45,54
6.75,0.6,54
6.75,0.75,64
6.75,0.9,54
6.75,1.05,54
6.75,1.2,54
6.75,1.35,54
6.75,1.5,54
6.9,-1.5,27
6.9,-1.35,27
6.9,-1.2,82
6.9,-1.05,27
6.9,-0.9,9
6.9,-0.75,45
6.9,-0.6,109
6.9,-0.45,100
6.9,-0.3,82
6.9,-0.15,63
6.9,0.0,54
6.9,0.15,36
6.9,0.3,18
6.9,0.45,18
6.9,0.6,18
6.9,0.75,45
6.9,0.9,45
6.9,1.05,45
6.9,1.2,45
6.9,1.35,54
6.9,1.5,54
7.05,-1.5,18
7.05,-1.35,18
7.05,-1.2,18
7.05,-1.05,36
7.05,-0.9,9
7.05,-0.75,18
7.05,-0.6,63
7.05,-0.45,54
7.05,-0.3,82
7.05,-0.15,54
7.05,0.0,73
7.05,0.15,100
7.05,0.3,18
7.05,0.45,9
7.05,0.6,9
7.05,0.75,9
7.05,0.9,9
7.05,1.05,9
7.05,1.2,18
7.05,1.35,18
7.05,1.5,18
7.2,-1.5,54
7.2,-1.35,45
7.2,-1.2,18
7.2,-1.05,18
7.2,-0.9,27
7.2,-0.75,82
7.2,-0.6,82
7.2,-0.45,27
7.2,-0.3,82
7.2,-0.15,27
7.2,0.0,0
7.2,0.15,0
7.2,0.3,0
7.2,0.45,0
7.2,0.6,9
7.2,0.75,9
7.2,0.9,9
7.2,1.05,9
7.2,1.2,9
7.2,1.35,9
7.2,1.5,9
7.35,-1.5,63
7.35,-1.35,54
7.35,-1.2,54
7.35,-1.05,54
7.35,-0.9,63
7.35,-0.75,36
7.35,-0.6,100
7.35,-0.45,82
7.35,-0.3,82
7.35,-0.15,9
7.35,0.0,18
7.35,0.15,0
7.35,0.3,9
7.35,0.45,27
7.35,0.6,45
7.35,0.75,36
7.35,0.9,36
7.35,1.05,36
7.35,1.2,0
7.35,1.35,0
7.35,1.5,0
7.5,-1.5,91
7.5,-1.35,100
7.5,-1.2,100
7.5,-1.05,64
7.5,-0.9,73
7.5,-0.75,82
7.5,-0.6,82
7.5,-0.45,73
7.5,-0.3,54
7.5,-0.15,36
7.5,0.0,45
7.5,0.15,0
7.5,0.3,0
7.5,0.45,9
7.5,0.6,0
7.5,0.75,0
7.5,0.9,36
7.5,1.05,36
7.5,1.2,36
7.5,1.35,36
7.5,1.5,45
7.65,-1.5,100
7.65,-1.35,82
7.65,-1.2,82
7.65,-1.05,73
7.65,-0.9,63
7.65,-0.75,63
7.65,-0.6,36
7.65,-0.45,63
7.65,-0.3,73
7.65,-0.15,73
7.65,0.0,36
7.65,0.15,9
7.65,0.3,9
7.65,0.45,9
7.65,0.6,9
7.65,0.75,9
7.65,0.9,45
7.65,1.05,45
7.65,1.2,45
7.65,1.35,45
7.65,1.5,36
7.8,-1.5,118
7.8,-1.35,82
7.8,-1.2,64
7.8,-1.05,64
7.8,-0.9,82
7.8,-0.75,36
7.8,-0.6,82
7.8,-0.45,100
7.8,-0.3,91
7.8,-0.15,127
7.8,0.0,63
7.8,0.15,45
7.8,0.3,63
7.8,0.45,54
7.8,0.6,54
7.8,0.75,45
7.8,0.9,9
7.8,1.05,9
7.8,1.2,9
7.8,1.35,9
7.8,1.5,9
7.95,-1.5,91
7.95,-1.35,91
7.95,-1.2,109
7.95,-1.05,109
7.95,-0.9,64
7.95,-0.75,73
7.95,-0.6,54
7.95,-0.45,109
7.95,-0.3,36
7.95,-0.15,54
7.95,0.0,82
7.95,0.15,63
7.95,0.3,27
7.95,0.45,27
7.95,0.6,18
7.95,0.75,18
7.95,0.9,9
7.95,1.05,9
7.95,1.2,9
7.95,1.35,9
7.95,1.5,9
8.1,-1.5,145
8.1,-1.35,145
8.1,-1.2,145
8.1,-1.05,118
8.1,-0.9,118
8.1,-0.75,100
8.1,-0.6,100
8.1,-0.45,100
8.1,-0.3,73
8.1,-0.15,91
8.1,0.0,91
8.1,0.15,63
8.1,0.3,63
8.1,0.45,27
8.1,0.6,27
8.1,0.75,27
8.1,0.9,18
8.1,1.05,18
8.1,1.2,18
8.1,1.35,9
8.1,1.5,9
8.25,-1.5,127
8.25,-1.35,127
8.25,-1.2,127
8.25,-1.05,118
8.25,-0.9,155
8.25,-0.75,100
8.25,-0.6,54
8.25,-0.45,45
8.25,-0.3,36
8.25,-0.15,127
8.25,0.0,136
8.25,0.15,118
8.25,0.3,91
8.25,0.45,91
8.25,0.6,81
8.25,0.75,45
8.25,0.9,45
8.25,1.05,18
8.25,1.2,73
8.25,1.35,73
8.25,1.5,81
8.4,-1.5,118
8.4,-1.35,118
8.4,-1.2,118
8.4,-1.05,118
8.4,-0.9,127
8.4,-0.75,136
8.4,-0.6,45
8.4,-0.45,73
8.4,-0.3,100
8.4,-0.15,100
8.4,0.0,136
8.4,0.15,127
8.4,0.3,54
8.4,0.45,91
8.4,0.6,100
8.4,0.75,73
8.4,0.9,73
8.4,1.05,73
8.4,1.2,82
8.4,1.35,73
8.4,1.5,82
8.55,-1.5,118
8.55,-1.35,91
8.55,-1.2,100
8.55,-1.05,100
8.55,-0.9,91
8.55,-0.75,109
8.55,-0.6,36
8.55,-0.45,63
8.55,-0.3,145
8.55,-0.15,155
8.55,0.0,173
8.55,0.15,200
8.55,0.3,145
8.55,0.45,145
8.55,0.6,145
8.55,0.75,91
8.55,0.9,91
8.55,1.05,91
8.55,1.2,100
8.55,1.35,100
8.55,1.5,100
8.7,-1.5,91
8.7,-1.35,91
8.7,-1.2,91
8.7,-1.05,91
8.7,-0.9,72
8.7,-0.75,36
8.7,-0.6,82
8.7,-0.45,82
8.7,-0.3,45
8.7,-0.15,155
8.7,0.0,164
8.7,0.15,164
8.7,0.3,118
8.7,0.45,118
8.7,0.6,118
8.7,0.75,81
8.7,0.9,45
8.7,1.05,81
8.7,1.2,90
8.7,1.35,90
8.7,1.5,53
8.85,-1.5,54
8.85,-1.35,18
8.85,-1.2,18
8.85,-1.05,18
8.85,-0.9,36
8.85,-0.75,36
8.85,-0.6,73
8.85,-0.45,155
8.85,-0.3,45
8.85,-0.15,54
8.85,0.0,136
8.85,0.15,118
8.85,0.3,118
8.85,0.45,91
8.85,0.6,91
8.85,0.75,82
8.85,0.9,82
8.85,1.05,82
8.85,1.2,72
8.85,1.35,72
8.85,1.5,71
9.0,-1.5,36
9.0,-1.35,36
9.0,-1.2,18
9.0,-1.05,27
9.0,-0.9,18
9.0,-0.75,0
9.0,-0.6,36
9.0,-0.45,73
9.0,-0.3,73
9.0,-0.15,45
9.0,0.0,73
9.0,0.15,100
9.0,0.3,118
9.0,0.45,118
9.0,0.6,118
9.0,0.75,91
9.0,0.9,91
9.0,1.05,90
9.0,1.2,72
9.0,1.35,72
9.0,1.5,72
9.15,-1.5,27
9.15,-1.35,36
9.15,-1.2,27
9.15,-1.05,27
9.15,-0.9,36
9.15,-0.75,36
9.15,-0.6,27
9.15,-0.45,36
9.15,-0.3,9
9.15,-0.15,9
9.15,0.0,36
9.15,0.15,91
9.15,0.3,91
9.15,0.45,91
9.15,0.6,91
9.15,0.75,91
9.15,0.9,90
9.15,1.05,90
9.15,1.2,81
9.15,1.35,81
9.15,1.5,81
9.3,-1.5,27
9.3,-1.35,27
9.3,-1.2,36
9.3,-1.05,36
9.3,-0.9,36
9.3,-0.75,36
9.3,-0.6,18
9.3,-0.45,73
9.3,-0.3,36
9.3,-0.15,45
9.3,0.0,63
9.3,0.15,73
9.3,0.3,91
9.3,0.45,91
9.3,0.6,118
9.3,0.75,118
9.3,0.9,118
9.3,1.05,117
9.3,1.2,117
9.3,1.35,117
9.3,1.5,117
9.45,-1.5,18
9.45,-1.35,18
9.45,-1.2,36
9.45,-1.05,36
9.45,-0.9,36
9.45,-0.75,63
9.45,-0.6,63
9.45,-0.45,54
9.45,-0.3,63
9.45,-0.15,27
9.45,0.0,54
9.45,0.15,18
9.45,0.3,73
9.45,0.45,63
9.45,0.6,72
9.45,0.75,72
9.45,0.9,72
9.45,1.05,72
9.45,1.2,72
9.45,1.35,72
9.45,1.5,72
9.6,-1.5,18
9.6,-1.35,9
9.6,-1.2,0
9.6,-1.05,18
9.6,-0.9,36
9.6,-0.75,36
9.6,-0.6,63
9.6,-0.45,0
9.6,-0.3,45
9.6,-0.15,36
9.6,0.0,27
9.6,0.15,63
9.6,0.3,54
9.6,0.45,64
9.6,0.6,63
9.6,0.75,63
9.6,0.9,63
9.6,1.05,72
9.6,1.2,72
9.6,1.35,72
9.6,1.5,72
9.75,-1.5,28
9.75,-1.35,0
9.75,-1.2,27
9.75,-1.05,27
9.75,-0.9,27
9.75,-0.75,18
9.75,-0.6,54
9.75,-0.45,82
9.75,-0.3,73
9.75,-0.15,27
9.75,0.0,73
9.75,0.15,73
9.75,0.3,82
9.75,0.45,63
9.75,0.6,63
9.75,0.75,63
9.75,0.9,63
9.75,1.05,63
9.75,1.2,72
9.75,1.35,72
9.75,1.5,63
9.9,-1.5,64
9.9,-1.35,73
9.9,-1.2,73
9.9,-1.05,36
9.9,-0.9,36
9.9,-0.75,54
9.9,-0.6,109
9.9,-0.45,118
9.9,-0.3,155
9.9,-0.15,54
9.9,0.0,73
9.9,0.15,54
9.9,0.3,73
9.9,0.45,54
9.9,0.6,54
9.9,0.75,63
9.9,0.9,63
9.9,1.05,63
9.9,1.2,63
9.9,1.35,63
9.9,1.5,63
10.05,-1.5,55
10.05,-1.35,64
10.05,-1.2,64
10.05,-1.05,64
10.05,-0.9,64
10.05,-0.75,36
10.05,-0.6,82
10.05,-0.45,91
10.05,-0.3,100
10.05,-0.15,109
10.05,0.0,63
10.05,0.15,45
10.05,0.3,54
10.05,0.45,36
10.05,0.6,36
10.05,0.75,45
10.05,0.9,45
10.05,1.05,45
10.05,1.2,63
10.05,1.35,63
10.05,1.5,63
10.2,-1.5,64
10.2,-1.35,64
10.2,-1.2,64
10.2,-1.05,46
10.2,-0.9,45
10.2,-0.75,0
10.2,-0.6,36
10.2,-0.45,45
10.2,-0.3,18
10.2,-0.15,18
10.2,0.0,73
10.2,0.15,72
10.2,0.3,54
10.2,0.45,45
10.2,0.6,45
10.2,0.75,45
10.2,0.9,45
10.2,1.05,45
10.2,1.2,54
10.2,1.35,54
10.2,1.5,54
10.35,-1.5,46
10.35,-1.35,82
10.35,-1.2,82
10.35,-1.05,73
10.35,-0.9,73
10.35,-0.75,73
10.35,-0.6,45
10.35,-0.45,54
10.35,-0.3,45
10.35,-0.15,36
10.35,0.0,36
10.35,0.15,73
10.35,0.3,54
10.35,0.45,45
10.35,0.6,63
10.35,0.75,63
10.35,0.9,63
10.35,1.05,63
10.35,1.2,63
10.35,1.35,63
10.35,1.5,63
10.5,-1.5,46
10.5,-1.35,82
10.5,-1.2,82
10.5,-1.05,82
10.5,-0.9,82
10.5,-0.75,82
10.5,-0.6,45
10.5,-0.45,27
10.5,-0.3,36
10.5,-0.15,54
10.5,0.0,27
10.5,0.15,27
10.5,0.3,63
10.5,0.45,63
10.5,0.6,63
10.5,0.75,63
10.5,0.9,63
10.5,1.05,63
10.5,1.2,90
10.5,1.35,90
10.5,1.5,90
10.65,-1.5,46
10.65,-1.35,82
10.65,-1.2,82
10.65,-1.05,82
10.65,-0.9,91
10.65,-0.75,91
10.65,-0.6,54
10.65,-0.45,73
10.65,-0.3,73
10.65,-0.15,82
10.65,0.0,63
10.65,0.15,73
10.65,0.3,55
10.65,0.45,64
10.65,0.6,100
10.65,0.75,100
10.65,0.9,100
10.65,1.05,82
10.65,1.2,82
10.65,1.35,90
10.65,1.5,90
10.8,-1.5,129
10.8,-1.35,129
10.8,-1.2,100
10.8,-1.05,100
10.8,-0.9,136
10.8,-0.75,100
10.8,-0.6,91
10.8,-0.45,100
10.8,-0.3,109
10.8,-0.15,91
10.8,0.0,100
10.8,0.15,100
10.8,0.3,100
10.8,0.45,100
10.8,0.6,46
10.8,0.75,100
10.8,0.9,100
10.8,1.05,100
10.8,1.2,82
10.8,1.35,82
10.8,1.5,91
10.95,-1.5,138
10.95,-1.35,147
10.95,-1.2,147
10.95,-1.05,146
10.95,-0.9,109
10.95,-0.75,136
10.95,-0.6,118
10.95,-0.45,109
10.95,-0.3,109
10.95,-0.15,191
10.95,0.0,145
10.95,0.15,127
10.95,0.3,127
10.95,0.45,127
10.95,0.6,118
10.95,0.75,100
10.95,0.9,64
10.95,1.05,100
10.95,1.2,100
10.95,1.35,100
10.95,1.5,82
11.1,-1.5,147
11.1,-1.35,183
11.1,-1.2,183
11.1,-1.05,182
11.1,-0.9,191
11.1,-0.75,118
11.1,-0.6,127
11.1,-0.45,145
11.1,-0.3,146
11.1,-0.15,182
11.1,0.0,191
11.1,0.15,146
11.1,0.3,146
11.1,0.45,145
11.1,0.6,127
11.1,0.75,127
11.1,0.9,126
11.1,1.05,91
11.1,1.2,82
11.1,1.35,100
11.1,1.5,65
11.25,-1.5,165
11.25,-1.35,173
11.25,-1.2,191
11.25,-1.05,191
11.25,-0.9,191
11.25,-0.75,200
11.25,-0.6,127
11.25,-0.45,155
11.25,-0.3,173
11.25,-0.15,182
11.25,0.0,164
11.25,0.15,173
11.25,0.3,127
11.25,0.45,127
11.25,0.6,127
11.25,0.75,127
11.25,0.9,127
11.25,1.05,91
11.25,1.2,91
11.25,1.35,90
11.25,1.5,53
11.4,-1.5,183
11.4,-1.35,146
11.4,-1.2,146
11.4,-1.05,155
11.4,-0.9,191
11.4,-0.75,182
11.4,-0.6,127
11.4,-0.45,127
11.4,-0.3,136
11.4,-0.15,164
11.4,0.0,164
11.4,0.15,164
11.4,0.3,155
11.4,0.45,154
11.4,0.6,127
11.4,0.75,127
11.4,0.9,127
11.4,1.05,127
11.4,1.2,91
11.4,1.35,53
11.4,1.5,52
11.55,-1.5,155
11.55,-1.35,146
11.55,-1.2,146
11.55,-1.05,155
11.55,-0.9,173
11.55,-0.75,191
11.55,-0.6,136
11.55,-0.45,127
11.55,-0.3,127
11.55,-0.15,127
11.55,0.0,155
11.55,0.15,137
11.55,0.3,137
11.55,0.45,127
11.55,0.6,127
11.55,0.75,100
11.55,0.9,100
11.55,1.05,99
11.55,1.2,89
11.55,1.35,70
11.55,1.5,70
11.7,-1.5,137
11.7,-1.35,146
11.7,-1.2,146
11.7,-1.05,164
11.7,-0.9,164
11.7,-0.75,164
11.7,-0.6,164
11.7,-0.45,100
11.7,-0.3,127
11.7,-0.15,127
11.7,0.0,154
11.7,0.15,154
11.7,0.3,154
11.7,0.45,154
11.7,0.6,109
11.7,0.75,90
11.7,0.9,90
11.7,1.05,71
11.7,1.2,80
11.7,1.35,79
11.7,1.5,62
11.85,-1.5,145
11.85,-1.35,146
11.85,-1.2,146
11.85,-1.05,146
11.85,-0.9,155
11.85,-0.75,155
11.85,-0.6,145
11.85,-0.45,82
11.85,-0.3,91
11.85,-0.15,118
11.85,0.0,127
11.85,0.15,127
11.85,0.3,118
11.85,0.45,118
11.85,0.6,136
11.85,0.75,90
11.85,0.9,53
11.85,1.05,53
11.85,1.2,70
11.85,1.35,70
11.85,1.5,70
12.0,-1.5,145
12.0,-1.35,145
12.0,-1.2,155
12.0,-1.05,155
12.0,-0.9,155
12.0,-0.75,154
12.0,-0.6,145
12.0,-0.45,72
12.0,-0.3,127
12.0,-0.15,127
12.0,0.0,128
12.0,0.15,145
12.0,0.3,109
12.0,0.45,118
12.0,0.6,118
12.0,0.75,118
12.0,0.9,116
12.0,1.05,107
12.0,1.2,107
12.0,1.35,88
12.0,1.5,88
12.15,-1.5,144
12.15,-1.35,136
12.15,-1.2,136
12.15,-1.05,154
12.15,-0.9,182
12.15,-0.75,146
12.15,-0.6,145
12.15,-0.45,109
12.15,-0.3,109
12.15,-0.15,73
12.15,0.0,82
12.15,0.15,72
12.15,0.3,72
12.15,0.45,109
12.15,0.6,100
12.15,0.75,98
12.15,0.9,116
12.15,1.05,116
12.15,1.2,115
12.15,1.35,106
12.15,1.5,88
12.3,-1.5,136
12.3,-1.35,136
12.3,-1.2,145
12.3,-1.05,145
12.3,-0.9,145
12.3,-0.75,145
12.3,-0.6,145
12.3,-0.45,91
12.3,-0.3,54
12.3,-0.15,72
12.3,0.0,63
12.3,0.15,81
12.3,0.3,72
12.3,0.45,109
12.3,0.6,90
12.3,0.75,98
12.3,0.9,98
12.3,1.05,98
12.3,1.2,98
12.3,1.35,114
12.3,1.5,114
12.45,-1.5,144
12.45,-1.35,144
12.45,-1.2,144
12.45,-1.05,144
12.45,-0.9,145
12.45,-0.75,145
12.45,-0.6,145
12.45,-0.45,54
12.45,-0.3,54
12.45,-0.15,54
12.45,0.0,63
12.45,0.15,63
12.45,0.3,81
12.45,0.45,71
12.45,0.6,89
12.45,0.75,89
12.45,0.9,89
12.45,1.05,89
12.45,1.2,97
12.45,1.35,97
12.45,1.5,97
12.6,-1.5,144
12.6,-1.35,144
12.6,-1.2,144
12.6,-1.05,144
12.6,-0.9,144
12.6,-0.75,108
12.6,-0.6,54
12.6,-0.45,54
12.6,-0.3,54
12.6,-0.15,54
12.6,0.0,63
12.6,0.15,63
12.6,0.3,62
12.6,0.45,62
12.6,0.6,71
12.6,0.75,89
12.6,0.9,88
12.6,1.05,88
12.6,1.2,88
12.6,1.35,96
12.6,1.5,96
12.75,-1.5,143
12.75,-1.35,144
12.75,-1.2,144
12.75,-1.05,144
12.75,-0.9,135
12.75,-0.75,54
12.75,-0.6,45
12.75,-0.45,45
12.75,-0.3,55
12.75,-0.15,55
12.75,0.0,63
12.75,0.15,63
12.75,0.3,62
12.75,0.45,62
12.75,0.6,62
12.75,0.75,88
12.75,0.9,88
12.75,1.05,88
12.75,1.2,87
12.75,1.35,87
12.75,1.5,95
12.9,-1.5,143
12.9,-1.35,143
12.9,-1.2,143
12.9,-1.05,134
12.9,-0.9,99
12.9,-0.75,54
12.9,-0.6,45
12.9,-0.45,45
12.9,-0.3,45
12.9,-0.15,45
12.9,0.0,55
12.9,0.15,45
12.9,0.3,62
12.9,0.45,62
12.9,0.6,62
12.9,0.75,62
12.9,0.9,87
12.9,1.05,87
12.9,1.2,87
12.9,1.35,87
12.9,1.5,87
13.05,-1.5,143
13.05,-1.35,134
13.05,-1.2,134
13.05,-1.05,98
13.05,-0.9,98
13.05,-0.75,54
13.05,-0.6,45
13.05,-0.45,45
13.05,-0.3,45
13.05,-0.15,45
13.05,0.0,45
13.05,0.15,45
13.05,0.3,62
13.05,0.45,62
13.05,0.6,62
13.05,0.75,62
13.05,0.9,62
13.05,1.05,87
13.05,1.2,87
13.05,1.35,87
13.05,1.5,87
