-3.0,-1.5,150
-3.0,-1.35,150
-3.0,-1.2,150
-3.0,-1.05,178
-3.0,-0.9,178
-3.0,-0.75,178
-3.0,-0.6,178
-3.0,-0.45,179
-3.0,-0.3,179
-3.0,-0.15,179
-3.0,0.0,179
-3.0,0.15,170
-3.0,0.3,170
-3.0,0.45,170
-3.0,0.6,169
-3.0,0.75,169
-3.0,0.9,169
-3.0,1.05,169
-3.0,1.2,169
-3.0,1.35,169
-3.0,1.5,206
-2.85,-1.5,150
-2.85,-1.35,150
-2.85,-1.2,150
-2.85,-1.05,150
-2.85,-0.9,178
-2.85,-0.75,178
-2.85,-0.6,179
-2.85,-0.45,179
-2.85,-0.3,179
-2.85,-0.15,179
-2.85,0.0,179
-2.85,0.15,170
-2.85,0.3,170
-2.85,0.45,170
-2.85,0.6,198
-2.85,0.75,169
-2.85,0.9,169
-2.85,1.05,169
-2.85,1.2,169
-2.85,1.35,207
-2.85,1.5,179
-2.7,-1.5,150
-2.7,-1.35,150
-2.7,-1.2,150
-2.7,-1.05,150
-2.7,-0.9,150
-2.7,-0.75,150
-2.7,-0.6,179
-2.7,-0.45,179
-2.7,-0.3,179
-2.7,-0.15,179
-2.7,0.0,179
-2.7,0.15,179
-2.7,0.3,170
-2.7,0.45,170
-2.7,0.6,198
-2.7,0.75,169
-2.7,0.9,169
-2.7,1.05,207
-2.7,1.2,207
-2.7,1.35,207
-2.7,1.5,179
-2.55,-1.5,150
-2.55,-1.35,150
-2.55,-1.2,150
-2.55,-1.05,150
-2.55,-0.9,150
-2.55,-0.75,150
-2.55,-0.6,151
-2.55,-0.45,179
-2.55,-0.3,179
-2.55,-0.15,179
-2.55,0.0,179
-2.55,0.15,179
-2.55,0.3,179
-2.55,0.45,170
-2.55,0.6,198
-2.55,0.75,207
-2.55,0.9,207
-2.55,1.05,207
-2.55,1.2,188
-2.55,1.35,160
-2.55,1.5,160
-2.4,-1.5,150
-2.4,-1.35,150
-2.4,-1.2,150
-2.4,-1.05,150
-2.4,-0.9,150
-2.4,-0.75,151
-2.4,-0.6,151
-2.4,-0.45,179
-2.4,-0.3,179
-2.4,-0.15,179
-2.4,0.0,179
-2.4,0.15,179
-2.4,0.3,179
-2.4,0.45,179
-2.4,0.6,198
-2.4,0.75,207
-2.4,0.9,188
-2.4,1.05,188
-2.4,1.2,160
-2.4,1.35,160
-2.4,1.5,160
-2.25,-1.5,150
-2.25,-1.35,150
-2.25,-1.2,150
-2.25,-1.05,150
-2.25,-0.9,150
-2.25,-0.75,151
-2.25,-0.6,151
-2.25,-0.45,151
-2.25,-0.3,179
-2.25,-0.15,179
-2.25,0.0,179
-2.25,0.15,179
-2.25,0.3,179
-2.25,0.45,208
-2.25,0.6,245
-2.25,0.75,245
-2.25,0.9,188
-2.25,1.05,160
-2.25,1.2,160
-2.25,1.35,160
-2.25,1.5,160
-2.1,-1.5,141
-2.1,-1.35,150
-2.1,-1.2,150
-2.1,-1.05,150
-2.1,-0.9,151
-2.1,-0.75,151
-2.1,-0.6,160
-2.1,-0.45,151
-2.1,-0.3,151
-2.1,-0.15,179
-2.1,0.0,179
-2.1,0.15,179
-2.1,0.3,179
-2.1,0.45,245
-2.1,0.6,198
-2.1,0.75,198
-2.1,0.9,198
-2.1,1.05,216
-2.1,1.2,216
-2.1,1.35,188
-2.1,1.5,188
-1.95,-1.5,141
-1.95,-1.35,141
-1.95,-1.2,141
-1.95,-1.05,141
-1.95,-0.9,151
-1.95,-0.75,160
-1.95,-0.6,160
-1.95,-0.45,151
-1.95,-0.3,151
-1.95,-0.15,151
-1.95,0.0,179
-1.95,0.15,179
-1.95,0.3,198
-1.95,0.45,198
-1.95,0.6,198
-1.95,0.75,226
-1.95,0.9,226
-1.95,1.05,217
-1.95,1.2,217
-1.95,1.35,216
-1.95,1.5,216
-1.8,-1.5,131
-1.8,-1.35,131
-1.8,-1.2,132
-1.8,-1.05,141
-1.8,-0.9,160
-1.8,-0.75,160
-1.8,-0.6,160
-1.8,-0.45,160
-1.8,-0.3,151
-1.8,-0.15,151
-1.8,0.0,151
-1.8,0.15,170
-1.8,0.3,198
-1.8,0.45,226
-1.8,0.6,226
-1.8,0.75,226
-1.8,0.9,226
-1.8,1.05,226
-1.8,1.2,217
-1.8,1.35,217
-1.8,1.5,226
-1.65,-1.5,131
-1.65,-1.35,131
-1.65,-1.2,131
-1.65,-1.05,151
-1.65,-0.9,151
-1.65,-0.75,151
-1.65,-0.6,151
-1.65,-0.45,151
-1.65,-0.3,104
-1.65,-0.15,104
-1.65,0.0,142
-1.65,0.15,170
-1.65,0.3,170
-1.65,0.45,198
-1.65,0.6,226
-1.65,0.75,226
-1.65,0.9,226
-1.65,1.05,236
-1.65,1.2,236
-1.65,1.35,236
-1.65,1.5,198
-1.5,-1.5,131
-1.5,-1.35,141
-1.5,-1.2,150
-1.5,-1.05,151
-1.5,-0.9,151
-1.5,-0.75,94
-1.5,-0.6,94
-1.5,-0.45,94
-1.5,-0.3,104
-1.5,-0.15,132
-1.5,0.0,142
-1.5,0.15,198
-1.5,0.3,198
-1.5,0.45,198
-1.5,0.6,198
-1.5,0.75,208
-1.5,0.9,236
-1.5,1.05,236
-1.5,1.2,208
-1.5,1.35,208
-1.5,1.5,170
-1.35,-1.5,75
-1.35,-1.35,75
-1.35,-1.2,94
-1.35,-1.05,94
-1.35,-0.9,94
-1.35,-0.75,85
-1.35,-0.6,85
-1.35,-0.45,123
-1.35,-0.3,95
-1.35,-0.15,95
-1.35,0.0,170
-1.35,0.15,198
-1.35,0.3,226
-1.35,0.45,198
-1.35,0.6,226
-1.35,0.75,208
-1.35,0.9,208
-1.35,1.05,189
-1.35,1.2,189
-1.35,1.35,151
-1.35,1.5,151
-1.2,-1.5,113
-1.2,-1.35,113
-1.2,-1.2,131
-1.2,-1.05,113
-1.2,-0.9,123
-1.2,-0.75,123
-1.2,-0.6,123
-1.2,-0.45,113
-1.2,-0.3,113
-1.2,-0.15,113
-1.2,0.0,151
-1.2,0.15,198
-1.2,0.3,217
-1.2,0.45,217
-1.2,0.6,226
-1.2,0.75,208
-1.2,0.9,179
-1.2,1.05,179
-1.2,1.2,170
-1.2,1.35,151
-1.2,1.5,151
-1.05,-1.5,113
-1.05,-1.35,169
-1.05,-1.2,169
-1.05,-1.05,141
-1.05,-0.9,141
-1.05,-0.75,123
-1.05,-0.6,123
-1.05,-0.45,123
-1.05,-0.3,170
-1.05,-0.15,170
-1.05,0.0,160
-1.05,0.15,198
-1.05,0.3,179
-1.05,0.45,170
-1.05,0.6,179
-1.05,0.75,179
-1.05,0.9,179
-1.05,1.05,208
-1.05,1.2,151
-1.05,1.35,151
-1.05,1.5,151
-0.9,-1.5,151
-0.9,-1.35,151
-0.9,-1.2,169
-0.9,-1.05,169
-0.9,-0.9,141
-0.9,-0.75,141
-0.9,-0.6,141
-0.9,-0.45,141
-0.9,-0.3,170
-0.9,-0.15,151
-0.9,0.0,123
-0.9,0.15,179
-0.9,0.3,170
-0.9,0.45,226
-0.9,0.6,255
-0.9,0.75,217
-0.9,0.9,217
-0.9,1.05,208
-0.9,1.2,189
-0.9,1.35,189
-0.9,1.5,189
-0.75,-1.5,85
-0.75,-1.35,85
-0.75,-1.2,85
-0.75,-1.05,141
-0.75,-0.9,141
-0.75,-0.75,141
-0.75,-0.6,113
-0.75,-0.45,123
-0.75,-0.3,123
-0.75,-0.15,132
-0.75,0.0,132
-0.75,0.15,160
-0.75,0.3,160
-0.75,0.45,189
-0.75,0.6,226
-0.75,0.75,226
-0.75,0.9,208
-0.75,1.05,189
-0.75,1.2,189
-0.75,1.35,189
-0.75,1.5,189
-0.6,-1.5,76
-0.6,-1.35,76
-0.6,-1.2,76
-0.6,-1.05,132
-0.6,-0.9,132
-0.6,-0.75,132
-0.6,-0.6,132
-0.6,-0.45,132
-0.6,-0.3,113
-0.6,-0.15,132
-0.6,0.0,132
-0.6,0.15,160
-0.6,0.3,170
-0.6,0.45,170
-0.6,0.6,189
-0.6,0.75,226
-0.6,0.9,189
-0.6,1.05,179
-0.6,1.2,179
-0.6,1.35,179
-0.6,1.5,198
-0.45,-1.5,66
-0.45,-1.35,66
-0.45,-1.2,85
-0.45,-1.05,85
-0.45,-0.9,123
-0.45,-0.75,141
-0.45,-0.6,142
-0.45,-0.45,142
-0.45,-0.3,142
-0.45,-0.15,123
-0.45,0.0,151
-0.45,0.15,160
-0.45,0.3,160
-0.45,0.45,170
-0.45,0.6,198
-0.45,0.75,179
-0.45,0.9,151
-0.45,1.05,151
-0.45,1.2,151
-0.45,1.35,151
-0.45,1.5,151
-0.3,-1.5,85
-0.3,-1.35,85
-0.3,-1.2,85
-0.3,-1.05,76
-0.3,-0.9,76
-0.3,-0.75,132
-0.3,-0.6,141
-0.3,-0.45,151
-0.3,-0.3,151
-0.3,-0.15,151
-0.3,0.0,160
-0.3,0.15,142
-0.3,0.3,170
-0.3,0.45,179
-0.3,0.6,113
-0.3,0.75,123
-0.3,0.9,113
-0.3,1.05,113
-0.3,1.2,151
-0.3,1.35,151
-0.3,1.5,151
-0.15,-1.5,85
-0.15,-1.35,85
-0.15,-1.2,85
-0.15,-1.05,85
-0.15,-0.9,76
-0.15,-0.75,76
-0.15,-0.6,85
-0.15,-0.45,95
-0.15,-0.3,95
-0.15,-0.15,160
-0.15,0.0,123
-0.15,0.15,85
-0.15,0.3,142
-0.15,0.45,113
-0.15,0.6,113
-0.15,0.75,123
-0.15,0.9,123
-0.15,1.05,113
-0.15,1.2,113
-0.15,1.35,132
-0.15,1.5,160
0.0,-1.5,85
0.0,-1.35,85
0.0,-1.2,85
0.0,-1.05,85
0.0,-0.9,85
0.0,-0.75,85
0.0,-0.6,85
0.0,-0.45,85
0.0,-0.3,95
0.0,-0.15,113
0.0,0.0,113
0.0,0.15,47
0.0,0.3,57
0.0,0.45,66
0.0,0.6,85
0.0,0.75,132
0.0,0.9,142
0.0,1.05,132
0.0,1.2,132
0.0,1.35,132
0.0,1.5,132
0.15,-1.5,85
0.15,-1.35,85
0.15,-1.2,85
0.15,-1.05,85
0.15,-0.9,85
0.15,-0.75,85
0.15,-0.6,95
0.15,-0.45,95
0.15,-0.3,85
0.15,-0.15,85
0.15,0.0,95
0.15,0.15,38
0.15,0.3,38
0.15,0.45,47
0.15,0.6,85
0.15,0.75,95
0.15,0.9,95
0.15,1.05,85
0.15,1.2,95
0.15,1.35,104
0.15,1.5,113
0.3,-1.5,85
0.3,-1.35,85
0.3,-1.2,85
0.3,-1.05,85
0.3,-0.9,85
0.3,-0.75,95
0.3,-0.6,85
0.3,-0.45,85
0.3,-0.3,85
0.3,-0.15,85
0.3,0.0,76
0.3,0.15,29
0.3,0.3,29
0.3,0.45,47
0.3,0.6,85
0.3,0.75,85
0.3,0.9,113
0.3,1.05,104
0.3,1.2,104
0.3,1.35,104
0.3,1.5,104
0.45,-1.5,66
0.45,-1.35,85
0.45,-1.2,85
0.45,-1.05,95
0.45,-0.9,95
0.45,-0.75,95
0.45,-0.6,85
0.45,-0.45,85
0.45,-0.3,85
0.45,-0.15,76
0.45,0.0,57
0.45,0.15,19
0.45,0.3,47
0.45,0.45,47
0.45,0.6,57
0.45,0.75,66
0.45,0.9,142
0.45,1.05,142
0.45,1.2,142
0.45,1.35,142
0.45,1.5,141
0.6,-1.5,95
0.6,-1.35,85
0.6,-1.2,95
0.6,-1.05,95
0.6,-0.9,95
0.6,-0.75,95
0.6,-0.6,95
0.6,-0.45,95
0.6,-0.3,113
0.6,-0.15,113
0.6,0.0,57
0.6,0.15,47
0.6,0.3,95
0.6,0.45,104
0.6,0.6,95
0.6,0.75,95
0.6,0.9,95
0.6,1.05,142
0.6,1.2,132
0.6,1.35,132
0.6,1.5,141
0.75,-1.5,95
0.75,-1.35,95
0.75,-1.2,95
0.75,-1.05,95
0.75,-0.9,95
0.75,-0.75,85
0.75,-0.6,85
0.75,-0.45,123
0.75,-0.3,113
0.75,-0.15,57
0.75,0.0,47
0.75,0.15,85
0.75,0.3,85
0.75,0.45,95
0.75,0.6,85
0.75,0.75,85
0.75,0.9,123
0.75,1.05,132
0.75,1.2,142
0.75,1.35,141
0.75,1.5,141
0.9,-1.5,95
0.9,-1.35,57
0.9,-1.2,57
0.9,-1.05,57
0.9,-0.9,57
0.9,-0.75,57
0.9,-0.6,29
0.9,-0.45,19
0.9,-0.3,47
0.9,-0.15,66
0.9,0.0,57
0.9,0.15,85
0.9,0.3,95
0.9,0.45,95
0.9,0.6,66
0.9,0.75,85
0.9,0.9,132
0.9,1.05,132
0.9,1.2,123
0.9,1.35,142
0.9,1.5,142
1.05,-1.5,48
1.05,-1.35,57
1.05,-1.2,19
1.05,-1.05,19
1.05,-0.9,19
1.05,-0.75,19
1.05,-0.6,19
1.05,-0.45,38
1.05,-0.3,38
1.05,-0.15,47
1.05,0.0,76
1.05,0.15,66
1.05,0.3,95
1.05,0.45,104
1.05,0.6,132
1.05,0.75,113
1.05,0.9,123
1.05,1.05,123
1.05,1.2,142
1.05,1.35,142
1.05,1.5,142
1.2,-1.5,19
1.2,-1.35,19
1.2,-1.2,19
1.2,-1.05,19
1.2,-0.9,29
1.2,-0.75,38
1.2,-0.6,38
1.2,-0.45,38
1.2,-0.3,38
1.2,-0.15,38
1.2,0.0,66
1.2,0.15,57
1.2,0.3,57
1.2,0.45,113
1.2,0.6,123
1.2,0.75,123
1.2,0.9,104
1.2,1.05,104
1.2,1.2,104
1.2,1.35,104
1.2,1.5,104
1.35,-1.5,38
1.35,-1.35,38
1.35,-1.2,47
1.35,-1.05,47
1.35,-0.9,57
1.35,-0.75,47
1.35,-0.6,38
1.35,-0.45,47
1.35,-0.3,29
1.35,-0.15,38
1.35,0.0,38
1.35,0.15,76
1.35,0.3,85
1.35,0.45,85
1.35,0.6,95
1.35,0.75,113
1.35,0.9,123
1.35,1.05,104
1.35,1.2,104
1.35,1.35,104
1.35,1.5,104
1.5,-1.5,38
1.5,-1.35,38
1.5,-1.2,38
1.5,-1.05,38
1.5,-0.9,57
1.5,-0.75,57
1.5,-0.6,57
1.5,-0.45,66
1.5,-0.3,57
1.5,-0.15,38
1.5,0.0,47
1.5,0.15,10
1.5,0.3,76
1.5,0.45,57
1.5,0.6,104
1.5,0.75,113
1.5,0.9,113
1.5,1.05,113
1.5,1.2,85
1.5,1.35,85
1.5,1.5,76
1.65,-1.5,38
1.65,-1.35,38
1.65,-1.2,38
1.65,-1.05,38
1.65,-0.9,38
1.65,-0.75,38
1.65,-0.6,57
1.65,-0.45,57
1.65,-0.3,57
1.65,-0.15,57
1.65,0.0,38
1.65,0.15,38
1.65,0.3,29
1.65,0.45,66
1.65,0.6,76
1.65,0.75,76
1.65,0.9,76
1.65,1.05,76
1.65,1.2,76
1.65,1.35,76
1.65,1.5,76
1.8,-1.5,38
1.8,-1.35,38
1.8,-1.2,19
1.8,-1.05,19
1.8,-0.9,19
1.8,-0.75,19
1.8,-0.6,19
1.8,-0.45,38
1.8,-0.3,29
1.8,-0.15,47
1.8,0.0,47
1.8,0.15,29
1.8,0.3,57
1.8,0.45,29
1.8,0.6,47
1.8,0.75,29
1.8,0.9,10
1.8,1.05,47
1.8,1.2,47
1.8,1.35,76
1.8,1.5,76
1.95,-1.5,19
1.95,-1.35,19
1.95,-1.2,19
1.95,-1.05,19
1.95,-0.9,19
1.95,-0.75,29
1.95,-0.6,38
1.95,-0.45,19
1.95,-0.3,19
1.95,-0.15,47
1.95,0.0,47
1.95,0.15,38
1.95,0.3,57
1.95,0.45,85
1.95,0.6,47
1.95,0.75,47
1.95,0.9,47
1.95,1.05,29
1.95,1.2,47
1.95,1.35,47
1.95,1.5,57
2.1,-1.5,19
2.1,-1.35,19
2.1,-1.2,19
2.1,-1.05,19
2.1,-0.9,19
2.1,-0.75,29
2.1,-0.6,29
2.1,-0.45,29
2.1,-0.3,29
2.1,-0.15,19
2.1,0.0,19
2.1,0.15,38
2.1,0.3,57
2.1,0.45,38
2.1,0.6,85
2.1,0.75,66
2.1,0.9,38
2.1,1.05,29
2.1,1.2,38
2.1,1.35,38
2.1,1.5,66
2.25,-1.5,19
2.25,-1.35,19
2.25,-1.2,19
2.25,-1.05,19
2.25,-0.9,19
2.25,-0.75,10
2.25,-0.6,10
2.25,-0.45,19
2.25,-0.3,10
2.25,-0.15,0
2.25,0.0,19
2.25,0.15,38
2.25,0.3,66
2.25,0.45,76
2.25,0.6,66
2.25,0.75,57
2.25,0.9,57
2.25,1.05,47
2.25,1.2,66
2.25,1.35,94
2.25,1.5,47
2.4,-1.5,29
2.4,-1.35,29
2.4,-1.2,29
2.4,-1.05,10
2.4,-0.9,10
2.4,-0.75,10
2.4,-0.6,10
2.4,-0.45,10
2.4,-0.3,10
2.4,-0.15,0
2.4,0.0,10
2.4,0.15,19
2.4,0.3,76
2.4,0.45,123
2.4,0.6,123
2.4,0.75,76
2.4,0.9,76
2.4,1.05,76
2.4,1.2,76
2.4,1.35,76
2.4,1.5,75
2.55,-1.5,38
2.55,-1.35,38
2.55,-1.2,38
2.55,-1.05,38
2.55,-0.9,38
2.55,-0.75,38
2.55,-0.6,38
2.55,-0.45,47
2.55,-0.3,19
2.55,-0.15,29
2.55,0.0,19
2.55,0.15,29
2.55,0.3,95
2.55,0.45,95
2.55,0.6,95
2.55,0.75,95
2.55,0.9,76
2.55,1.05,76
2.55,1.2,76
2.55,1.35,76
2.55,1.5,66
2.7,-1.5,38
2.7,-1.35,47
2.7,-1.2,47
2.7,-1.05,47
2.7,-0.9,57
2.7,-0.75,57
2.7,-0.6,57
2.7,-0.45,66
2.7,-0.3,47
2.7,-0.15,38
2.7,0.0,57
2.7,0.15,76
2.7,0.3,47
2.7,0.45,85
2.7,0.6,85
2.7,0.75,123
2.7,0.9,95
2.7,1.05,76
2.7,1.2,38
2.7,1.35,38
2.7,1.5,29
2.85,-1.5,57
2.85,-1.35,57
2.85,-1.2,47
2.85,-1.05,47
2.85,-0.9,47
2.85,-0.75,57
2.85,-0.6,57
2.85,-0.45,47
2.85,-0.3,47
2.85,-0.15,66
2.85,0.0,76
2.85,0.15,113
2.85,0.3,104
2.85,0.45,85
2.85,0.6,123
2.85,0.75,123
2.85,0.9,104
2.85,1.05,104
2.85,1.2,76
2.85,1.35,76
2.85,1.5,76
3.0,-1.5,85
3.0,-1.35,104
3.0,-1.2,94
3.0,-1.05,94
3.0,-0.9,76
3.0,-0.75,66
3.0,-0.6,66
3.0,-0.45,66
3.0,-0.3,47
3.0,-0.15,57
3.0,0.0,57
3.0,0.15,113
3.0,0.3,151
3.0,0.45,170
3.0,0.6,151
3.0,0.75,76
3.0,0.9,85
3.0,1.05,85
3.0,1.2,66
3.0,1.35,66
3.0,1.5,57
3.15,-1.5,85
3.15,-1.35,85
3.15,-1.2,104
3.15,-1.05,104
3.15,-0.9,104
3.15,-0.75,104
3.15,-0.6,104
3.15,-0.45,104
3.15,-0.3,66
3.15,-0.15,76
3.15,0.0,66
3.15,0.15,38
3.15,0.3,142
3.15,0.45,198
3.15,0.6,113
3.15,0.75,142
3.15,0.9,142
3.15,1.05,85
3.15,1.2,123
3.15,1.35,85
3.15,1.5,85
3.3,-1.5,104
3.3,-1.35,104
3.3,-1.2,104
3.3,-1.05,104
3.3,-0.9,104
3.3,-0.75,95
3.3,-0.6,85
3.3,-0.45,104
3.3,-0.3,113
3.3,-0.15,85
3.3,0.0,47
3.3,0.15,66
3.3,0.3,113
3.3,0.45,123
3.3,0.6,132
3.3,0.75,113
3.3,0.9,113
3.3,1.05,113
3.3,1.2,113
3.3,1.35,113
3.3,1.5,113
3.45,-1.5,132
3.45,-1.35,132
3.45,-1.2,104
3.45,-1.05,123
3.45,-0.9,123
3.45,-0.75,123
3.45,-0.6,132
3.45,-0.45,151
3.45,-0.3,113
3.45,-0.15,104
3.45,0.0,66
3.45,0.15,76
3.45,0.3,104
3.45,0.45,132
3.45,0.6,132
3.45,0.75,85
3.45,0.9,142
3.45,1.05,123
3.45,1.2,123
3.45,1.35,123
3.45,1.5,113
3.6,-1.5,142
3.6,-1.35,142
3.6,-1.2,142
3.6,-1.05,132
3.6,-0.9,142
3.6,-0.75,104
3.6,-0.6,104
3.6,-0.45,113
3.6,-0.3,142
3.6,-0.15,123
3.6,0.0,57
3.6,0.15,29
3.6,0.3,66
3.6,0.45,198
3.6,0.6,151
3.6,0.75,132
3.6,0.9,151
3.6,1.05,151
3.6,1.2,151
3.6,1.35,151
3.6,1.5,113
3.75,-1.5,113
3.75,-1.35,132
3.75,-1.2,151
3.75,-1.05,151
3.75,-0.9,151
3.75,-0.75,123
3.75,-0.6,132
3.75,-0.45,123
3.75,-0.3,113
3.75,-0.15,95
3.75,0.0,57
3.75,0.15,47
3.75,0.3,113
3.75,0.45,66
3.75,0.6,132
3.75,0.75,104
3.75,0.9,95
3.75,1.05,179
3.75,1.2,170
3.75,1.35,141
3.75,1.5,141
3.9,-1.5,161
3.9,-1.35,160
3.9,-1.2,160
3.9,-1.05,160
3.9,-0.9,160
3.9,-0.75,104
3.9,-0.6,104
3.9,-0.45,132
3.9,-0.3,170
3.9,-0.15,76
3.9,0.0,29
3.9,0.15,132
3.9,0.3,123
3.9,0.45,57
3.9,0.6,160
3.9,0.75,132
3.9,0.9,132
3.9,1.05,132
3.9,1.2,170
3.9,1.35,141
3.9,1.5,141
4.05,-1.5,179
4.05,-1.35,179
4.05,-1.2,179
4.05,-1.05,179
4.05,-0.9,179
4.05,-0.75,179
4.05,-0.6,151
4.05,-0.45,113
4.05,-0.3,142
4.05,-0.15,113
4.05,0.0,76
4.05,0.15,123
4.05,0.3,113
4.05,0.45,132
4.05,0.6,85
4.05,0.75,95
4.05,0.9,104
4.05,1.05,142
4.05,1.2,113
4.05,1.35,113
4.05,1.5,94
4.2,-1.5,179
4.2,-1.35,179
4.2,-1.2,179
4.2,-1.05,179
4.2,-0.9,170
4.2,-0.75,170
4.2,-0.6,170
4.2,-0.45,160
4.2,-0.3,76
4.2,-0.15,123
4.2,0.0,104
4.2,0.15,38
4.2,0.3,104
4.2,0.45,160
4.2,0.6,160
4.2,0.75,123
4.2,0.9,66
4.2,1.05,85
4.2,1.2,104
4.2,1.35,104
4.2,1.5,104
4.35,-1.5,179
4.35,-1.35,179
4.35,-1.2,179
4.35,-1.05,179
4.35,-0.9,179
4.35,-0.75,198
4.35,-0.6,198
4.35,-0.45,170
4.35,-0.3,170
4.35,-0.15,160
4.35,0.0,66
4.35,0.15,85
4.35,0.3,142
4.35,0.45,85
4.35,0.6,66
4.35,0.75,76
4.35,0.9,85
4.35,1.05,66
4.35,1.2,66
4.35,1.35,66
4.35,1.5,57
4.5,-1.5,142
4.5,-1.35,142
4.5,-1.2,142
4.5,-1.05,151
4.5,-0.9,151
4.5,-0.75,170
4.5,-0.6,208
4.5,-0.45,217
4.5,-0.3,236
4.5,-0.15,113
4.5,0.0,85
4.5,0.15,208
4.5,0.3,160
4.5,0.45,123
4.5,0.6,85
4.5,0.75,57
4.5,0.9,47
4.5,1.05,47
4.5,1.2,47
4.5,1.35,38
4.5,1.5,57
4.65,-1.5,161
4.65,-1.35,161
4.65,-1.2,161
4.65,-1.05,161
4.65,-0.9,161
4.65,-0.75,217
4.65,-0.6,245
4.65,-0.45,123
4.65,-0.3,142
4.65,-0.15,132
4.65,0.0,123
4.65,0.15,57
4.65,0.3,57
4.65,0.45,38
4.65,0.6,85
4.65,0.75,47
4.65,0.9,38
4.65,1.05,38
4.65,1.2,38
4.65,1.35,38
4.65,1.5,47
4.8,-1.5,142
4.8,-1.35,142
4.8,-1.2,142
4.8,-1.05,142
4.8,-0.9,142
4.8,-0.75,151
4.8,-0.6,151
4.8,-0.45,151
4.8,-0.3,66
4.8,-0.15,76
4.8,0.0,95
4.8,0.15,104
4.8,0.3,170
4.8,0.45,76
4.8,0.6,76
4.8,0.75,57
4.8,0.9,57
4.8,1.05,57
4.8,1.2,57
4.8,1.35,57
4.8,1.5,57
4.95,-1.5,151
4.95,-1.35,151
4.95,-1.2,151
4.95,-1.05,142
4.95,-0.9,142
4.95,-0.75,142
4.95,-0.6,142
4.95,-0.45,132
4.95,-0.3,104
4.95,-0.15,85
4.95,0.0,179
4.95,0.15,132
4.95,0.3,245
4.95,0.45,217
4.95,0.6,132
4.95,0.75,104
4.95,0.9,66
4.95,1.05,104
4.95,1.2,132
4.95,1.35,94
4.95,1.5,94
5.1,-1.5,142
5.1,-1.35,142
5.1,-1.2,142
5.1,-1.05,142
5.1,-0.9,189
5.1,-0.75,189
5.1,-0.6,226
5.1,-0.45,255
5.1,-0.3,255
5.1,-0.15,208
5.1,0.0,132
5.1,0.15,76
5.1,0.3,236
5.1,0.45,189
5.1,0.6,170
5.1,0.75,132
5.1,0.9,142
5.1,1.05,85
5.1,1.2,76
5.1,1.35,94
5.1,1.5,94
5.25,-1.5,151
5.25,-1.35,207
5.25,-1.2,208
5.25,-1.05,255
5.25,-0.9,255
5.25,-0.75,255
5.25,-0.6,255
5.25,-0.45,255
5.25,-0.3,255
5.25,-0.15,170
5.25,0.0,160
5.25,0.15,38
5.25,0.3,76
5.25,0.45,0
5.25,0.6,160
5.25,0.75,104
5.25,0.9,85
5.25,1.05,47
5.25,1.2,57
5.25,1.35,57
5.25,1.5,57
5.4,-1.5,123
5.4,-1.35,151
5.4,-1.2,151
5.4,-1.05,151
5.4,-0.9,207
5.4,-0.75,179
5.4,-0.6,179
5.4,-0.45,236
5.4,-0.3,255
5.4,-0.15,179
5.4,0.0,123
5.4,0.15,189
5.4,0.3,95
5.4,0.45,113
5.4,0.6,113
5.4,0.75,76
5.4,0.9,76
5.4,1.05,38
5.4,1.2,38
5.4,1.35,38
5.4,1.5,38
5.55,-1.5,123
5.55,-1.35,123
5.55,-1.2,123
5.55,-1.05,95
5.55,-0.9,94
5.55,-0.75,95
5.55,-0.6,104
5.55,-0.45,151
5.55,-0.3,151
5.55,-0.15,123
5.55,0.0,142
5.55,0.15,85
5.55,0.3,57
5.55,0.45,113
5.55,0.6,66
5.55,0.75,66
5.55,0.9,29
5.55,1.05,29
5.55,1.2,38
5.55,1.35,38
5.55,1.5,38
5.7,-1.5,66
5.7,-1.35,76
5.7,-1.2,38
5.7,-1.05,38
5.7,-0.9,38
5.7,-0.75,38
5.7,-0.6,19
5.7,-0.45,10
5.7,-0.3,38
5.7,-0.15,29
5.7,0.0,123
5.7,0.15,66
5.7,0.3,19
5.7,0.45,85
5.7,0.6,57
5.7,0.75,0
5.7,0.9,0
5.7,1.05,0
5.7,1.2,38
5.7,1.35,38
5.7,1.5,38
5.85,-1.5,76
5.85,-1.35,76
5.85,-1.2,76
5.85,-1.05,76
5.85,-0.9,57
5.85,-0.75,10
5.85,-0.6,19
5.85,-0.45,29
5.85,-0.3,29
5.85,-0.15,123
5.85,0.0,19
5.85,0.15,0
5.85,0.3,104
5.85,0.45,104
5.85,0.6,47
5.85,0.75,29
5.85,0.9,29
5.85,1.05,10
5.85,1.2,10
5.85,1.35,10
5.85,1.5,10
6.0,-1.5,76
6.0,-1.35,95
6.0,-1.2,66
6.0,-1.05,57
6.0,-0.9,57
6.0,-0.75,57
6.0,-0.6,85
6.0,-0.45,57
6.0,-0.3,132
6.0,-0.15,76
6.0,0.0,38
6.0,0.15,66
6.0,0.3,76
6.0,0.45,19
6.0,0.6,0
6.0,0.75,10
6.0,0.9,19
6.0,1.05,10
6.0,1.2,10
6.0,1.35,10
6.0,1.5,47
6.15,-1.5,123
6.15,-1.35,132
6.15,-1.2,132
6.15,-1.05,142
6.15,-0.9,142
6.15,-0.75,142
6.15,-0.6,95
6.15,-0.45,151
6.15,-0.3,104
6.15,-0.15,132
6.15,0.0,160
6.15,0.15,76
6.15,0.3,160
6.15,0.45,10
6.15,0.6,29
6.15,0.75,19
6.15,0.9,0
6.15,1.05,0
6.15,1.2,0
6.15,1.35,0
6.15,1.5,0
6.3,-1.5,132
6.3,-1.35,132
6.3,-1.2,132
6.3,-1.05,132
6.3,-0.9,132
6.3,-0.75,132
6.3,-0.6,189
6.3,-0.45,208
6.3,-0.3,217
6.3,-0.15,170
6.3,0.0,47
6.3,0.15,47
6.3,0.3,132
6.3,0.45,66
6.3,0.6,29
6.3,0.75,19
6.3,0.9,10
6.3,1.05,0
6.3,1.2,0
6.3,1.35,0
6.3,1.5,0
6.45,-1.5,123
6.45,-1.35,123
6.45,-1.2,123
6.45,-1.05,160
6.45,-0.9,142
6.45,-0.75,160
6.45,-0.6,160
6.45,-0.45,151
6.45,-0.3,104
6.45,-0.15,57
6.45,0.0,85
6.45,0.15,85
6.45,0.3,113
6.45,0.45,132
6.45,0.6,57
6.45,0.75,29
6.45,0.9,19
6.45,1.05,29
6.45,1.2,10
6.45,1.35,10
6.45,1.5,10
6.6,-1.5,123
6.6,-1.35,123
6.6,-1.2,160
6.6,-1.05,160
6.6,-0.9,160
6.6,-0.75,123
6.6,-0.6,123
6.6,-0.45,38
6.6,-0.3,57
6.6,-0.15,19
6.6,0.0,29
6.6,0.15,189
6.6,0.3,104
6.6,0.45,160
6.6,0.6,142
6.6,0.75,47
6.6,0.9,47
6.6,1.05,47
6.6,1.2,47
6.6,1.35,47
6.6,1.5,47
6.75,-1.5,142
6.75,-1.35,142
6.75,-1.2,142
6.75,-1.05,142
6.75,-0.9,142
6.75,-0.75,142
6.75,-0.6,132
6.75,-0.45,95
6.75,-0.3,38
6.75,-0.15,57
6.75,0.0,160
6.75,0.15,217
6.75,0.3,0
6.75,0.45,66
6.75,0.6,57
6.75,0.75,85
6.75,0.9,76
6.75,1.05,66
6.75,1.2,10
6.75,1.35,10
6.75,1.5,10
6.9,-1.5,151
6.9,-1.35,151
6.9,-1.2,151
6.9,-1.05,151
6.9,-0.9,132
6.9,-0.75,132
6.9,-0.6,151
6.9,-0.45,151
6.9,-0.3,142
6.9,-0.15,85
6.9,0.0,38
6.9,0.15,57
6.9,0.3,47
6.9,0.45,95
6.9,0.6,29
6.9,0.75,19
6.9,0.9,66
6.9,1.05,76
6.9,1.2,38
6.9,1.35,10
6.9,1.5,10
7.05,-1.5,170
7.05,-1.35,170
7.05,-1.2,170
7.05,-1.05,170
7.05,-0.9,142
7.05,-0.75,142
7.05,-0.6,198
7.05,-0.45,198
7.05,-0.3,189
7.05,-0.15,132
7.05,0.0,113
7.05,0.15,104
7.05,0.3,95
7.05,0.45,85
7.05,0.6,38
7.05,0.75,10
7.05,0.9,38
7.05,1.05,38
7.05,1.2,29
7.05,1.35,29
7.05,1.5,29
7.2,-1.5,170
7.2,-1.35,170
7.2,-1.2,170
7.2,-1.05,208
7.2,-0.9,208
7.2,-0.75,198
7.2,-0.6,189
7.2,-0.45,142
7.2,-0.3,217
7.2,-0.15,142
7.2,0.0,95
7.2,0.15,198
7.2,0.3,38
7.2,0.45,0
7.2,0.6,57
7.2,0.75,57
7.2,0.9,38
7.2,1.05,47
7.2,1.2,47
7.2,1.35,38
7.2,1.5,38
7.35,-1.5,207
7.35,-1.35,207
7.35,-1.2,160
7.35,-1.05,198
7.35,-0.9,217
7.35,-0.75,226
7.35,-0.6,189
7.35,-0.45,179
7.35,-0.3,142
7.35,-0.15,10
7.35,0.0,29
7.35,0.15,47
7.35,0.3,66
7.35,0.45,66
7.35,0.6,38
7.35,0.75,47
7.35,0.9,76
7.35,1.05,57
7.35,1.2,57
7.35,1.35,76
7.35,1.5,76
7.5,-1.5,217
7.5,-1.35,217
7.5,-1.2,217
7.5,-1.05,189
7.5,-0.9,189
7.5,-0.75,255
7.5,-0.6,198
7.5,-0.45,198
7.5,-0.3,151
7.5,-0.15,47
7.5,0.0,29
7.5,0.15,38
7.5,0.3,47
7.5,0.45,29
7.5,0.6,85
7.5,0.75,76
7.5,0.9,104
7.5,1.05,104
7.5,1.2,94
7.5,1.35,132
7.5,1.5,132
7.65,-1.5,170
7.65,-1.35,170
7.65,-1.2,179
7.65,-1.05,179
7.65,-0.9,160
7.65,-0.75,123
7.65,-0.6,132
7.65,-0.45,170
7.65,-0.3,76
7.65,-0.15,95
7.65,0.0,10
7.65,0.15,151
7.65,0.3,66
7.65,0.45,76
7.65,0.6,95
7.65,0.75,123
7.65,0.9,132
7.65,1.05,132
7.65,1.2,132
7.65,1.35,132
7.65,1.5,132
7.8,-1.5,198
7.8,-1.35,132
7.8,-1.2,132
7.8,-1.05,132
7.8,-0.9,132
7.8,-0.75,95
7.8,-0.6,95
7.8,-0.45,95
7.8,-0.3,95
7.8,-0.15,151
7.8,0.0,0
7.8,0.15,255
7.8,0.3,160
7.8,0.45,132
7.8,0.6,170
7.8,0.75,104
7.8,0.9,95
7.8,1.05,132
7.8,1.2,132
7.8,1.35,132
7.8,1.5,132
7.95,-1.5,170
7.95,-1.35,170
7.95,-1.2,132
7.95,-1.05,95
7.95,-0.9,95
7.95,-0.75,95
7.95,-0.6,76
7.95,-0.45,104
7.95,-0.3,95
7.95,-0.15,123
7.95,0.0,95
7.95,0.15,217
7.95,0.3,170
7.95,0.45,160
7.95,0.6,208
7.95,0.75,198
7.95,0.9,170
7.95,1.05,132
7.95,1.2,132
7.95,1.35,132
7.95,1.5,94
8.1,-1.5,142
8.1,-1.35,142
8.1,-1.2,142
8.1,-1.05,132
8.1,-0.9,123
8.1,-0.75,85
8.1,-0.6,142
8.1,-0.45,104
8.1,-0.3,95
8.1,-0.15,10
8.1,0.0,95
8.1,0.15,151
8.1,0.3,179
8.1,0.45,208
8.1,0.6,198
8.1,0.75,151
8.1,0.9,123
8.1,1.05,142
8.1,1.2,142
8.1,1.35,151
8.1,1.5,123
8.25,-1.5,113
8.25,-1.35,113
8.25,-1.2,113
8.25,-1.05,113
8.25,-0.9,104
8.25,-0.75,95
8.25,-0.6,66
8.25,-0.45,38
8.25,-0.3,0
8.25,-0.15,19
8.25,0.0,76
8.25,0.15,85
8.25,0.3,132
8.25,0.45,66
8.25,0.6,95
8.25,0.75,123
8.25,0.9,85
8.25,1.05,76
8.25,1.2,85
8.25,1.35,85
8.25,1.5,85
8.4,-1.5,114
8.4,-1.35,113
8.4,-1.2,123
8.4,-1.05,123
8.4,-0.9,123
8.4,-0.75,123
8.4,-0.6,104
8.4,-0.45,113
8.4,-0.3,47
8.4,-0.15,132
8.4,0.0,0
8.4,0.15,66
8.4,0.3,85
8.4,0.45,76
8.4,0.6,10
8.4,0.75,57
8.4,0.9,57
8.4,1.05,57
8.4,1.2,57
8.4,1.35,57
8.4,1.5,94
8.55,-1.5,170
8.55,-1.35,170
8.55,-1.2,142
8.55,-1.05,142
8.55,-0.9,123
8.55,-0.75,142
8.55,-0.6,66
8.55,-0.45,113
8.55,-0.3,29
8.55,-0.15,38
8.55,0.0,0
8.55,0.15,47
8.55,0.3,66
8.55,0.45,85
8.55,0.6,29
8.55,0.75,19
8.55,0.9,29
8.55,1.05,29
8.55,1.2,47
8.55,1.35,47
8.55,1.5,57
8.7,-1.5,179
8.7,-1.35,179
8.7,-1.2,189
8.7,-1.05,189
8.7,-0.9,189
8.7,-0.75,113
8.7,-0.6,57
8.7,-0.45,38
8.7,-0.3,104
8.7,-0.15,132
8.7,0.0,104
8.7,0.15,85
8.7,0.3,57
8.7,0.45,47
8.7,0.6,29
8.7,0.75,19
8.7,0.9,19
8.7,1.05,19
8.7,1.2,29
8.7,1.35,47
8.7,1.5,47
8.85,-1.5,179
8.85,-1.35,179
8.85,-1.2,179
8.85,-1.05,179
8.85,-0.9,179
8.85,-0.75,132
8.85,-0.6,95
8.85,-0.45,38
8.85,-0.3,123
8.85,-0.15,38
8.85,0.0,123
8.85,0.15,47
8.85,0.3,76
8.85,0.45,76
8.85,0.6,47
8.85,0.75,38
8.85,0.9,57
8.85,1.05,57
8.85,1.2,57
8.85,1.35,57
8.85,1.5,47
9.0,-1.5,151
9.0,-1.35,151
9.0,-1.2,151
9.0,-1.05,151
9.0,-0.9,160
9.0,-0.75,161
9.0,-0.6,189
9.0,-0.45,170
9.0,-0.3,132
9.0,-0.15,38
9.0,0.0,85
9.0,0.15,38
9.0,0.3,10
9.0,0.45,29
9.0,0.6,38
9.0,0.75,38
9.0,0.9,29
9.0,1.05,19
9.0,1.2,47
9.0,1.35,47
9.0,1.5,47
9.15,-1.5,142
9.15,-1.35,113
9.15,-1.2,113
9.15,-1.05,113
9.15,-0.9,76
9.15,-0.75,160
9.15,-0.6,160
9.15,-0.45,198
9.15,-0.3,142
9.15,-0.15,132
9.15,0.0,142
9.15,0.15,104
9.15,0.3,19
9.15,0.45,38
9.15,0.6,29
9.15,0.75,29
9.15,0.9,19
9.15,1.05,29
9.15,1.2,66
9.15,1.35,57
9.15,1.5,57
9.3,-1.5,76
9.3,-1.35,48
9.3,-1.2,48
9.3,-1.05,48
9.3,-0.9,57
9.3,-0.75,104
9.3,-0.6,104
9.3,-0.45,132
9.3,-0.3,123
9.3,-0.15,85
9.3,0.0,66
9.3,0.15,66
9.3,0.3,29
9.3,0.45,57
9.3,0.6,57
9.3,0.75,57
9.3,0.9,66
9.3,1.05,66
9.3,1.2,76
9.3,1.35,76
9.3,1.5,76
9.45,-1.5,48
9.45,-1.35,48
9.45,-1.2,48
9.45,-1.05,48
9.45,-0.9,48
9.45,-0.75,47
9.45,-0.6,10
9.45,-0.45,0
9.45,-0.3,85
9.45,-0.15,76
9.45,0.0,0
9.45,0.15,19
9.45,0.3,104
9.45,0.45,132
9.45,0.6,132
9.45,0.75,76
9.45,0.9,76
9.45,1.05,76
9.45,1.2,76
9.45,1.35,76
9.45,1.5,76
9.6,-1.5,38
9.6,-1.35,38
9.6,-1.2,0
9.6,-1.05,0
9.6,-0.9,0
9.6,-0.75,29
9.6,-0.6,29
9.6,-0.45,57
9.6,-0.3,113
9.6,-0.15,76
9.6,0.0,0
9.6,0.15,47
9.6,0.3,160
9.6,0.45,189
9.6,0.6,76
9.6,0.75,47
9.6,0.9,47
9.6,1.05,85
9.6,1.2,85
9.6,1.35,85
9.6,1.5,47
9.75,-1.5,57
9.75,-1.35,57
9.75,-1.2,57
9.75,-1.05,57
9.75,-0.9,10
9.75,-0.75,29
9.75,-0.6,47
9.75,-0.45,76
9.75,-0.3,123
9.75,-0.15,38
9.75,0.0,0
9.75,0.15,66
9.75,0.3,142
9.75,0.45,123
9.75,0.6,76
9.75,0.75,95
9.75,0.9,95
9.75,1.05,85
9.75,1.2,85
9.75,1.35,85
9.75,1.5,85
9.9,-1.5,66
9.9,-1.35,29
9.9,-1.2,29
9.9,-1.05,29
9.9,-0.9,29
9.9,-0.75,47
9.9,-0.6,47
9.9,-0.45,95
9.9,-0.3,66
9.9,-0.15,85
9.9,0.0,47
9.9,0.15,57
9.9,0.3,76
9.9,0.45,85
9.9,0.6,57
9.9,0.75,85
9.9,0.9,76
9.9,1.05,76
9.9,1.2,76
9.9,1.35,113
9.9,1.5,113
10.05,-1.5,57
10.05,-1.35,57
10.05,-1.2,47
10.05,-1.05,94
10.05,-0.9,94
10.05,-0.75,85
10.05,-0.6,113
10.05,-0.45,66
10.05,-0.3,85
10.05,-0.15,47
10.05,0.0,57
10.05,0.15,38
10.05,0.3,10
10.05,0.45,47
10.05,0.6,76
10.05,0.75,76
10.05,0.9,76
10.05,1.05,76
10.05,1.2,76
10.05,1.35,94
10.05,1.5,113
10.2,-1.5,47
10.2,-1.35,47
10.2,-1.2,47
10.2,-1.05,47
10.2,-0.9,57
10.2,-0.75,95
10.2,-0.6,123
10.2,-0.45,123
10.2,-0.3,160
10.2,-0.15,151
10.2,0.0,123
10.2,0.15,47
10.2,0.3,0
10.2,0.45,47
10.2,0.6,57
10.2,0.75,76
10.2,0.9,85
10.2,1.05,132
10.2,1.2,132
10.2,1.35,132
10.2,1.5,95
10.35,-1.5,85
10.35,-1.35,85
10.35,-1.2,85
10.35,-1.05,85
10.35,-0.9,85
10.35,-0.75,95
10.35,-0.6,132
10.35,-0.45,179
10.35,-0.3,95
10.35,-0.15,95
10.35,0.0,160
10.35,0.15,160
10.35,0.3,29
10.35,0.45,66
10.35,0.6,95
10.35,0.75,104
10.35,0.9,113
10.35,1.05,151
10.35,1.2,151
10.35,1.35,132
10.35,1.5,132
10.5,-1.5,76
10.5,-1.35,85
10.5,-1.2,85
10.5,-1.05,85
10.5,-0.9,123
10.5,-0.75,123
10.5,-0.6,132
10.5,-0.45,104
10.5,-0.3,76
10.5,-0.15,113
10.5,0.0,208
10.5,0.15,245
10.5,0.3,151
10.5,0.45,85
10.5,0.6,95
10.5,0.75,95
10.5,0.9,113
10.5,1.05,113
10.5,1.2,113
10.5,1.35,113
10.5,1.5,123
10.65,-1.5,95
10.65,-1.35,132
10.65,-1.2,113
10.65,-1.05,113
10.65,-0.9,123
10.65,-0.75,123
10.65,-0.6,142
10.65,-0.45,113
10.65,-0.3,151
10.65,-0.15,170
10.65,0.0,255
10.65,0.15,255
10.65,0.3,208
10.65,0.45,104
10.65,0.6,104
10.65,0.75,95
10.65,0.9,104
10.65,1.05,104
10.65,1.2,104
10.65,1.35,123
10.65,1.5,123
10.8,-1.5,142
10.8,-1.35,142
10.8,-1.2,142
10.8,-1.05,151
10.8,-0.9,95
10.8,-0.75,95
10.8,-0.6,95
10.8,-0.45,170
10.8,-0.3,142
10.8,-0.15,151
10.8,0.0,255
10.8,0.15,255
10.8,0.3,236
10.8,0.45,217
10.8,0.6,142
10.8,0.75,142
10.8,0.9,132
10.8,1.05,142
10.8,1.2,142
10.8,1.35,142
10.8,1.5,142
10.95,-1.5,132
10.95,-1.35,132
10.95,-1.2,132
10.95,-1.05,132
10.95,-0.9,123
10.95,-0.75,113
10.95,-0.6,113
10.95,-0.45,47
10.95,-0.3,104
10.95,-0.15,142
10.95,0.0,226
10.95,0.15,255
10.95,0.3,226
10.95,0.45,179
10.95,0.6,217
10.95,0.75,189
10.95,0.9,189
10.95,1.05,151
10.95,1.2,151
10.95,1.35,151
10.95,1.5,95
11.1,-1.5,76
11.1,-1.35,76
11.1,-1.2,76
11.1,-1.05,76
11.1,-0.9,85
11.1,-0.75,85
11.1,-0.6,95
11.1,-0.45,38
11.1,-0.3,66
11.1,-0.15,142
11.1,0.0,142
11.1,0.15,255
11.1,0.3,226
11.1,0.45,179
11.1,0.6,170
11.1,0.75,198
11.1,0.9,217
11.1,1.05,179
11.1,1.2,141
11.1,1.35,141
11.1,1.5,132
11.25,-1.5,76
11.25,-1.35,76
11.25,-1.2,76
11.25,-1.05,85
11.25,-0.9,85
11.25,-0.75,48
11.25,-0.6,47
11.25,-0.45,29
11.25,-0.3,66
11.25,-0.15,113
11.25,0.0,113
11.25,0.15,226
11.25,0.3,226
11.25,0.45,151
11.25,0.6,142
11.25,0.75,142
11.25,0.9,179
11.25,1.05,179
11.25,1.2,179
11.25,1.35,170
11.25,1.5,113
11.4,-1.5,47
11.4,-1.35,47
11.4,-1.2,47
11.4,-1.05,104
11.4,-0.9,95
11.4,-0.75,104
11.4,-0.6,95
11.4,-0.45,132
11.4,-0.3,142
11.4,-0.15,113
11.4,0.0,170
11.4,0.15,226
11.4,0.3,217
11.4,0.45,170
11.4,0.6,198
11.4,0.75,198
11.4,0.9,151
11.4,1.05,151
11.4,1.2,208
11.4,1.35,189
11.4,1.5,189
11.55,-1.5,57
11.55,-1.35,113
11.55,-1.2,113
11.55,-1.05,104
11.55,-0.9,104
11.55,-0.75,104
11.55,-0.6,113
11.55,-0.45,95
11.55,-0.3,170
11.55,-0.15,151
11.55,0.0,142
11.55,0.15,179
11.55,0.3,123
11.55,0.45,151
11.55,0.6,160
11.55,0.75,207
11.55,0.9,207
11.55,1.05,208
11.55,1.2,208
11.55,1.35,208
11.55,1.5,208
11.7,-1.5,94
11.7,-1.35,113
11.7,-1.2,113
11.7,-1.05,76
11.7,-0.9,76
11.7,-0.75,76
11.7,-0.6,76
11.7,-0.45,113
11.7,-0.3,160
11.7,-0.15,160
11.7,0.0,160
11.7,0.15,104
11.7,0.3,95
11.7,0.45,132
11.7,0.6,132
11.7,0.75,160
11.7,0.9,208
11.7,1.05,208
11.7,1.2,151
11.7,1.35,151
11.7,1.5,151
11.85,-1.5,47
11.85,-1.35,141
11.85,-1.2,132
11.85,-1.05,132
11.85,-0.9,132
11.85,-0.75,132
11.85,-0.6,142
11.85,-0.45,151
11.85,-0.3,170
11.85,-0.15,160
11.85,0.0,132
11.85,0.15,57
11.85,0.3,95
11.85,0.45,95
11.85,0.6,132
11.85,0.75,132
11.85,0.9,132
11.85,1.05,123
11.85,1.2,123
11.85,1.35,114
11.85,1.5,114
12.0,-1.5,38
12.0,-1.35,38
12.0,-1.2,113
12.0,-1.05,85
12.0,-0.9,85
12.0,-0.75,85
12.0,-0.6,85
12.0,-0.45,95
12.0,-0.3,179
12.0,-0.15,132
12.0,0.0,142
12.0,0.15,95
12.0,0.3,85
12.0,0.45,85
12.0,0.6,142
12.0,0.75,142
12.0,0.9,86
12.0,1.05,86
12.0,1.2,86
12.0,1.35,67
12.0,1.5,67
12.15,-1.5,66
12.15,-1.35,66
12.15,-1.2,76
12.15,-1.05,76
12.15,-0.9,94
12.15,-0.75,104
12.15,-0.6,95
12.15,-0.45,113
12.15,-0.3,151
12.15,-0.15,142
12.15,0.0,142
12.15,0.15,113
12.15,0.3,85
12.15,0.45,57
12.15,0.6,113
12.15,0.75,114
12.15,0.9,114
12.15,1.05,114
12.15,1.2,104
12.15,1.35,57
12.15,1.5,57
12.3,-1.5,66
12.3,-1.35,66
12.3,-1.2,66
12.3,-1.05,66
12.3,-0.9,66
12.3,-0.75,104
12.3,-0.6,132
12.3,-0.45,198
12.3,-0.3,226
12.3,-0.15,151
12.3,0.0,123
12.3,0.15,95
12.3,0.3,19
12.3,0.45,19
12.3,0.6,104
12.3,0.75,104
12.3,0.9,104
12.3,1.05,95
12.3,1.2,95
12.3,1.35,95
12.3,1.5,95
12.45,-1.5,56
12.45,-1.35,57
12.45,-1.2,57
12.45,-1.05,57
12.45,-0.9,113
12.45,-0.75,123
12.45,-0.6,123
12.45,-0.45,151
12.45,-0.3,151
12.45,-0.15,151
12.45,0.0,142
12.45,0.15,85
12.45,0.3,10
12.45,0.45,0
12.45,0.6,57
12.45,0.75,57
12.45,0.9,95
12.45,1.05,95
12.45,1.2,95
12.45,1.35,95
12.45,1.5,95
12.6,-1.5,103
12.6,-1.35,103
12.6,-1.2,104
12.6,-1.05,122
12.6,-0.9,123
12.6,-0.75,123
12.6,-0.6,142
12.6,-0.45,179
12.6,-0.3,179
12.6,-0.15,179
12.6,0.0,142
12.6,0.15,47
12.6,0.3,10
12.6,0.45,0
12.6,0.6,47
12.6,0.75,48
12.6,0.9,48
12.6,1.05,48
12.6,1.2,85
12.6,1.35,85
12.6,1.5,85
12.75,-1.5,103
12.75,-1.35,94
12.75,-1.2,75
12.75,-1.05,75
12.75,-0.9,85
12.75,-0.75,85
12.75,-0.6,85
12.75,-0.45,85
12.75,-0.3,123
12.75,-0.15,132
12.75,0.0,76
12.75,0.15,47
12.75,0.3,38
12.75,0.45,0
12.75,0.6,47
12.75,0.75,47
12.75,0.9,47
12.75,1.05,47
12.75,1.2,47
12.75,1.35,85
12.75,1.5,85
12.9,-1.5,56
12.9,-1.35,57
12.9,-1.2,57
12.9,-1.05,66
12.9,-0.9,66
12.9,-0.75,85
12.9,-0.6,66
12.9,-0.45,85
12.9,-0.3,123
12.9,-0.15,123
12.9,0.0,66
12.9,0.15,38
12.9,0.3,38
12.9,0.45,38
12.9,0.6,47
12.9,0.75,47
12.9,0.9,47
12.9,1.05,47
12.9,1.2,47
12.9,1.35,47
12.9,1.5,47
13.05,-1.5,56
13.05,-1.35,66
13.05,-1.2,66
13.05,-1.05,66
13.05,-0.9,66
13.05,-0.75,85
13.05,-0.6,66
13.05,-0.45,66
13.05,-0.3,123
13.05,-0.15,66
13.05,0.0,66
13.05,0.15,0
13.05,0.3,38
13.05,0.45,38
13.05,0.6,85
13.05,0.75,47
13.05,0.9,47
13.05,1.05,47
13.05,1.2,47
13.05,1.35,47
13.05,1.5,47
