-3.0,-1.5,243
-3.0,-1.35,244
-3.0,-1.2,225
-3.0,-1.05,196
-3.0,-0.9,197
-3.0,-0.75,197
-3.0,-0.6,197
-3.0,-0.45,198
-3.0,-0.3,228
-3.0,-0.15,228
-3.0,0.0,228
-3.0,0.15,228
-3.0,0.3,228
-3.0,0.45,228
-3.0,0.6,228
-3.0,0.75,228
-3.0,0.9,238
-3.0,1.05,237
-3.0,1.2,237
-3.0,1.35,236
-3.0,1.5,236
-2.85,-1.5,214
-2.85,-1.35,244
-2.85,-1.2,244
-2.85,-1.05,227
-2.85,-0.9,227
-2.85,-0.75,197
-2.85,-0.6,197
-2.85,-0.45,198
-2.85,-0.3,228
-2.85,-0.15,228
-2.85,0.0,236
-2.85,0.15,229
-2.85,0.3,228
-2.85,0.45,228
-2.85,0.6,228
-2.85,0.75,228
-2.85,0.9,238
-2.85,1.05,238
-2.85,1.2,237
-2.85,1.35,237
-2.85,1.5,236
-2.7,-1.5,214
-2.7,-1.35,214
-2.7,-1.2,244
-2.7,-1.05,227
-2.7,-0.9,227
-2.7,-0.75,228
-2.7,-0.6,228
-2.7,-0.45,198
-2.7,-0.3,228
-2.7,-0.15,236
-2.7,0.0,236
-2.7,0.15,254
-2.7,0.3,229
-2.7,0.45,228
-2.7,0.6,228
-2.7,0.75,239
-2.7,0.9,239
-2.7,1.05,238
-2.7,1.2,238
-2.7,1.35,237
-2.7,1.5,236
-2.55,-1.5,213
-2.55,-1.35,214
-2.55,-1.2,215
-2.55,-1.05,245
-2.55,-0.9,227
-2.55,-0.75,228
-2.55,-0.6,228
-2.55,-0.45,229
-2.55,-0.3,236
-2.55,-0.15,236
-2.55,0.0,236
-2.55,0.15,254
-2.55,0.3,254
-2.55,0.45,228
-2.55,0.6,240
-2.55,0.75,240
-2.55,0.9,239
-2.55,1.05,239
-2.55,1.2,238
-2.55,1.35,237
-2.55,1.5,212
-2.4,-1.5,213
-2.4,-1.35,214
-2.4,-1.2,214
-2.4,-1.05,245
-2.4,-0.9,227
-2.4,-0.75,228
-2.4,-0.6,228
-2.4,-0.45,237
-2.4,-0.3,236
-2.4,-0.15,236
-2.4,0.0,236
-2.4,0.15,255
-2.4,0.3,254
-2.4,0.45,254
-2.4,0.6,241
-2.4,0.75,240
-2.4,0.9,239
-2.4,1.05,239
-2.4,1.2,238
-2.4,1.35,238
-2.4,1.5,230
-2.25,-1.5,201
-2.25,-1.35,213
-2.25,-1.2,214
-2.25,-1.05,214
-2.25,-0.9,215
-2.25,-0.75,228
-2.25,-0.6,255
-2.25,-0.45,236
-2.25,-0.3,255
-2.25,-0.15,255
-2.25,0.0,255
-2.25,0.15,255
-2.25,0.3,255
-2.25,0.45,254
-2.25,0.6,254
-2.25,0.75,240
-2.25,0.9,240
-2.25,1.05,239
-2.25,1.2,239
-2.25,1.35,219
-2.25,1.5,218
-2.1,-1.5,201
-2.1,-1.35,201
-2.1,-1.2,202
-2.1,-1.05,202
-2.1,-0.9,202
-2.1,-0.75,242
-2.1,-0.6,242
-2.1,-0.45,242
-2.1,-0.3,224
-2.1,-0.15,242
-2.1,0.0,242
-2.1,0.15,255
-2.1,0.3,255
-2.1,0.45,254
-2.1,0.6,254
-2.1,0.75,253
-2.1,0.9,227
-2.1,1.05,227
-2.1,1.2,189
-2.1,1.35,188
-2.1,1.5,188
-1.95,-1.5,189
-1.95,-1.35,189
-1.95,-1.2,202
-1.95,-1.05,202
-1.95,-0.9,203
-1.95,-0.75,229
-1.95,-0.6,229
-1.95,-0.45,242
-1.95,-0.3,242
-1.95,-0.15,242
-1.95,0.0,242
-1.95,0.15,255
-1.95,0.3,255
-1.95,0.45,255
-1.95,0.6,255
-1.95,0.75,254
-1.95,0.9,254
-1.95,1.05,228
-1.95,1.2,189
-1.95,1.35,189
-1.95,1.5,188
-1.8,-1.5,177
-1.8,-1.35,189
-1.8,-1.2,190
-1.8,-1.05,190
-1.8,-0.9,223
-1.8,-0.75,229
-1.8,-0.6,229
-1.8,-0.45,230
-1.8,-0.3,211
-1.8,-0.15,230
-1.8,0.0,230
-1.8,0.15,255
-1.8,0.3,255
-1.8,0.45,255
-1.8,0.6,255
-1.8,0.75,254
-1.8,0.9,247
-1.8,1.05,247
-1.8,1.2,202
-1.8,1.35,201
-1.8,1.5,200
-1.65,-1.5,177
-1.65,-1.35,178
-1.65,-1.2,216
-1.65,-1.05,217
-1.65,-0.9,198
-1.65,-0.75,223
-1.65,-0.6,223
-1.65,-0.45,224
-1.65,-0.3,224
-1.65,-0.15,224
-1.65,0.0,224
-1.65,0.15,224
-1.65,0.3,218
-1.65,0.45,223
-1.65,0.6,248
-1.65,0.75,248
-1.65,0.9,241
-1.65,1.05,228
-1.65,1.2,228
-1.65,1.35,213
-1.65,1.5,170
-1.5,-1.5,177
-1.5,-1.35,216
-1.5,-1.2,216
-1.5,-1.05,217
-1.5,-0.9,217
-1.5,-0.75,198
-1.5,-0.6,223
-1.5,-0.45,223
-1.5,-0.3,205
-1.5,-0.15,205
-1.5,0.0,224
-1.5,0.15,224
-1.5,0.3,217
-1.5,0.45,217
-1.5,0.6,210
-1.5,0.75,210
-1.5,0.9,210
-1.5,1.05,185
-1.5,1.2,185
-1.5,1.35,184
-1.5,1.5,145
-1.35,-1.5,192
-1.35,-1.35,192
-1.35,-1.2,216
-1.35,-1.05,217
-1.35,-0.9,217
-1.35,-0.75,217
-1.35,-0.6,198
-1.35,-0.45,205
-1.35,-0.3,205
-1.35,-0.15,205
-1.35,0.0,193
-1.35,0.15,211
-1.35,0.3,211
-1.35,0.45,193
-1.35,0.6,186
-1.35,0.75,185
-1.35,0.9,185
-1.35,1.05,185
-1.35,1.2,184
-1.35,1.35,184
-1.35,1.5,183
-1.2,-1.5,150
-1.2,-1.35,150
-1.2,-1.2,155
-1.2,-1.05,156
-1.2,-0.9,180
-1.2,-0.75,180
-1.2,-0.6,217
-1.2,-0.45,168
-1.2,-0.3,192
-1.2,-0.15,192
-1.2,0.0,192
-1.2,0.15,193
-1.2,0.3,186
-1.2,0.45,186
-1.2,0.6,179
-1.2,0.75,179
-1.2,0.9,148
-1.2,1.05,148
-1.2,1.2,147
-1.2,1.35,147
-1.2,1.5,147
-1.05,-1.5,149
-1.05,-1.35,149
-1.05,-1.2,149
-1.05,-1.05,149
-1.05,-0.9,119
-1.05,-0.75,112
-1.05,-0.6,112
-1.05,-0.45,131
-1.05,-0.3,143
-1.05,-0.15,180
-1.05,0.0,211
-1.05,0.15,174
-1.05,0.3,174
-1.05,0.45,167
-1.05,0.6,167
-1.05,0.75,167
-1.05,0.9,130
-1.05,1.05,130
-1.05,1.2,129
-1.05,1.35,129
-1.05,1.5,129
-0.9,-1.5,149
-0.9,-1.35,149
-0.9,-1.2,149
-0.9,-1.05,149
-0.9,-0.9,149
-0.9,-0.75,143
-0.9,-0.6,112
-0.9,-0.45,106
-0.9,-0.3,106
-0.9,-0.15,124
-0.9,0.0,149
-0.9,0.15,162
-0.9,0.3,162
-0.9,0.45,118
-0.9,0.6,118
-0.9,0.75,118
-0.9,0.9,148
-0.9,1.05,148
-0.9,1.2,148
-0.9,1.35,147
-0.9,1.5,116
-0.75,-1.5,143
-0.75,-1.35,143
-0.75,-1.2,143
-0.75,-1.05,137
-0.75,-0.9,137
-0.75,-0.75,143
-0.75,-0.6,125
-0.75,-0.45,124
-0.75,-0.3,124
-0.75,-0.15,137
-0.75,0.0,124
-0.75,0.15,118
-0.75,0.3,118
-0.75,0.45,118
-0.75,0.6,118
-0.75,0.75,99
-0.75,0.9,99
-0.75,1.05,99
-0.75,1.2,99
-0.75,1.35,99
-0.75,1.5,98
-0.6,-1.5,143
-0.6,-1.35,137
-0.6,-1.2,137
-0.6,-1.05,137
-0.6,-0.9,131
-0.6,-0.75,137
-0.6,-0.6,137
-0.6,-0.45,155
-0.6,-0.3,137
-0.6,-0.15,106
-0.6,0.0,106
-0.6,0.15,68
-0.6,0.3,81
-0.6,0.45,81
-0.6,0.6,80
-0.6,0.75,80
-0.6,0.9,80
-0.6,1.05,80
-0.6,1.2,98
-0.6,1.35,98
-0.6,1.5,98
-0.45,-1.5,137
-0.45,-1.35,137
-0.45,-1.2,137
-0.45,-1.05,137
-0.45,-0.9,137
-0.45,-0.75,131
-0.45,-0.6,131
-0.45,-0.45,131
-0.45,-0.3,112
-0.45,-0.15,112
-0.45,0.0,93
-0.45,0.15,56
-0.45,0.3,56
-0.45,0.45,62
-0.45,0.6,62
-0.45,0.75,86
-0.45,0.9,105
-0.45,1.05,105
-0.45,1.2,105
-0.45,1.35,105
-0.45,1.5,105
-0.3,-1.5,137
-0.3,-1.35,137
-0.3,-1.2,137
-0.3,-1.05,137
-0.3,-0.9,137
-0.3,-0.75,118
-0.3,-0.6,118
-0.3,-0.45,143
-0.3,-0.3,149
-0.3,-0.15,155
-0.3,0.0,130
-0.3,0.15,93
-0.3,0.3,93
-0.3,0.45,118
-0.3,0.6,80
-0.3,0.75,80
-0.3,0.9,86
-0.3,1.05,86
-0.3,1.2,86
-0.3,1.35,86
-0.3,1.5,111
-0.15,-1.5,137
-0.15,-1.35,137
-0.15,-1.2,137
-0.15,-1.05,118
-0.15,-0.9,118
-0.15,-0.75,118
-0.15,-0.6,118
-0.15,-0.45,124
-0.15,-0.3,124
-0.15,-0.15,137
-0.15,0.0,131
-0.15,0.15,93
-0.15,0.3,118
-0.15,0.45,118
-0.15,0.6,124
-0.15,0.75,87
-0.15,0.9,99
-0.15,1.05,99
-0.15,1.2,98
-0.15,1.35,98
-0.15,1.5,98
0.0,-1.5,137
0.0,-1.35,137
0.0,-1.2,118
0.0,-1.05,118
0.0,-0.9,118
0.0,-0.75,131
0.0,-0.6,118
0.0,-0.45,130
0.0,-0.3,143
0.0,-0.15,162
0.0,0.0,168
0.0,0.15,130
0.0,0.3,137
0.0,0.45,124
0.0,0.6,124
0.0,0.75,124
0.0,0.9,99
0.0,1.05,99
0.0,1.2,98
0.0,1.35,98
0.0,1.5,98
0.15,-1.5,118
0.15,-1.35,118
0.15,-1.2,118
0.15,-1.05,118
0.15,-0.9,124
0.15,-0.75,136
0.15,-0.6,137
0.15,-0.45,137
0.15,-0.3,162
0.15,-0.15,143
0.15,0.0,149
0.15,0.15,149
0.15,0.3,137
0.15,0.45,105
0.15,0.6,93
0.15,0.75,93
0.15,0.9,93
0.15,1.05,80
0.15,1.2,80
0.15,1.35,98
0.15,1.5,98
0.3,-1.5,118
0.3,-1.35,118
0.3,-1.2,124
0.3,-1.05,143
0.3,-0.9,124
0.3,-0.75,137
0.3,-0.6,143
0.3,-0.45,143
0.3,-0.3,137
0.3,-0.15,137
0.3,0.0,168
0.3,0.15,137
0.3,0.3,118
0.3,0.45,112
0.3,0.6,112
0.3,0.75,112
0.3,0.9,99
0.3,1.05,105
0.3,1.2,93
0.3,1.35,86
0.3,1.5,86
0.45,-1.5,106
0.45,-1.35,87
0.45,-1.2,75
0.45,-1.05,75
0.45,-0.9,75
0.45,-0.75,93
0.45,-0.6,99
0.45,-0.45,99
0.45,-0.3,106
0.45,-0.15,131
0.45,0.0,124
0.45,0.15,112
0.45,0.3,124
0.45,0.45,124
0.45,0.6,124
0.45,0.75,118
0.45,0.9,112
0.45,1.05,112
0.45,1.2,93
0.45,1.35,105
0.45,1.5,104
0.6,-1.5,99
0.6,-1.35,93
0.6,-1.2,81
0.6,-1.05,81
0.6,-0.9,75
0.6,-0.75,75
0.6,-0.6,62
0.6,-0.45,62
0.6,-0.3,99
0.6,-0.15,93
0.6,0.0,81
0.6,0.15,99
0.6,0.3,118
0.6,0.45,118
0.6,0.6,118
0.6,0.75,124
0.6,0.9,118
0.6,1.05,118
0.6,1.2,118
0.6,1.35,112
0.6,1.5,111
0.75,-1.5,75
0.75,-1.35,75
0.75,-1.2,75
0.75,-1.05,75
0.75,-0.9,75
0.75,-0.75,75
0.75,-0.6,75
0.75,-0.45,75
0.75,-0.3,81
0.75,-0.15,81
0.75,0.0,81
0.75,0.15,118
0.75,0.3,106
0.75,0.45,106
0.75,0.6,99
0.75,0.75,118
0.75,0.9,118
0.75,1.05,118
0.75,1.2,118
0.75,1.35,118
0.75,1.5,118
0.9,-1.5,93
0.9,-1.35,93
0.9,-1.2,93
0.9,-1.05,75
0.9,-0.9,81
0.9,-0.75,81
0.9,-0.6,81
0.9,-0.45,81
0.9,-0.3,81
0.9,-0.15,62
0.9,0.0,81
0.9,0.15,118
0.9,0.3,118
0.9,0.45,99
0.9,0.6,99
0.9,0.75,100
0.9,0.9,100
0.9,1.05,118
0.9,1.2,118
0.9,1.35,118
0.9,1.5,118
1.05,-1.5,93
1.05,-1.35,93
1.05,-1.2,93
1.05,-1.05,93
1.05,-0.9,75
1.05,-0.75,87
1.05,-0.6,62
1.05,-0.45,75
1.05,-0.3,75
1.05,-0.15,43
1.05,0.0,112
1.05,0.15,112
1.05,0.3,99
1.05,0.45,106
1.05,0.6,99
1.05,0.75,99
1.05,0.9,99
1.05,1.05,99
1.05,1.2,99
1.05,1.35,99
1.05,1.5,118
1.2,-1.5,112
1.2,-1.35,112
1.2,-1.2,112
1.2,-1.05,93
1.2,-0.9,93
1.2,-0.75,93
1.2,-0.6,62
1.2,-0.45,62
1.2,-0.3,50
1.2,-0.15,37
1.2,0.0,56
1.2,0.15,81
1.2,0.3,100
1.2,0.45,100
1.2,0.6,100
1.2,0.75,99
1.2,0.9,99
1.2,1.05,99
1.2,1.2,99
1.2,1.35,99
1.2,1.5,99
1.35,-1.5,112
1.35,-1.35,112
1.35,-1.2,112
1.35,-1.05,137
1.35,-0.9,137
1.35,-0.75,118
1.35,-0.6,68
1.35,-0.45,68
1.35,-0.3,68
1.35,-0.15,31
1.35,0.0,25
1.35,0.15,37
1.35,0.3,56
1.35,0.45,75
1.35,0.6,93
1.35,0.75,93
1.35,0.9,93
1.35,1.05,93
1.35,1.2,93
1.35,1.35,93
1.35,1.5,87
1.5,-1.5,136
1.5,-1.35,137
1.5,-1.2,137
1.5,-1.05,118
1.5,-0.9,118
1.5,-0.75,118
1.5,-0.6,81
1.5,-0.45,68
1.5,-0.3,43
1.5,-0.15,50
1.5,0.0,37
1.5,0.15,37
1.5,0.3,31
1.5,0.45,31
1.5,0.6,37
1.5,0.75,56
1.5,0.9,31
1.5,1.05,31
1.5,1.2,50
1.5,1.35,50
1.5,1.5,43
1.65,-1.5,130
1.65,-1.35,130
1.65,-1.2,130
1.65,-1.05,124
1.65,-0.9,124
1.65,-0.75,143
1.65,-0.6,87
1.65,-0.45,56
1.65,-0.3,62
1.65,-0.15,56
1.65,0.0,31
1.65,0.15,31
1.65,0.3,37
1.65,0.45,37
1.65,0.6,31
1.65,0.75,31
1.65,0.9,31
1.65,1.05,25
1.65,1.2,25
1.65,1.35,25
1.65,1.5,24
1.8,-1.5,112
1.8,-1.35,112
1.8,-1.2,112
1.8,-1.05,112
1.8,-0.9,106
1.8,-0.75,106
1.8,-0.6,118
1.8,-0.45,75
1.8,-0.3,37
1.8,-0.15,37
1.8,0.0,37
1.8,0.15,31
1.8,0.3,31
1.8,0.45,31
1.8,0.6,31
1.8,0.75,31
1.8,0.9,31
1.8,1.05,31
1.8,1.2,31
1.8,1.35,31
1.8,1.5,24
1.95,-1.5,130
1.95,-1.35,130
1.95,-1.2,130
1.95,-1.05,106
1.95,-0.9,112
1.95,-0.75,106
1.95,-0.6,87
1.95,-0.45,75
1.95,-0.3,56
1.95,-0.15,43
1.95,0.0,43
1.95,0.15,56
1.95,0.3,43
1.95,0.45,50
1.95,0.6,43
1.95,0.75,37
1.95,0.9,37
1.95,1.05,37
1.95,1.2,25
1.95,1.35,24
1.95,1.5,24
2.1,-1.5,112
2.1,-1.35,112
2.1,-1.2,112
2.1,-1.05,137
2.1,-0.9,118
2.1,-0.75,118
2.1,-0.6,81
2.1,-0.45,62
2.1,-0.3,62
2.1,-0.15,56
2.1,0.0,75
2.1,0.15,56
2.1,0.3,56
2.1,0.45,50
2.1,0.6,50
2.1,0.75,50
2.1,0.9,43
2.1,1.05,43
2.1,1.2,31
2.1,1.35,31
2.1,1.5,24
2.25,-1.5,118
2.25,-1.35,118
2.25,-1.2,118
2.25,-1.05,143
2.25,-0.9,143
2.25,-0.75,112
2.25,-0.6,56
2.25,-0.45,56
2.25,-0.3,31
2.25,-0.15,37
2.25,0.0,43
2.25,0.15,62
2.25,0.3,50
2.25,0.45,56
2.25,0.6,50
2.25,0.75,43
2.25,0.9,43
2.25,1.05,43
2.25,1.2,31
2.25,1.35,31
2.25,1.5,12
2.4,-1.5,137
2.4,-1.35,124
2.4,-1.2,99
2.4,-1.05,99
2.4,-0.9,118
2.4,-0.75,93
2.4,-0.6,87
2.4,-0.45,81
2.4,-0.3,43
2.4,-0.15,31
2.4,0.0,37
2.4,0.15,56
2.4,0.3,43
2.4,0.45,31
2.4,0.6,37
2.4,0.75,37
2.4,0.9,25
2.4,1.05,25
2.4,1.2,25
2.4,1.35,24
2.4,1.5,6
2.55,-1.5,99
2.55,-1.35,99
2.55,-1.2,93
2.55,-1.05,93
2.55,-0.9,93
2.55,-0.75,99
2.55,-0.6,93
2.55,-0.45,87
2.55,-0.3,56
2.55,-0.15,68
2.55,0.0,37
2.55,0.15,50
2.55,0.3,37
2.55,0.45,31
2.55,0.6,37
2.55,0.75,31
2.55,0.9,31
2.55,1.05,31
2.55,1.2,18
2.55,1.35,18
2.55,1.5,18
2.7,-1.5,99
2.7,-1.35,68
2.7,-1.2,68
2.7,-1.05,68
2.7,-0.9,93
2.7,-0.75,93
2.7,-0.6,81
2.7,-0.45,112
2.7,-0.3,99
2.7,-0.15,62
2.7,0.0,37
2.7,0.15,43
2.7,0.3,31
2.7,0.45,43
2.7,0.6,31
2.7,0.75,31
2.7,0.9,31
2.7,1.05,31
2.7,1.2,31
2.7,1.35,31
2.7,1.5,31
2.85,-1.5,69
2.85,-1.35,69
2.85,-1.2,69
2.85,-1.05,68
2.85,-0.9,68
2.85,-0.75,62
2.85,-0.6,75
2.85,-0.45,68
2.85,-0.3,68
2.85,-0.15,68
2.85,0.0,81
2.85,0.15,43
2.85,0.3,43
2.85,0.45,43
2.85,0.6,43
2.85,0.75,43
2.85,0.9,31
2.85,1.05,31
2.85,1.2,31
2.85,1.35,31
2.85,1.5,31
3.0,-1.5,69
3.0,-1.35,69
3.0,-1.2,93
3.0,-1.05,93
3.0,-0.9,56
3.0,-0.75,50
3.0,-0.6,75
3.0,-0.45,106
3.0,-0.3,99
3.0,-0.15,99
3.0,0.0,81
3.0,0.15,68
3.0,0.3,37
3.0,0.45,37
3.0,0.6,37
3.0,0.75,31
3.0,0.9,31
3.0,1.05,31
3.0,1.2,31
3.0,1.35,30
3.0,1.5,30
3.15,-1.5,62
3.15,-1.35,68
3.15,-1.2,75
3.15,-1.05,99
3.15,-0.9,75
3.15,-0.75,75
3.15,-0.6,62
3.15,-0.45,143
3.15,-0.3,131
3.15,-0.15,174
3.15,0.0,99
3.15,0.15,75
3.15,0.3,81
3.15,0.45,75
3.15,0.6,37
3.15,0.75,37
3.15,0.9,37
3.15,1.05,31
3.15,1.2,31
3.15,1.35,18
3.15,1.5,18
3.3,-1.5,68
3.3,-1.35,62
3.3,-1.2,87
3.3,-1.05,75
3.3,-0.9,112
3.3,-0.75,137
3.3,-0.6,124
3.3,-0.45,118
3.3,-0.3,118
3.3,-0.15,149
3.3,0.0,99
3.3,0.15,137
3.3,0.3,118
3.3,0.45,112
3.3,0.6,93
3.3,0.75,93
3.3,0.9,80
3.3,1.05,80
3.3,1.2,80
3.3,1.35,80
3.3,1.5,80
3.45,-1.5,62
3.45,-1.35,62
3.45,-1.2,87
3.45,-1.05,87
3.45,-0.9,137
3.45,-0.75,143
3.45,-0.6,124
3.45,-0.45,143
3.45,-0.3,131
3.45,-0.15,93
3.45,0.0,56
3.45,0.15,106
3.45,0.3,131
3.45,0.45,93
3.45,0.6,112
3.45,0.75,111
3.45,0.9,111
3.45,1.05,111
3.45,1.2,98
3.45,1.35,98
3.45,1.5,98
3.6,-1.5,43
3.6,-1.35,43
3.6,-1.2,62
3.6,-1.05,62
3.6,-0.9,93
3.6,-0.75,112
3.6,-0.6,87
3.6,-0.45,155
3.6,-0.3,124
3.6,-0.15,93
3.6,0.0,99
3.6,0.15,124
3.6,0.3,112
3.6,0.45,106
3.6,0.6,99
3.6,0.75,87
3.6,0.9,86
3.6,1.05,86
3.6,1.2,49
3.6,1.35,55
3.6,1.5,49
3.75,-1.5,43
3.75,-1.35,43
3.75,-1.2,56
3.75,-1.05,56
3.75,-0.9,56
3.75,-0.75,81
3.75,-0.6,99
3.75,-0.45,81
3.75,-0.3,118
3.75,-0.15,118
3.75,0.0,75
3.75,0.15,68
3.75,0.3,81
3.75,0.45,81
3.75,0.6,68
3.75,0.75,68
3.75,0.9,62
3.75,1.05,55
3.75,1.2,49
3.75,1.35,43
3.75,1.5,43
3.9,-1.5,43
3.9,-1.35,43
3.9,-1.2,43
3.9,-1.05,43
3.9,-0.9,31
3.9,-0.75,31
3.9,-0.6,50
3.9,-0.45,56
3.9,-0.3,62
3.9,-0.15,87
3.9,0.0,99
3.9,0.15,112
3.9,0.3,87
3.9,0.45,87
3.9,0.6,74
3.9,0.75,62
3.9,0.9,62
3.9,1.05,24
3.9,1.2,24
3.9,1.35,24
3.9,1.5,24
4.05,-1.5,43
4.05,-1.35,43
4.05,-1.2,31
4.05,-1.05,31
4.05,-0.9,19
4.05,-0.75,56
4.05,-0.6,137
4.05,-0.45,143
4.05,-0.3,81
4.05,-0.15,106
4.05,0.0,75
4.05,0.15,87
4.05,0.3,81
4.05,0.45,81
4.05,0.6,81
4.05,0.75,31
4.05,0.9,31
4.05,1.05,31
4.05,1.2,31
4.05,1.35,24
4.05,1.5,24
4.2,-1.5,37
4.2,-1.35,43
4.2,-1.2,43
4.2,-1.05,43
4.2,-0.9,31
4.2,-0.75,43
4.2,-0.6,99
4.2,-0.45,143
4.2,-0.3,87
4.2,-0.15,155
4.2,0.0,43
4.2,0.15,37
4.2,0.3,25
4.2,0.45,43
4.2,0.6,37
4.2,0.75,37
4.2,0.9,31
4.2,1.05,31
4.2,1.2,31
4.2,1.35,24
4.2,1.5,6
4.35,-1.5,25
4.35,-1.35,25
4.35,-1.2,37
4.35,-1.05,43
4.35,-0.9,50
4.35,-0.75,68
4.35,-0.6,87
4.35,-0.45,106
4.35,-0.3,93
4.35,-0.15,43
4.35,0.0,93
4.35,0.15,99
4.35,0.3,56
4.35,0.45,50
4.35,0.6,43
4.35,0.75,12
4.35,0.9,12
4.35,1.05,12
4.35,1.2,6
4.35,1.35,18
4.35,1.5,56
4.5,-1.5,25
4.5,-1.35,31
4.5,-1.2,50
4.5,-1.05,50
4.5,-0.9,118
4.5,-0.75,112
4.5,-0.6,106
4.5,-0.45,149
4.5,-0.3,68
4.5,-0.15,118
4.5,0.0,99
4.5,0.15,81
4.5,0.3,75
4.5,0.45,62
4.5,0.6,25
4.5,0.75,31
4.5,0.9,43
4.5,1.05,43
4.5,1.2,43
4.5,1.35,44
4.5,1.5,44
4.65,-1.5,44
4.65,-1.35,44
4.65,-1.2,81
4.65,-1.05,105
4.65,-0.9,118
4.65,-0.75,130
4.65,-0.6,130
4.65,-0.45,99
4.65,-0.3,25
4.65,-0.15,99
4.65,0.0,106
4.65,0.15,50
4.65,0.3,50
4.65,0.45,37
4.65,0.6,37
4.65,0.75,37
4.65,0.9,37
4.65,1.05,37
4.65,1.2,69
4.65,1.35,69
4.65,1.5,69
4.8,-1.5,87
4.8,-1.35,87
4.8,-1.2,62
4.8,-1.05,106
4.8,-0.9,106
4.8,-0.75,106
4.8,-0.6,68
4.8,-0.45,99
4.8,-0.3,99
4.8,-0.15,87
4.8,0.0,106
4.8,0.15,118
4.8,0.3,87
4.8,0.45,50
4.8,0.6,43
4.8,0.75,43
4.8,0.9,75
4.8,1.05,69
4.8,1.2,69
4.8,1.35,69
4.8,1.5,50
4.95,-1.5,100
4.95,-1.35,81
4.95,-1.2,81
4.95,-1.05,81
4.95,-0.9,81
4.95,-0.75,50
4.95,-0.6,43
4.95,-0.45,43
4.95,-0.3,43
4.95,-0.15,62
4.95,0.0,62
4.95,0.15,168
4.95,0.3,87
4.95,0.45,105
4.95,0.6,62
4.95,0.75,75
4.95,0.9,56
4.95,1.05,56
4.95,1.2,56
4.95,1.35,56
4.95,1.5,44
5.1,-1.5,100
5.1,-1.35,100
5.1,-1.2,100
5.1,-1.05,100
5.1,-0.9,106
5.1,-0.75,106
5.1,-0.6,93
5.1,-0.45,50
5.1,-0.3,31
5.1,-0.15,93
5.1,0.0,37
5.1,0.15,124
5.1,0.3,75
5.1,0.45,68
5.1,0.6,87
5.1,0.75,62
5.1,0.9,69
5.1,1.05,56
5.1,1.2,56
5.1,1.35,81
5.1,1.5,44
5.25,-1.5,94
5.25,-1.35,94
5.25,-1.2,93
5.25,-1.05,81
5.25,-0.9,81
5.25,-0.75,75
5.25,-0.6,75
5.25,-0.45,118
5.25,-0.3,56
5.25,-0.15,19
5.25,0.0,93
5.25,0.15,75
5.25,0.3,93
5.25,0.45,56
5.25,0.6,69
5.25,0.75,106
5.25,0.9,112
5.25,1.05,112
5.25,1.2,112
5.25,1.35,112
5.25,1.5,112
5.4,-1.5,125
5.4,-1.35,100
5.4,-1.2,93
5.4,-1.05,87
5.4,-0.9,75
5.4,-0.75,87
5.4,-0.6,50
5.4,-0.45,124
5.4,-0.3,19
5.4,-0.15,50
5.4,0.0,124
5.4,0.15,106
5.4,0.3,68
5.4,0.45,137
5.4,0.6,112
5.4,0.75,112
5.4,0.9,106
5.4,1.05,112
5.4,1.2,112
5.4,1.35,112
5.4,1.5,112
5.55,-1.5,112
5.55,-1.35,106
5.55,-1.2,106
5.55,-1.05,100
5.55,-0.9,118
5.55,-0.75,81
5.55,-0.6,106
5.55,-0.45,124
5.55,-0.3,124
5.55,-0.15,62
5.55,0.0,93
5.55,0.15,56
5.55,0.3,93
5.55,0.45,75
5.55,0.6,106
5.55,0.75,106
5.55,0.9,106
5.55,1.05,106
5.55,1.2,106
5.55,1.35,106
5.55,1.5,106
5.7,-1.5,131
5.7,-1.35,131
5.7,-1.2,106
5.7,-1.05,112
5.7,-0.9,68
5.7,-0.75,68
5.7,-0.6,99
5.7,-0.45,137
5.7,-0.3,93
5.7,-0.15,99
5.7,0.0,37
5.7,0.15,62
5.7,0.3,87
5.7,0.45,87
5.7,0.6,112
5.7,0.75,112
5.7,0.9,112
5.7,1.05,119
5.7,1.2,119
5.7,1.35,119
5.7,1.5,119
5.85,-1.5,106
5.85,-1.35,112
5.85,-1.2,87
5.85,-1.05,87
5.85,-0.9,62
5.85,-0.75,62
5.85,-0.6,50
5.85,-0.45,137
5.85,-0.3,62
5.85,-0.15,37
5.85,0.0,37
5.85,0.15,43
5.85,0.3,81
5.85,0.45,87
5.85,0.6,118
5.85,0.75,131
5.85,0.9,131
5.85,1.05,131
5.85,1.2,125
5.85,1.35,125
5.85,1.5,125
6.0,-1.5,81
6.0,-1.35,81
6.0,-1.2,93
6.0,-1.05,93
6.0,-0.9,68
6.0,-0.75,68
6.0,-0.6,87
6.0,-0.45,68
6.0,-0.3,112
6.0,-0.15,93
6.0,0.0,37
6.0,0.15,25
6.0,0.3,31
6.0,0.45,68
6.0,0.6,112
6.0,0.75,137
6.0,0.9,143
6.0,1.05,143
6.0,1.2,143
6.0,1.35,143
6.0,1.5,143
6.15,-1.5,62
6.15,-1.35,81
6.15,-1.2,81
6.15,-1.05,81
6.15,-0.9,87
6.15,-0.75,68
6.15,-0.6,93
6.15,-0.45,143
6.15,-0.3,6
6.15,-0.15,124
6.15,0.0,87
6.15,0.15,68
6.15,0.3,93
6.15,0.45,93
6.15,0.6,99
6.15,0.75,99
6.15,0.9,118
6.15,1.05,118
6.15,1.2,112
6.15,1.35,131
6.15,1.5,131
6.3,-1.5,75
6.3,-1.35,81
6.3,-1.2,81
6.3,-1.05,68
6.3,-0.9,75
6.3,-0.75,87
6.3,-0.6,93
6.3,-0.45,106
6.3,-0.3,37
6.3,-0.15,56
6.3,0.0,93
6.3,0.15,68
6.3,0.3,93
6.3,0.45,93
6.3,0.6,119
6.3,0.75,87
6.3,0.9,87
6.3,1.05,112
6.3,1.2,113
6.3,1.35,118
6.3,1.5,119
6.45,-1.5,56
6.45,-1.35,56
6.45,-1.2,56
6.45,-1.05,56
6.45,-0.9,56
6.45,-0.75,56
6.45,-0.6,56
6.45,-0.45,81
6.45,-0.3,62
6.45,-0.15,143
6.45,0.0,62
6.45,0.15,75
6.45,0.3,99
6.45,0.45,99
6.45,0.6,119
6.45,0.75,119
6.45,0.9,119
6.45,1.05,119
6.45,1.2,119
6.45,1.35,119
6.45,1.5,119
6.6,-1.5,62
6.6,-1.35,87
6.6,-1.2,81
6.6,-1.05,81
6.6,-0.9,56
6.6,-0.75,62
6.6,-0.6,68
6.6,-0.45,131
6.6,-0.3,93
6.6,-0.15,68
6.6,0.0,68
6.6,0.15,118
6.6,0.3,106
6.6,0.45,118
6.6,0.6,118
6.6,0.75,118
6.6,0.9,119
6.6,1.05,119
6.6,1.2,119
6.6,1.35,119
6.6,1.5,118
6.75,-1.5,68
6.75,-1.35,68
6.75,-1.2,68
6.75,-1.05,43
6.75,-0.9,43
6.75,-0.75,93
6.75,-0.6,106
6.75,-0.45,118
6.75,-0.3,56
6.75,-0.15,62
6.75,0.0,143
6.75,0.15,137
6.75,0.3,143
6.75,0.45,137
6.75,0.6,106
6.75,0.75,106
6.75,0.9,118
6.75,1.05,118
6.75,1.2,80
6.75,1.35,80
6.75,1.5,80
6.9,-1.5,50
6.9,-1.35,50
6.9,-1.2,50
6.9,-1.05,43
6.9,-0.9,75
6.9,-0.75,56
6.9,-0.6,37
6.9,-0.45,99
6.9,-0.3,0
6.9,-0.15,37
6.9,0.0,193
6.9,0.15,180
6.9,0.3,112
6.9,0.45,130
6.9,0.6,106
6.9,0.75,99
6.9,0.9,87
6.9,1.05,87
6.9,1.2,87
6.9,1.35,87
6.9,1.5,74
7.05,-1.5,62
7.05,-1.35,62
7.05,-1.2,56
7.05,-1.05,62
7.05,-0.9,62
7.05,-0.75,75
7.05,-0.6,43
7.05,-0.45,31
7.05,-0.3,0
7.05,-0.15,19
7.05,0.0,124
7.05,0.15,99
7.05,0.3,99
7.05,0.45,87
7.05,0.6,62
7.05,0.75,62
7.05,0.9,56
7.05,1.05,56
7.05,1.2,56
7.05,1.35,62
7.05,1.5,62
7.2,-1.5,25
7.2,-1.35,62
7.2,-1.2,62
7.2,-1.05,62
7.2,-0.9,56
7.2,-0.75,43
7.2,-0.6,99
7.2,-0.45,50
7.2,-0.3,81
7.2,-0.15,106
7.2,0.0,68
7.2,0.15,68
7.2,0.3,50
7.2,0.45,43
7.2,0.6,62
7.2,0.75,56
7.2,0.9,62
7.2,1.05,62
7.2,1.2,62
7.2,1.35,62
7.2,1.5,62
7.35,-1.5,25
7.35,-1.35,25
7.35,-1.2,19
7.35,-1.05,25
7.35,-0.9,25
7.35,-0.75,25
7.35,-0.6,19
7.35,-0.45,50
7.35,-0.3,81
7.35,-0.15,93
7.35,0.0,68
7.35,0.15,81
7.35,0.3,81
7.35,0.45,50
7.35,0.6,56
7.35,0.75,56
7.35,0.9,68
7.35,1.05,68
7.35,1.2,68
7.35,1.35,75
7.35,1.5,75
7.5,-1.5,31
7.5,-1.35,0
7.5,-1.2,0
7.5,-1.05,0
7.5,-0.9,0
7.5,-0.75,6
7.5,-0.6,19
7.5,-0.45,75
7.5,-0.3,93
7.5,-0.15,81
7.5,0.0,118
7.5,0.15,106
7.5,0.3,112
7.5,0.45,87
7.5,0.6,87
7.5,0.75,87
7.5,0.9,80
7.5,1.05,74
7.5,1.2,81
7.5,1.35,68
7.5,1.5,69
7.65,-1.5,50
7.65,-1.35,43
7.65,-1.2,43
7.65,-1.05,6
7.65,-0.9,6
7.65,-0.75,12
7.65,-0.6,31
7.65,-0.45,6
7.65,-0.3,43
7.65,-0.15,37
7.65,0.0,68
7.65,0.15,81
7.65,0.3,118
7.65,0.45,81
7.65,0.6,81
7.65,0.75,74
7.65,0.9,81
7.65,1.05,81
7.65,1.2,81
7.65,1.35,81
7.65,1.5,56
7.8,-1.5,56
7.8,-1.35,68
7.8,-1.2,68
7.8,-1.05,50
7.8,-0.9,56
7.8,-0.75,31
7.8,-0.6,19
7.8,-0.45,31
7.8,-0.3,37
7.8,-0.15,31
7.8,0.0,56
7.8,0.15,68
7.8,0.3,50
7.8,0.45,56
7.8,0.6,50
7.8,0.75,81
7.8,0.9,81
7.8,1.05,56
7.8,1.2,56
7.8,1.35,56
7.8,1.5,56
7.95,-1.5,112
7.95,-1.35,112
7.95,-1.2,112
7.95,-1.05,112
7.95,-0.9,56
7.95,-0.75,56
7.95,-0.6,31
7.95,-0.45,93
7.95,-0.3,31
7.95,-0.15,31
7.95,0.0,25
7.95,0.15,0
7.95,0.3,56
7.95,0.45,50
7.95,0.6,81
7.95,0.75,81
7.95,0.9,93
7.95,1.05,56
7.95,1.2,56
7.95,1.35,50
7.95,1.5,50
8.1,-1.5,130
8.1,-1.35,130
8.1,-1.2,130
8.1,-1.05,130
8.1,-0.9,137
8.1,-0.75,118
8.1,-0.6,43
8.1,-0.45,75
8.1,-0.3,31
8.1,-0.15,56
8.1,0.0,62
8.1,0.15,0
8.1,0.3,12
8.1,0.45,12
8.1,0.6,37
8.1,0.75,50
8.1,0.9,50
8.1,1.05,50
8.1,1.2,50
8.1,1.35,50
8.1,1.5,50
8.25,-1.5,130
8.25,-1.35,130
8.25,-1.2,149
8.25,-1.05,137
8.25,-0.9,118
8.25,-0.75,99
8.25,-0.6,62
8.25,-0.45,56
8.25,-0.3,62
8.25,-0.15,68
8.25,0.0,25
8.25,0.15,19
8.25,0.3,25
8.25,0.45,44
8.25,0.6,37
8.25,0.75,44
8.25,0.9,38
8.25,1.05,38
8.25,1.2,38
8.25,1.35,50
8.25,1.5,50
8.4,-1.5,137
8.4,-1.35,137
8.4,-1.2,137
8.4,-1.05,137
8.4,-0.9,131
8.4,-0.75,106
8.4,-0.6,43
8.4,-0.45,12
8.4,-0.3,43
8.4,-0.15,37
8.4,0.0,81
8.4,0.15,99
8.4,0.3,62
8.4,0.45,37
8.4,0.6,37
8.4,0.75,37
8.4,0.9,37
8.4,1.05,50
8.4,1.2,50
8.4,1.35,50
8.4,1.5,50
8.55,-1.5,105
8.55,-1.35,106
8.55,-1.2,106
8.55,-1.05,112
8.55,-0.9,118
8.55,-0.75,75
8.55,-0.6,81
8.55,-0.45,37
8.55,-0.3,43
8.55,-0.15,124
8.55,0.0,112
8.55,0.15,87
8.55,0.3,68
8.55,0.45,68
8.55,0.6,68
8.55,0.75,37
8.55,0.9,38
8.55,1.05,44
8.55,1.2,44
8.55,1.35,44
8.55,1.5,50
8.7,-1.5,81
8.7,-1.35,81
8.7,-1.2,81
8.7,-1.05,99
8.7,-0.9,106
8.7,-0.75,106
8.7,-0.6,56
8.7,-0.45,43
8.7,-0.3,75
8.7,-0.15,68
8.7,0.0,37
8.7,0.15,56
8.7,0.3,81
8.7,0.45,87
8.7,0.6,112
8.7,0.75,75
8.7,0.9,75
8.7,1.05,38
8.7,1.2,38
8.7,1.35,50
8.7,1.5,50
8.85,-1.5,37
8.85,-1.35,49
8.85,-1.2,50
8.85,-1.05,19
8.85,-0.9,43
8.85,-0.75,50
8.85,-0.6,50
8.85,-0.45,31
8.85,-0.3,31
8.85,-0.15,50
8.85,0.0,87
8.85,0.15,87
8.85,0.3,75
8.85,0.45,75
8.85,0.6,75
8.85,0.75,75
8.85,0.9,75
8.85,1.05,75
8.85,1.2,68
8.85,1.35,44
8.85,1.5,44
9.0,-1.5,0
9.0,-1.35,0
9.0,-1.2,0
9.0,-1.05,0
9.0,-0.9,0
9.0,-0.75,6
9.0,-0.6,19
9.0,-0.45,31
9.0,-0.3,99
9.0,-0.15,68
9.0,0.0,68
9.0,0.15,112
9.0,0.3,87
9.0,0.45,75
9.0,0.6,75
9.0,0.75,75
9.0,0.9,75
9.0,1.05,75
9.0,1.2,75
9.0,1.35,75
9.0,1.5,56
9.15,-1.5,6
9.15,-1.35,0
9.15,-1.2,0
9.15,-1.05,0
9.15,-0.9,0
9.15,-0.75,0
9.15,-0.6,50
9.15,-0.45,75
9.15,-0.3,56
9.15,-0.15,62
9.15,0.0,25
9.15,0.15,87
9.15,0.3,87
9.15,0.45,87
9.15,0.6,81
9.15,0.75,81
9.15,0.9,81
9.15,1.05,106
9.15,1.2,100
9.15,1.35,87
9.15,1.5,62
9.3,-1.5,6
9.3,-1.35,6
9.3,-1.2,0
9.3,-1.05,0
9.3,-0.9,0
9.3,-0.75,6
9.3,-0.6,37
9.3,-0.45,37
9.3,-0.3,50
9.3,-0.15,81
9.3,0.0,75
9.3,0.15,81
9.3,0.3,62
9.3,0.45,50
9.3,0.6,50
9.3,0.75,81
9.3,0.9,75
9.3,1.05,75
9.3,1.2,106
9.3,1.35,94
9.3,1.5,94
9.45,-1.5,43
9.45,-1.35,25
9.45,-1.2,50
9.45,-1.05,62
9.45,-0.9,43
9.45,-0.75,43
9.45,-0.6,31
9.45,-0.45,81
9.45,-0.3,112
9.45,-0.15,75
9.45,0.0,93
9.45,0.15,81
9.45,0.3,56
9.45,0.45,56
9.45,0.6,56
9.45,0.75,68
9.45,0.9,68
9.45,1.05,68
9.45,1.2,75
9.45,1.35,75
9.45,1.5,94
9.6,-1.5,68
9.6,-1.35,68
9.6,-1.2,74
9.6,-1.05,99
9.6,-0.9,99
9.6,-0.75,93
9.6,-0.6,87
9.6,-0.45,87
9.6,-0.3,81
9.6,-0.15,68
9.6,0.0,56
9.6,0.15,62
9.6,0.3,62
9.6,0.45,62
9.6,0.6,62
9.6,0.75,62
9.6,0.9,62
9.6,1.05,62
9.6,1.2,62
9.6,1.35,62
9.6,1.5,68
9.75,-1.5,74
9.75,-1.35,74
9.75,-1.2,93
9.75,-1.05,93
9.75,-0.9,118
9.75,-0.75,118
9.75,-0.6,137
9.75,-0.45,81
9.75,-0.3,112
9.75,-0.15,87
9.75,0.0,19
9.75,0.15,37
9.75,0.3,62
9.75,0.45,62
9.75,0.6,62
9.75,0.75,62
9.75,0.9,62
9.75,1.05,62
9.75,1.2,62
9.75,1.35,68
9.75,1.5,68
9.9,-1.5,75
9.9,-1.35,75
9.9,-1.2,81
9.9,-1.05,99
9.9,-0.9,124
9.9,-0.75,143
9.9,-0.6,93
9.9,-0.45,62
9.9,-0.3,75
9.9,-0.15,81
9.9,0.0,43
9.9,0.15,43
9.9,0.3,44
9.9,0.45,62
9.9,0.6,62
9.9,0.75,62
9.9,0.9,62
9.9,1.05,62
9.9,1.2,62
9.9,1.35,62
9.9,1.5,68
10.05,-1.5,118
10.05,-1.35,118
10.05,-1.2,118
10.05,-1.05,118
10.05,-0.9,68
10.05,-0.75,99
10.05,-0.6,93
10.05,-0.45,93
10.05,-0.3,62
10.05,-0.15,62
10.05,0.0,43
10.05,0.15,56
10.05,0.3,43
10.05,0.45,43
10.05,0.6,50
10.05,0.75,87
10.05,0.9,87
10.05,1.05,106
10.05,1.2,106
10.05,1.35,106
10.05,1.5,105
10.2,-1.5,100
10.2,-1.35,100
10.2,-1.2,93
10.2,-1.05,93
10.2,-0.9,93
10.2,-0.75,93
10.2,-0.6,149
10.2,-0.45,143
10.2,-0.3,131
10.2,-0.15,106
10.2,0.0,62
10.2,0.15,81
10.2,0.3,75
10.2,0.45,81
10.2,0.6,87
10.2,0.75,87
10.2,0.9,87
10.2,1.05,87
10.2,1.2,87
10.2,1.35,106
10.2,1.5,106
10.35,-1.5,93
10.35,-1.35,94
10.35,-1.2,100
10.35,-1.05,62
10.35,-0.9,106
10.35,-0.75,106
10.35,-0.6,99
10.35,-0.45,99
10.35,-0.3,81
10.35,-0.15,130
10.35,0.0,93
10.35,0.15,62
10.35,0.3,62
10.35,0.45,81
10.35,0.6,81
10.35,0.75,106
10.35,0.9,106
10.35,1.05,106
10.35,1.2,106
10.35,1.35,112
10.35,1.5,118
10.5,-1.5,81
10.5,-1.35,81
10.5,-1.2,81
10.5,-1.05,81
10.5,-0.9,100
10.5,-0.75,75
10.5,-0.6,56
10.5,-0.45,106
10.5,-0.3,99
10.5,-0.15,118
10.5,0.0,75
10.5,0.15,68
10.5,0.3,87
10.5,0.45,69
10.5,0.6,93
10.5,0.75,106
10.5,0.9,106
10.5,1.05,143
10.5,1.2,143
10.5,1.35,143
10.5,1.5,143
10.65,-1.5,87
10.65,-1.35,87
10.65,-1.2,87
10.65,-1.05,93
10.65,-0.9,93
10.65,-0.75,124
10.65,-0.6,93
10.65,-0.45,149
10.65,-0.3,168
10.65,-0.15,118
10.65,0.0,81
10.65,0.15,93
10.65,0.3,93
10.65,0.45,81
10.65,0.6,112
10.65,0.75,112
10.65,0.9,112
10.65,1.05,112
10.65,1.2,112
10.65,1.35,143
10.65,1.5,143
10.8,-1.5,99
10.8,-1.35,99
10.8,-1.2,99
10.8,-1.05,87
10.8,-0.9,87
10.8,-0.75,143
10.8,-0.6,124
10.8,-0.45,118
10.8,-0.3,137
10.8,-0.15,93
10.8,0.0,56
10.8,0.15,87
10.8,0.3,81
10.8,0.45,112
10.8,0.6,106
10.8,0.75,106
10.8,0.9,106
10.8,1.05,112
10.8,1.2,112
10.8,1.35,112
10.8,1.5,113
10.95,-1.5,75
10.95,-1.35,99
10.95,-1.2,99
10.95,-1.05,99
10.95,-0.9,99
10.95,-0.75,106
10.95,-0.6,106
10.95,-0.45,131
10.95,-0.3,124
10.95,-0.15,118
10.95,0.0,62
10.95,0.15,131
10.95,0.3,118
10.95,0.45,112
10.95,0.6,112
10.95,0.75,112
10.95,0.9,112
10.95,1.05,112
10.95,1.2,112
10.95,1.35,112
10.95,1.5,112
11.1,-1.5,75
11.1,-1.35,69
11.1,-1.2,69
11.1,-1.05,99
11.1,-0.9,81
11.1,-0.75,87
11.1,-0.6,99
11.1,-0.45,93
11.1,-0.3,112
11.1,-0.15,81
11.1,0.0,75
11.1,0.15,124
11.1,0.3,87
11.1,0.45,112
11.1,0.6,112
11.1,0.75,112
11.1,0.9,112
11.1,1.05,112
11.1,1.2,112
11.1,1.35,112
11.1,1.5,137
11.25,-1.5,69
11.25,-1.35,69
11.25,-1.2,68
11.25,-1.05,56
11.25,-0.9,56
11.25,-0.75,68
11.25,-0.6,93
11.25,-0.45,93
11.25,-0.3,93
11.25,-0.15,62
11.25,0.0,99
11.25,0.15,106
11.25,0.3,87
11.25,0.45,87
11.25,0.6,112
11.25,0.75,112
11.25,0.9,131
11.25,1.05,131
11.25,1.2,125
11.25,1.35,125
11.25,1.5,125
11.4,-1.5,68
11.4,-1.35,43
11.4,-1.2,31
11.4,-1.05,37
11.4,-0.9,50
11.4,-0.75,68
11.4,-0.6,68
11.4,-0.45,75
11.4,-0.3,81
11.4,-0.15,74
11.4,0.0,37
11.4,0.15,81
11.4,0.3,106
11.4,0.45,106
11.4,0.6,131
11.4,0.75,125
11.4,0.9,125
11.4,1.05,131
11.4,1.2,131
11.4,1.35,138
11.4,1.5,131
11.55,-1.5,31
11.55,-1.35,31
11.55,-1.2,31
11.55,-1.05,37
11.55,-0.9,37
11.55,-0.75,37
11.55,-0.6,50
11.55,-0.45,81
11.55,-0.3,81
11.55,-0.15,75
11.55,0.0,31
11.55,0.15,81
11.55,0.3,106
11.55,0.45,131
11.55,0.6,131
11.55,0.75,131
11.55,0.9,131
11.55,1.05,132
11.55,1.2,132
11.55,1.35,125
11.55,1.5,124
11.7,-1.5,31
11.7,-1.35,31
11.7,-1.2,31
11.7,-1.05,31
11.7,-0.9,19
11.7,-0.75,19
11.7,-0.6,12
11.7,-0.45,68
11.7,-0.3,50
11.7,-0.15,50
11.7,0.0,81
11.7,0.15,93
11.7,0.3,106
11.7,0.45,106
11.7,0.6,106
11.7,0.75,131
11.7,0.9,131
11.7,1.05,125
11.7,1.2,125
11.7,1.35,124
11.7,1.5,124
11.85,-1.5,31
11.85,-1.35,31
11.85,-1.2,25
11.85,-1.05,25
11.85,-0.9,19
11.85,-0.75,19
11.85,-0.6,56
11.85,-0.45,56
11.85,-0.3,56
11.85,-0.15,62
11.85,0.0,75
11.85,0.15,87
11.85,0.3,106
11.85,0.45,106
11.85,0.6,106
11.85,0.75,106
11.85,0.9,106
11.85,1.05,131
11.85,1.2,124
11.85,1.35,130
11.85,1.5,129
12.0,-1.5,43
12.0,-1.35,43
12.0,-1.2,25
12.0,-1.05,31
12.0,-0.9,25
12.0,-0.75,43
12.0,-0.6,43
12.0,-0.45,75
12.0,-0.3,56
12.0,-0.15,56
12.0,0.0,81
12.0,0.15,81
12.0,0.3,69
12.0,0.45,106
12.0,0.6,100
12.0,0.75,112
12.0,0.9,112
12.0,1.05,111
12.0,1.2,111
12.0,1.35,136
12.0,1.5,136
12.15,-1.5,43
12.15,-1.35,43
12.15,-1.2,68
12.15,-1.05,74
12.15,-0.9,74
12.15,-0.75,62
12.15,-0.6,43
12.15,-0.45,43
12.15,-0.3,62
12.15,-0.15,62
12.15,0.0,75
12.15,0.15,69
12.15,0.3,69
12.15,0.45,69
12.15,0.6,69
12.15,0.75,93
12.15,0.9,125
12.15,1.05,136
12.15,1.2,136
12.15,1.35,135
12.15,1.5,135
12.3,-1.5,43
12.3,-1.35,68
12.3,-1.2,74
12.3,-1.05,74
12.3,-0.9,75
12.3,-0.75,75
12.3,-0.6,75
12.3,-0.45,62
12.3,-0.3,62
12.3,-0.15,62
12.3,0.0,62
12.3,0.15,81
12.3,0.3,111
12.3,0.45,111
12.3,0.6,106
12.3,0.75,94
12.3,0.9,93
12.3,1.05,123
12.3,1.2,123
12.3,1.35,135
12.3,1.5,135
12.45,-1.5,61
12.45,-1.35,62
12.45,-1.2,62
12.45,-1.05,75
12.45,-0.9,75
12.45,-0.75,75
12.45,-0.6,75
12.45,-0.45,75
12.45,-0.3,87
12.45,-0.15,62
12.45,0.0,44
12.45,0.15,106
12.45,0.3,100
12.45,0.45,111
12.45,0.6,111
12.45,0.75,111
12.45,0.9,105
12.45,1.05,117
12.45,1.2,92
12.45,1.35,129
12.45,1.5,134
12.6,-1.5,61
12.6,-1.35,62
12.6,-1.2,68
12.6,-1.05,62
12.6,-0.9,68
12.6,-0.75,68
12.6,-0.6,68
12.6,-0.45,87
12.6,-0.3,68
12.6,-0.15,50
12.6,0.0,75
12.6,0.15,93
12.6,0.3,111
12.6,0.45,111
12.6,0.6,111
12.6,0.75,111
12.6,0.9,111
12.6,1.05,111
12.6,1.2,110
12.6,1.35,116
12.6,1.5,116
12.75,-1.5,62
12.75,-1.35,62
12.75,-1.2,62
12.75,-1.05,62
12.75,-0.9,50
12.75,-0.75,50
12.75,-0.6,68
12.75,-0.45,74
12.75,-0.3,62
12.75,-0.15,75
12.75,0.0,75
12.75,0.15,75
12.75,0.3,93
12.75,0.45,111
12.75,0.6,111
12.75,0.75,111
12.75,0.9,111
12.75,1.05,111
12.75,1.2,110
12.75,1.35,110
12.75,1.5,116
12.9,-1.5,61
12.9,-1.35,49
12.9,-1.2,49
12.9,-1.05,49
12.9,-0.9,43
12.9,-0.75,68
12.9,-0.6,74
12.9,-0.45,74
12.9,-0.3,68
12.9,-0.15,75
12.9,0.0,75
12.9,0.15,75
12.9,0.3,93
12.9,0.45,93
12.9,0.6,111
12.9,0.75,111
12.9,0.9,111
12.9,1.05,111
12.9,1.2,116
12.9,1.35,116
12.9,1.5,110
13.05,-1.5,49
13.05,-1.35,49
13.05,-1.2,49
13.05,-1.05,43
13.05,-0.9,43
13.05,-0.75,68
13.05,-0.6,74
13.05,-0.45,74
13.05,-0.3,93
13.05,-0.15,75
13.05,0.0,75
13.05,0.15,75
13.05,0.3,75
13.05,0.45,93
13.05,0.6,93
13.05,0.75,111
13.05,0.9,111
13.05,1.05,111
13.05,1.2,111
13.05,1.35,116
13.05,1.5,116
