-3.0,-1.5,128
-3.0,-1.35,133
-3.0,-1.2,141
-3.0,-1.05,147
-3.0,-0.9,151
-3.0,-0.75,152
-3.0,-0.6,151
-3.0,-0.45,149
-3.0,-0.3,132
-3.0,-0.15,128
-3.0,0.0,122
-3.0,0.15,133
-3.0,0.3,139
-3.0,0.45,157
-3.0,0.6,160
-3.0,0.75,160
-3.0,0.9,160
-3.0,1.05,149
-3.0,1.2,106
-3.0,1.35,101
-3.0,1.5,98
-2.85,-1.5,132
-2.85,-1.35,134
-2.85,-1.2,142
-2.85,-1.05,148
-2.85,-0.9,151
-2.85,-0.75,152
-2.85,-0.6,151
-2.85,-0.45,148
-2.85,-0.3,142
-2.85,-0.15,126
-2.85,0.0,120
-2.85,0.15,130
-2.85,0.3,146
-2.85,0.45,155
-2.85,0.6,160
-2.85,0.75,160
-2.85,0.9,160
-2.85,1.05,112
-2.85,1.2,108
-2.85,1.35,103
-2.85,1.5,101
-2.7,-1.5,139
-2.7,-1.35,141
-2.7,-1.2,146
-2.7,-1.05,150
-2.7,-0.9,152
-2.7,-0.75,152
-2.7,-0.6,151
-2.7,-0.45,149
-2.7,-0.3,143
-2.7,-0.15,135
-2.7,0.0,122
-2.7,0.15,140
-2.7,0.3,147
-2.7,0.45,156
-2.7,0.6,160
-2.7,0.75,160
-2.7,0.9,125
-2.7,1.05,114
-2.7,1.2,111
-2.7,1.35,108
-2.7,1.5,113
-2.55,-1.5,145
-2.55,-1.35,146
-2.55,-1.2,148
-2.55,-1.05,151
-2.55,-0.9,152
-2.55,-0.75,152
-2.55,-0.6,152
-2.55,-0.45,150
-2.55,-0.3,146
-2.55,-0.15,140
-2.55,0.0,154
-2.55,0.15,146
-2.55,0.3,151
-2.55,0.45,157
-2.55,0.6,160
-2.55,0.75,125
-2.55,0.9,116
-2.55,1.05,115
-2.55,1.2,120
-2.55,1.35,119
-2.55,1.5,118
-2.4,-1.5,150
-2.4,-1.35,149
-2.4,-1.2,150
-2.4,-1.05,152
-2.4,-0.9,153
-2.4,-0.75,153
-2.4,-0.6,152
-2.4,-0.45,151
-2.4,-0.3,199
-2.4,-0.15,165
-2.4,0.0,161
-2.4,0.15,198
-2.4,0.3,155
-2.4,0.45,160
-2.4,0.6,125
-2.4,0.75,125
-2.4,0.9,116
-2.4,1.05,122
-2.4,1.2,122
-2.4,1.35,121
-2.4,1.5,121
-2.25,-1.5,151
-2.25,-1.35,151
-2.25,-1.2,151
-2.25,-1.05,153
-2.25,-0.9,154
-2.25,-0.75,154
-2.25,-0.6,154
-2.25,-0.45,205
-2.25,-0.3,202
-2.25,-0.15,170
-2.25,0.0,207
-2.25,0.15,206
-2.25,0.3,174
-2.25,0.45,162
-2.25,0.6,125
-2.25,0.75,126
-2.25,0.9,123
-2.25,1.05,123
-2.25,1.2,122
-2.25,1.35,122
-2.25,1.5,122
-2.1,-1.5,200
-2.1,-1.35,200
-2.1,-1.2,201
-2.1,-1.05,164
-2.1,-0.9,207
-2.1,-0.75,211
-2.1,-0.6,211
-2.1,-0.45,210
-2.1,-0.3,207
-2.1,-0.15,174
-2.1,0.0,212
-2.1,0.15,176
-2.1,0.3,177
-2.1,0.45,174
-2.1,0.6,131
-2.1,0.75,123
-2.1,0.9,123
-2.1,1.05,123
-2.1,1.2,123
-2.1,1.35,92
-2.1,1.5,92
-1.95,-1.5,231
-1.95,-1.35,202
-1.95,-1.2,203
-1.95,-1.05,206
-1.95,-0.9,224
-1.95,-0.75,233
-1.95,-0.6,236
-1.95,-0.45,233
-1.95,-0.3,227
-1.95,-0.15,228
-1.95,0.0,229
-1.95,0.15,228
-1.95,0.3,174
-1.95,0.45,174
-1.95,0.6,175
-1.95,0.75,123
-1.95,0.9,123
-1.95,1.05,123
-1.95,1.2,92
-1.95,1.35,92
-1.95,1.5,92
-1.8,-1.5,233
-1.8,-1.35,232
-1.8,-1.2,205
-1.8,-1.05,226
-1.8,-0.9,235
-1.8,-0.75,245
-1.8,-0.6,252
-1.8,-0.45,246
-1.8,-0.3,234
-1.8,-0.15,236
-1.8,0.0,227
-1.8,0.15,225
-1.8,0.3,228
-1.8,0.45,177
-1.8,0.6,133
-1.8,0.75,133
-1.8,0.9,123
-1.8,1.05,123
-1.8,1.2,92
-1.8,1.35,92
-1.8,1.5,92
-1.65,-1.5,186
-1.65,-1.35,242
-1.65,-1.2,249
-1.65,-1.05,228
-1.65,-0.9,241
-1.65,-0.75,255
-1.65,-0.6,255
-1.65,-0.45,255
-1.65,-0.3,251
-1.65,-0.15,233
-1.65,0.0,222
-1.65,0.15,223
-1.65,0.3,145
-1.65,0.45,146
-1.65,0.6,133
-1.65,0.75,133
-1.65,0.9,133
-1.65,1.05,123
-1.65,1.2,102
-1.65,1.35,102
-1.65,1.5,102
-1.5,-1.5,241
-1.5,-1.35,242
-1.5,-1.2,244
-1.5,-1.05,252
-1.5,-0.9,239
-1.5,-0.75,253
-1.5,-0.6,255
-1.5,-0.45,255
-1.5,-0.3,243
-1.5,-0.15,227
-1.5,0.0,215
-1.5,0.15,188
-1.5,0.3,192
-1.5,0.45,134
-1.5,0.6,135
-1.5,0.75,135
-1.5,0.9,134
-1.5,1.05,135
-1.5,1.2,102
-1.5,1.35,102
-1.5,1.5,102
-1.35,-1.5,241
-1.35,-1.35,241
-1.35,-1.2,241
-1.35,-1.05,242
-1.35,-0.9,252
-1.35,-0.75,255
-1.35,-0.6,246
-1.35,-0.45,248
-1.35,-0.3,234
-1.35,-0.15,206
-1.35,0.0,187
-1.35,0.15,182
-1.35,0.3,163
-1.35,0.45,192
-1.35,0.6,135
-1.35,0.75,134
-1.35,0.9,134
-1.35,1.05,187
-1.35,1.2,178
-1.35,1.35,150
-1.35,1.5,133
-1.2,-1.5,214
-1.2,-1.35,213
-1.2,-1.2,211
-1.2,-1.05,209
-1.2,-0.9,209
-1.2,-0.75,236
-1.2,-0.6,239
-1.2,-0.45,227
-1.2,-0.3,204
-1.2,-0.15,169
-1.2,0.0,166
-1.2,0.15,163
-1.2,0.3,187
-1.2,0.45,192
-1.2,0.6,186
-1.2,0.75,179
-1.2,0.9,177
-1.2,1.05,174
-1.2,1.2,188
-1.2,1.35,140
-1.2,1.5,188
-1.05,-1.5,206
-1.05,-1.35,211
-1.05,-1.2,206
-1.05,-1.05,200
-1.05,-0.9,196
-1.05,-0.75,195
-1.05,-0.6,198
-1.05,-0.45,207
-1.05,-0.3,171
-1.05,-0.15,173
-1.05,0.0,163
-1.05,0.15,173
-1.05,0.3,181
-1.05,0.45,175
-1.05,0.6,178
-1.05,0.75,177
-1.05,0.9,172
-1.05,1.05,178
-1.05,1.2,141
-1.05,1.35,133
-1.05,1.5,137
-0.9,-1.5,162
-0.9,-1.35,160
-0.9,-1.2,156
-0.9,-1.05,193
-0.9,-0.9,162
-0.9,-0.75,181
-0.9,-0.6,153
-0.9,-0.45,156
-0.9,-0.3,203
-0.9,-0.15,197
-0.9,0.0,198
-0.9,0.15,200
-0.9,0.3,206
-0.9,0.45,184
-0.9,0.6,171
-0.9,0.75,132
-0.9,0.9,132
-0.9,1.05,125
-0.9,1.2,122
-0.9,1.35,104
-0.9,1.5,109
-0.75,-1.5,161
-0.75,-1.35,187
-0.75,-1.2,193
-0.75,-1.05,155
-0.75,-0.9,131
-0.75,-0.75,142
-0.75,-0.6,177
-0.75,-0.45,241
-0.75,-0.3,252
-0.75,-0.15,241
-0.75,0.0,241
-0.75,0.15,213
-0.75,0.3,177
-0.75,0.45,176
-0.75,0.6,150
-0.75,0.75,147
-0.75,0.9,140
-0.75,1.05,131
-0.75,1.2,118
-0.75,1.35,121
-0.75,1.5,128
-0.6,-1.5,125
-0.6,-1.35,173
-0.6,-1.2,123
-0.6,-1.05,120
-0.6,-0.9,136
-0.6,-0.75,162
-0.6,-0.6,172
-0.6,-0.45,210
-0.6,-0.3,228
-0.6,-0.15,224
-0.6,0.0,216
-0.6,0.15,195
-0.6,0.3,174
-0.6,0.45,165
-0.6,0.6,150
-0.6,0.75,147
-0.6,0.9,142
-0.6,1.05,136
-0.6,1.2,157
-0.6,1.35,148
-0.6,1.5,154
-0.45,-1.5,117
-0.45,-1.35,116
-0.45,-1.2,123
-0.45,-1.05,121
-0.45,-0.9,119
-0.45,-0.75,118
-0.45,-0.6,159
-0.45,-0.45,211
-0.45,-0.3,241
-0.45,-0.15,237
-0.45,0.0,213
-0.45,0.15,190
-0.45,0.3,230
-0.45,0.45,214
-0.45,0.6,176
-0.45,0.75,175
-0.45,0.9,172
-0.45,1.05,168
-0.45,1.2,152
-0.45,1.35,154
-0.45,1.5,157
-0.3,-1.5,62
-0.3,-1.35,80
-0.3,-1.2,80
-0.3,-1.05,121
-0.3,-0.9,117
-0.3,-0.75,114
-0.3,-0.6,117
-0.3,-0.45,157
-0.3,-0.3,186
-0.3,-0.15,197
-0.3,0.0,213
-0.3,0.15,205
-0.3,0.3,228
-0.3,0.45,243
-0.3,0.6,171
-0.3,0.75,170
-0.3,0.9,163
-0.3,1.05,160
-0.3,1.2,158
-0.3,1.35,198
-0.3,1.5,119
-0.15,-1.5,62
-0.15,-1.35,62
-0.15,-1.2,62
-0.15,-1.05,64
-0.15,-0.9,86
-0.15,-0.75,109
-0.15,-0.6,107
-0.15,-0.45,108
-0.15,-0.3,136
-0.15,-0.15,149
-0.15,0.0,148
-0.15,0.15,174
-0.15,0.3,185
-0.15,0.45,174
-0.15,0.6,204
-0.15,0.75,201
-0.15,0.9,147
-0.15,1.05,143
-0.15,1.2,105
-0.15,1.35,105
-0.15,1.5,105
0.0,-1.5,54
0.0,-1.35,53
0.0,-1.2,62
0.0,-1.05,63
0.0,-0.9,62
0.0,-0.75,45
0.0,-0.6,97
0.0,-0.45,83
0.0,-0.3,110
0.0,-0.15,120
0.0,0.0,113
0.0,0.15,114
0.0,0.3,121
0.0,0.45,169
0.0,0.6,140
0.0,0.75,130
0.0,0.9,115
0.0,1.05,109
0.0,1.2,106
0.0,1.35,106
0.0,1.5,105
0.15,-1.5,63
0.15,-1.35,54
0.15,-1.2,18
0.15,-1.05,20
0.15,-0.9,39
0.15,-0.75,33
0.15,-0.6,42
0.15,-0.45,46
0.15,-0.3,70
0.15,-0.15,73
0.15,0.0,86
0.15,0.15,134
0.15,0.3,135
0.15,0.45,141
0.15,0.6,146
0.15,0.75,133
0.15,0.9,115
0.15,1.05,109
0.15,1.2,106
0.15,1.35,105
0.15,1.5,116
0.3,-1.5,27
0.3,-1.35,26
0.3,-1.2,25
0.3,-1.05,27
0.3,-0.9,30
0.3,-0.75,36
0.3,-0.6,54
0.3,-0.45,51
0.3,-0.3,48
0.3,-0.15,109
0.3,0.0,109
0.3,0.15,138
0.3,0.3,140
0.3,0.45,134
0.3,0.6,141
0.3,0.75,146
0.3,0.9,142
0.3,1.05,118
0.3,1.2,117
0.3,1.35,122
0.3,1.5,93
0.45,-1.5,26
0.45,-1.35,25
0.45,-1.2,30
0.45,-1.05,30
0.45,-0.9,35
0.45,-0.75,43
0.45,-0.6,48
0.45,-0.45,55
0.45,-0.3,65
0.45,-0.15,79
0.45,0.0,85
0.45,0.15,89
0.45,0.3,113
0.45,0.45,143
0.45,0.6,146
0.45,0.75,142
0.45,0.9,124
0.45,1.05,123
0.45,1.2,122
0.45,1.35,93
0.45,1.5,93
0.6,-1.5,30
0.6,-1.35,30
0.6,-1.2,28
0.6,-1.05,27
0.6,-0.9,31
0.6,-0.75,38
0.6,-0.6,49
0.6,-0.45,71
0.6,-0.3,72
0.6,-0.15,111
0.6,0.0,147
0.6,0.15,143
0.6,0.3,126
0.6,0.45,140
0.6,0.6,117
0.6,0.75,118
0.6,0.9,121
0.6,1.05,122
0.6,1.2,122
0.6,1.35,122
0.6,1.5,93
0.75,-1.5,25
0.75,-1.35,23
0.75,-1.2,20
0.75,-1.05,19
0.75,-0.9,35
0.75,-0.75,40
0.75,-0.6,45
0.75,-0.45,69
0.75,-0.3,97
0.75,-0.15,130
0.75,0.0,153
0.75,0.15,137
0.75,0.3,122
0.75,0.45,76
0.75,0.6,76
0.75,0.75,96
0.75,0.9,131
0.75,1.05,133
0.75,1.2,115
0.75,1.35,107
0.75,1.5,133
0.9,-1.5,36
0.9,-1.35,24
0.9,-1.2,29
0.9,-1.05,27
0.9,-0.9,29
0.9,-0.75,32
0.9,-0.6,43
0.9,-0.45,79
0.9,-0.3,96
0.9,-0.15,113
0.9,0.0,143
0.9,0.15,106
0.9,0.3,75
0.9,0.45,81
0.9,0.6,61
0.9,0.75,65
0.9,0.9,79
0.9,1.05,80
0.9,1.2,80
0.9,1.35,120
0.9,1.5,121
1.05,-1.5,39
1.05,-1.35,38
1.05,-1.2,35
1.05,-1.05,41
1.05,-0.9,40
1.05,-0.75,47
1.05,-0.6,54
1.05,-0.45,51
1.05,-0.3,117
1.05,-0.15,117
1.05,0.0,90
1.05,0.15,65
1.05,0.3,83
1.05,0.45,89
1.05,0.6,89
1.05,0.75,92
1.05,0.9,94
1.05,1.05,95
1.05,1.2,96
1.05,1.35,80
1.05,1.5,81
1.2,-1.5,47
1.2,-1.35,47
1.2,-1.2,47
1.2,-1.05,36
1.2,-0.9,36
1.2,-0.75,37
1.2,-0.6,61
1.2,-0.45,74
1.2,-0.3,79
1.2,-0.15,84
1.2,0.0,82
1.2,0.15,82
1.2,0.3,79
1.2,0.45,83
1.2,0.6,84
1.2,0.75,94
1.2,0.9,93
1.2,1.05,76
1.2,1.2,75
1.2,1.35,75
1.2,1.5,75
1.35,-1.5,32
1.35,-1.35,32
1.35,-1.2,47
1.35,-1.05,46
1.35,-0.9,53
1.35,-0.75,48
1.35,-0.6,56
1.35,-0.45,74
1.35,-0.3,80
1.35,-0.15,84
1.35,0.0,90
1.35,0.15,93
1.35,0.3,96
1.35,0.45,93
1.35,0.6,90
1.35,0.75,85
1.35,0.9,80
1.35,1.05,77
1.35,1.2,76
1.35,1.35,75
1.35,1.5,85
1.5,-1.5,70
1.5,-1.35,41
1.5,-1.2,41
1.5,-1.05,53
1.5,-0.9,53
1.5,-0.75,52
1.5,-0.6,54
1.5,-0.45,62
1.5,-0.3,78
1.5,-0.15,89
1.5,0.0,78
1.5,0.15,101
1.5,0.3,99
1.5,0.45,107
1.5,0.6,106
1.5,0.75,85
1.5,0.9,79
1.5,1.05,75
1.5,1.2,74
1.5,1.35,74
1.5,1.5,67
1.65,-1.5,70
1.65,-1.35,70
1.65,-1.2,50
1.65,-1.05,51
1.65,-0.9,51
1.65,-0.75,53
1.65,-0.6,62
1.65,-0.45,57
1.65,-0.3,69
1.65,-0.15,83
1.65,0.0,74
1.65,0.15,97
1.65,0.3,101
1.65,0.45,95
1.65,0.6,93
1.65,0.75,88
1.65,0.9,84
1.65,1.05,75
1.65,1.2,76
1.65,1.35,74
1.65,1.5,74
1.8,-1.5,95
1.8,-1.35,96
1.8,-1.2,82
1.8,-1.05,91
1.8,-0.9,87
1.8,-0.75,56
1.8,-0.6,52
1.8,-0.45,39
1.8,-0.3,62
1.8,-0.15,67
1.8,0.0,55
1.8,0.15,79
1.8,0.3,89
1.8,0.45,95
1.8,0.6,84
1.8,0.75,90
1.8,0.9,89
1.8,1.05,88
1.8,1.2,82
1.8,1.35,74
1.8,1.5,75
1.95,-1.5,95
1.95,-1.35,108
1.95,-1.2,109
1.95,-1.05,108
1.95,-0.9,102
1.95,-0.75,63
1.95,-0.6,37
1.95,-0.45,25
1.95,-0.3,37
1.95,-0.15,54
1.95,0.0,56
1.95,0.15,53
1.95,0.3,54
1.95,0.45,79
1.95,0.6,90
1.95,0.75,91
1.95,0.9,88
1.95,1.05,88
1.95,1.2,88
1.95,1.35,88
1.95,1.5,88
2.1,-1.5,108
2.1,-1.35,129
2.1,-1.2,130
2.1,-1.05,122
2.1,-0.9,118
2.1,-0.75,85
2.1,-0.6,50
2.1,-0.45,16
2.1,-0.3,18
2.1,-0.15,39
2.1,0.0,46
2.1,0.15,57
2.1,0.3,60
2.1,0.45,61
2.1,0.6,71
2.1,0.75,98
2.1,0.9,98
2.1,1.05,99
2.1,1.2,108
2.1,1.35,108
2.1,1.5,108
2.25,-1.5,108
2.25,-1.35,110
2.25,-1.2,134
2.25,-1.05,133
2.25,-0.9,125
2.25,-0.75,109
2.25,-0.6,107
2.25,-0.45,52
2.25,-0.3,16
2.25,-0.15,17
2.25,0.0,28
2.25,0.15,44
2.25,0.3,47
2.25,0.45,47
2.25,0.6,68
2.25,0.75,68
2.25,0.9,93
2.25,1.05,94
2.25,1.2,127
2.25,1.35,127
2.25,1.5,119
2.4,-1.5,118
2.4,-1.35,120
2.4,-1.2,143
2.4,-1.05,142
2.4,-0.9,145
2.4,-0.75,137
2.4,-0.6,111
2.4,-0.45,71
2.4,-0.3,50
2.4,-0.15,22
2.4,0.0,35
2.4,0.15,53
2.4,0.3,68
2.4,0.45,69
2.4,0.6,69
2.4,0.75,75
2.4,0.9,75
2.4,1.05,74
2.4,1.2,90
2.4,1.35,90
2.4,1.5,90
2.55,-1.5,112
2.55,-1.35,115
2.55,-1.2,143
2.55,-1.05,143
2.55,-0.9,149
2.55,-0.75,136
2.55,-0.6,132
2.55,-0.45,91
2.55,-0.3,50
2.55,-0.15,23
2.55,0.0,42
2.55,0.15,59
2.55,0.3,69
2.55,0.45,69
2.55,0.6,58
2.55,0.75,65
2.55,0.9,65
2.55,1.05,65
2.55,1.2,72
2.55,1.35,104
2.55,1.5,99
2.7,-1.5,109
2.7,-1.35,109
2.7,-1.2,115
2.7,-1.05,135
2.7,-0.9,138
2.7,-0.75,141
2.7,-0.6,127
2.7,-0.45,132
2.7,-0.3,104
2.7,-0.15,84
2.7,0.0,51
2.7,0.15,66
2.7,0.3,68
2.7,0.45,64
2.7,0.6,68
2.7,0.75,74
2.7,0.9,73
2.7,1.05,114
2.7,1.2,93
2.7,1.35,89
2.7,1.5,89
2.85,-1.5,111
2.85,-1.35,115
2.85,-1.2,100
2.85,-1.05,132
2.85,-0.9,127
2.85,-0.75,116
2.85,-0.6,116
2.85,-0.45,126
2.85,-0.3,129
2.85,-0.15,105
2.85,0.0,61
2.85,0.15,66
2.85,0.3,74
2.85,0.45,74
2.85,0.6,70
2.85,0.75,75
2.85,0.9,102
2.85,1.05,89
2.85,1.2,89
2.85,1.35,72
2.85,1.5,72
3.0,-1.5,87
3.0,-1.35,81
3.0,-1.2,75
3.0,-1.05,111
3.0,-0.9,104
3.0,-0.75,78
3.0,-0.6,79
3.0,-0.45,102
3.0,-0.3,123
3.0,-0.15,138
3.0,0.0,91
3.0,0.15,70
3.0,0.3,67
3.0,0.45,72
3.0,0.6,91
3.0,0.75,91
3.0,0.9,78
3.0,1.05,77
3.0,1.2,68
3.0,1.35,68
3.0,1.5,68
3.15,-1.5,120
3.15,-1.35,120
3.15,-1.2,112
3.15,-1.05,122
3.15,-0.9,88
3.15,-0.75,95
3.15,-0.6,83
3.15,-0.45,85
3.15,-0.3,97
3.15,-0.15,94
3.15,0.0,49
3.15,0.15,49
3.15,0.3,52
3.15,0.45,75
3.15,0.6,79
3.15,0.75,68
3.15,0.9,68
3.15,1.05,68
3.15,1.2,68
3.15,1.35,68
3.15,1.5,69
3.3,-1.5,115
3.3,-1.35,114
3.3,-1.2,148
3.3,-1.05,145
3.3,-0.9,172
3.3,-0.75,154
3.3,-0.6,143
3.3,-0.45,208
3.3,-0.3,142
3.3,-0.15,141
3.3,0.0,66
3.3,0.15,40
3.3,0.3,28
3.3,0.45,68
3.3,0.6,68
3.3,0.75,68
3.3,0.9,68
3.3,1.05,68
3.3,1.2,68
3.3,1.35,70
3.3,1.5,70
3.45,-1.5,134
3.45,-1.35,134
3.45,-1.2,164
3.45,-1.05,164
3.45,-0.9,199
3.45,-0.75,240
3.45,-0.6,246
3.45,-0.45,232
3.45,-0.3,169
3.45,-0.15,165
3.45,0.0,107
3.45,0.15,69
3.45,0.3,63
3.45,0.45,91
3.45,0.6,99
3.45,0.75,99
3.45,0.9,99
3.45,1.05,68
3.45,1.2,70
3.45,1.35,70
3.45,1.5,70
3.6,-1.5,121
3.6,-1.35,121
3.6,-1.2,162
3.6,-1.05,161
3.6,-0.9,170
3.6,-0.75,231
3.6,-0.6,255
3.6,-0.45,255
3.6,-0.3,211
3.6,-0.15,135
3.6,0.0,215
3.6,0.15,126
3.6,0.3,145
3.6,0.45,106
3.6,0.6,95
3.6,0.75,98
3.6,0.9,98
3.6,1.05,99
3.6,1.2,101
3.6,1.35,101
3.6,1.5,96
3.75,-1.5,121
3.75,-1.35,121
3.75,-1.2,150
3.75,-1.05,148
3.75,-0.9,164
3.75,-0.75,173
3.75,-0.6,228
3.75,-0.45,255
3.75,-0.3,211
3.75,-0.15,112
3.75,0.0,166
3.75,0.15,162
3.75,0.3,139
3.75,0.45,126
3.75,0.6,104
3.75,0.75,102
3.75,0.9,105
3.75,1.05,108
3.75,1.2,113
3.75,1.35,64
3.75,1.5,64
3.9,-1.5,118
3.9,-1.35,114
3.9,-1.2,108
3.9,-1.05,104
3.9,-0.9,116
3.9,-0.75,168
3.9,-0.6,221
3.9,-0.45,198
3.9,-0.3,200
3.9,-0.15,105
3.9,0.0,77
3.9,0.15,176
3.9,0.3,171
3.9,0.45,171
3.9,0.6,140
3.9,0.75,133
3.9,0.9,102
3.9,1.05,100
3.9,1.2,100
3.9,1.35,101
3.9,1.5,101
4.05,-1.5,179
4.05,-1.35,169
4.05,-1.2,158
4.05,-1.05,153
4.05,-0.9,193
4.05,-0.75,192
4.05,-0.6,241
4.05,-0.45,199
4.05,-0.3,180
4.05,-0.15,85
4.05,0.0,158
4.05,0.15,132
4.05,0.3,122
4.05,0.45,105
4.05,0.6,111
4.05,0.75,103
4.05,0.9,106
4.05,1.05,106
4.05,1.2,106
4.05,1.35,106
4.05,1.5,106
4.2,-1.5,199
4.2,-1.35,191
4.2,-1.2,201
4.2,-1.05,175
4.2,-0.9,196
4.2,-0.75,206
4.2,-0.6,246
4.2,-0.45,217
4.2,-0.3,125
4.2,-0.15,156
4.2,0.0,156
4.2,0.15,99
4.2,0.3,84
4.2,0.45,77
4.2,0.6,82
4.2,0.75,104
4.2,0.9,106
4.2,1.05,106
4.2,1.2,106
4.2,1.35,106
4.2,1.5,62
4.35,-1.5,203
4.35,-1.35,205
4.35,-1.2,192
4.35,-1.05,199
4.35,-0.9,233
4.35,-0.75,255
4.35,-0.6,255
4.35,-0.45,148
4.35,-0.3,155
4.35,-0.15,93
4.35,0.0,142
4.35,0.15,28
4.35,0.3,27
4.35,0.45,69
4.35,0.6,71
4.35,0.75,68
4.35,0.9,72
4.35,1.05,68
4.35,1.2,69
4.35,1.35,62
4.35,1.5,62
4.5,-1.5,186
4.5,-1.35,218
4.5,-1.2,227
4.5,-1.05,232
4.5,-0.9,246
4.5,-0.75,224
4.5,-0.6,235
4.5,-0.45,157
4.5,-0.3,108
4.5,-0.15,71
4.5,0.0,71
4.5,0.15,38
4.5,0.3,37
4.5,0.45,12
4.5,0.6,27
4.5,0.75,28
4.5,0.9,7
4.5,1.05,5
4.5,1.2,21
4.5,1.35,21
4.5,1.5,21
4.65,-1.5,179
4.65,-1.35,178
4.65,-1.2,172
4.65,-1.05,172
4.65,-0.9,185
4.65,-0.75,141
4.65,-0.6,193
4.65,-0.45,133
4.65,-0.3,112
4.65,-0.15,56
4.65,0.0,22
4.65,0.15,54
4.65,0.3,0
4.65,0.45,4
4.65,0.6,1
4.65,0.75,0
4.65,0.9,0
4.65,1.05,0
4.65,1.2,5
4.65,1.35,5
4.65,1.5,5
4.8,-1.5,179
4.8,-1.35,179
4.8,-1.2,175
4.8,-1.05,177
4.8,-0.9,155
4.8,-0.75,141
4.8,-0.6,51
4.8,-0.45,25
4.8,-0.3,169
4.8,-0.15,83
4.8,0.0,61
4.8,0.15,20
4.8,0.3,6
4.8,0.45,0
4.8,0.6,0
4.8,0.75,0
4.8,0.9,0
4.8,1.05,0
4.8,1.2,16
4.8,1.35,5
4.8,1.5,6
4.95,-1.5,165
4.95,-1.35,172
4.95,-1.2,176
4.95,-1.05,172
4.95,-0.9,170
4.95,-0.75,123
4.95,-0.6,76
4.95,-0.45,57
4.95,-0.3,109
4.95,-0.15,50
4.95,0.0,32
4.95,0.15,15
4.95,0.3,4
4.95,0.45,3
4.95,0.6,0
4.95,0.75,3
4.95,0.9,5
4.95,1.05,15
4.95,1.2,26
4.95,1.35,18
4.95,1.5,18
5.1,-1.5,200
5.1,-1.35,165
5.1,-1.2,122
5.1,-1.05,124
5.1,-0.9,134
5.1,-0.75,128
5.1,-0.6,99
5.1,-0.45,123
5.1,-0.3,92
5.1,-0.15,59
5.1,0.0,32
5.1,0.15,37
5.1,0.3,23
5.1,0.45,52
5.1,0.6,42
5.1,0.75,53
5.1,0.9,70
5.1,1.05,56
5.1,1.2,56
5.1,1.35,56
5.1,1.5,53
5.25,-1.5,167
5.25,-1.35,168
5.25,-1.2,163
5.25,-1.05,160
5.25,-0.9,163
5.25,-0.75,158
5.25,-0.6,114
5.25,-0.45,108
5.25,-0.3,149
5.25,-0.15,57
5.25,0.0,41
5.25,0.15,87
5.25,0.3,80
5.25,0.45,62
5.25,0.6,54
5.25,0.75,64
5.25,0.9,52
5.25,1.05,56
5.25,1.2,39
5.25,1.35,52
5.25,1.5,52
5.4,-1.5,138
5.4,-1.35,176
5.4,-1.2,169
5.4,-1.05,167
5.4,-0.9,184
5.4,-0.75,228
5.4,-0.6,220
5.4,-0.45,154
5.4,-0.3,33
5.4,-0.15,0
5.4,0.0,0
5.4,0.15,137
5.4,0.3,90
5.4,0.45,66
5.4,0.6,59
5.4,0.75,46
5.4,0.9,46
5.4,1.05,49
5.4,1.2,69
5.4,1.35,69
5.4,1.5,52
5.55,-1.5,138
5.55,-1.35,134
5.55,-1.2,130
5.55,-1.05,122
5.55,-0.9,159
5.55,-0.75,214
5.55,-0.6,255
5.55,-0.45,255
5.55,-0.3,173
5.55,-0.15,107
5.55,0.0,91
5.55,0.15,117
5.55,0.3,63
5.55,0.45,76
5.55,0.6,46
5.55,0.75,47
5.55,0.9,50
5.55,1.05,51
5.55,1.2,52
5.55,1.35,61
5.55,1.5,62
5.7,-1.5,84
5.7,-1.35,132
5.7,-1.2,125
5.7,-1.05,109
5.7,-0.9,117
5.7,-0.75,147
5.7,-0.6,227
5.7,-0.45,137
5.7,-0.3,73
5.7,-0.15,124
5.7,0.0,64
5.7,0.15,35
5.7,0.3,41
5.7,0.45,42
5.7,0.6,33
5.7,0.75,33
5.7,0.9,19
5.7,1.05,17
5.7,1.2,16
5.7,1.35,16
5.7,1.5,16
5.85,-1.5,66
5.85,-1.35,93
5.85,-1.2,47
5.85,-1.05,45
5.85,-0.9,37
5.85,-0.75,59
5.85,-0.6,31
5.85,-0.45,97
5.85,-0.3,83
5.85,-0.15,83
5.85,0.0,80
5.85,0.15,39
5.85,0.3,34
5.85,0.45,34
5.85,0.6,36
5.85,0.75,29
5.85,0.9,17
5.85,1.05,17
5.85,1.2,16
5.85,1.35,7
5.85,1.5,7
6.0,-1.5,89
6.0,-1.35,87
6.0,-1.2,83
6.0,-1.05,75
6.0,-0.9,87
6.0,-0.75,45
6.0,-0.6,34
6.0,-0.45,31
6.0,-0.3,57
6.0,-0.15,58
6.0,0.0,49
6.0,0.15,80
6.0,0.3,71
6.0,0.45,91
6.0,0.6,91
6.0,0.75,91
6.0,0.9,90
6.0,1.05,61
6.0,1.2,17
6.0,1.35,58
6.0,1.5,58
6.15,-1.5,87
6.15,-1.35,89
6.15,-1.2,89
6.15,-1.05,106
6.15,-0.9,102
6.15,-0.75,130
6.15,-0.6,87
6.15,-0.45,59
6.15,-0.3,75
6.15,-0.15,162
6.15,0.0,174
6.15,0.15,138
6.15,0.3,92
6.15,0.45,80
6.15,0.6,80
6.15,0.75,87
6.15,0.9,81
6.15,1.05,82
6.15,1.2,82
6.15,1.35,71
6.15,1.5,58
6.3,-1.5,93
6.3,-1.35,109
6.3,-1.2,110
6.3,-1.05,110
6.3,-0.9,120
6.3,-0.75,146
6.3,-0.6,115
6.3,-0.45,25
6.3,-0.3,8
6.3,-0.15,97
6.3,0.0,167
6.3,0.15,167
6.3,0.3,130
6.3,0.45,151
6.3,0.6,136
6.3,0.75,136
6.3,0.9,118
6.3,1.05,120
6.3,1.2,98
6.3,1.35,98
6.3,1.5,99
6.45,-1.5,95
6.45,-1.35,94
6.45,-1.2,101
6.45,-1.05,115
6.45,-0.9,122
6.45,-0.75,120
6.45,-0.6,117
6.45,-0.45,63
6.45,-0.3,15
6.45,-0.15,74
6.45,0.0,92
6.45,0.15,121
6.45,0.3,151
6.45,0.45,147
6.45,0.6,119
6.45,0.75,119
6.45,0.9,121
6.45,1.05,121
6.45,1.2,121
6.45,1.35,121
6.45,1.5,121
6.6,-1.5,101
6.6,-1.35,101
6.6,-1.2,101
6.6,-1.05,98
6.6,-0.9,105
6.6,-0.75,51
6.6,-0.6,76
6.6,-0.45,73
6.6,-0.3,84
6.6,-0.15,41
6.6,0.0,76
6.6,0.15,102
6.6,0.3,112
6.6,0.45,94
6.6,0.6,87
6.6,0.75,133
6.6,0.9,115
6.6,1.05,115
6.6,1.2,115
6.6,1.35,115
6.6,1.5,72
6.75,-1.5,101
6.75,-1.35,101
6.75,-1.2,70
6.75,-1.05,66
6.75,-0.9,42
6.75,-0.75,65
6.75,-0.6,72
6.75,-0.45,70
6.75,-0.3,9
6.75,-0.15,48
6.75,0.0,24
6.75,0.15,99
6.75,0.3,106
6.75,0.45,129
6.75,0.6,116
6.75,0.75,108
6.75,0.9,108
6.75,1.05,111
6.75,1.2,111
6.75,1.35,111
6.75,1.5,111
6.9,-1.5,82
6.9,-1.35,88
6.9,-1.2,84
6.9,-1.05,78
6.9,-0.9,74
6.9,-0.75,96
6.9,-0.6,98
6.9,-0.45,106
6.9,-0.3,15
6.9,-0.15,25
6.9,0.0,24
6.9,0.15,52
6.9,0.3,76
6.9,0.45,80
6.9,0.6,80
6.9,0.75,110
6.9,0.9,111
6.9,1.05,105
6.9,1.2,111
6.9,1.35,111
6.9,1.5,93
7.05,-1.5,43
7.05,-1.35,43
7.05,-1.2,43
7.05,-1.05,43
7.05,-0.9,84
7.05,-0.75,109
7.05,-0.6,116
7.05,-0.45,66
7.05,-0.3,24
7.05,-0.15,17
7.05,0.0,177
7.05,0.15,154
7.05,0.3,75
7.05,0.45,73
7.05,0.6,73
7.05,0.75,73
7.05,0.9,86
7.05,1.05,87
7.05,1.2,87
7.05,1.35,93
7.05,1.5,93
7.2,-1.5,43
7.2,-1.35,50
7.2,-1.2,47
7.2,-1.05,46
7.2,-0.9,47
7.2,-0.75,62
7.2,-0.6,76
7.2,-0.45,107
7.2,-0.3,73
7.2,-0.15,80
7.2,0.0,130
7.2,0.15,107
7.2,0.3,98
7.2,0.45,65
7.2,0.6,65
7.2,0.75,74
7.2,0.9,105
7.2,1.05,110
7.2,1.2,159
7.2,1.35,159
7.2,1.5,169
7.35,-1.5,39
7.35,-1.35,39
7.35,-1.2,74
7.35,-1.05,72
7.35,-0.9,67
7.35,-0.75,61
7.35,-0.6,56
7.35,-0.45,83
7.35,-0.3,99
7.35,-0.15,41
7.35,0.0,52
7.35,0.15,79
7.35,0.3,117
7.35,0.45,120
7.35,0.6,174
7.35,0.75,181
7.35,0.9,184
7.35,1.05,185
7.35,1.2,169
7.35,1.35,169
7.35,1.5,169
7.5,-1.5,89
7.5,-1.35,89
7.5,-1.2,98
7.5,-1.05,94
7.5,-0.9,84
7.5,-0.75,88
7.5,-0.6,32
7.5,-0.45,42
7.5,-0.3,41
7.5,-0.15,38
7.5,0.0,99
7.5,0.15,109
7.5,0.3,155
7.5,0.45,154
7.5,0.6,147
7.5,0.75,147
7.5,0.9,153
7.5,1.05,153
7.5,1.2,159
7.5,1.35,159
7.5,1.5,169
7.65,-1.5,100
7.65,-1.35,102
7.65,-1.2,101
7.65,-1.05,127
7.65,-0.9,126
7.65,-0.75,130
7.65,-0.6,146
7.65,-0.45,90
7.65,-0.3,16
7.65,-0.15,24
7.65,0.0,101
7.65,0.15,162
7.65,0.3,172
7.65,0.45,172
7.65,0.6,173
7.65,0.75,168
7.65,0.9,166
7.65,1.05,157
7.65,1.2,157
7.65,1.35,157
7.65,1.5,167
7.8,-1.5,182
7.8,-1.35,188
7.8,-1.2,186
7.8,-1.05,113
7.8,-0.9,117
7.8,-0.75,169
7.8,-0.6,163
7.8,-0.45,149
7.8,-0.3,109
7.8,-0.15,118
7.8,0.0,80
7.8,0.15,169
7.8,0.3,172
7.8,0.45,170
7.8,0.6,160
7.8,0.75,156
7.8,0.9,162
7.8,1.05,151
7.8,1.2,151
7.8,1.35,151
7.8,1.5,151
7.95,-1.5,215
7.95,-1.35,215
7.95,-1.2,215
7.95,-1.05,215
7.95,-0.9,230
7.95,-0.75,161
7.95,-0.6,135
7.95,-0.45,44
7.95,-0.3,65
7.95,-0.15,34
7.95,0.0,17
7.95,0.15,87
7.95,0.3,135
7.95,0.45,148
7.95,0.6,139
7.95,0.75,135
7.95,0.9,132
7.95,1.05,132
7.95,1.2,134
7.95,1.35,134
7.95,1.5,140
8.1,-1.5,203
8.1,-1.35,172
8.1,-1.2,179
8.1,-1.05,192
8.1,-0.9,179
8.1,-0.75,192
8.1,-0.6,85
8.1,-0.45,90
8.1,-0.3,41
8.1,-0.15,24
8.1,0.0,8
8.1,0.15,91
8.1,0.3,95
8.1,0.45,103
8.1,0.6,148
8.1,0.75,148
8.1,0.9,148
8.1,1.05,132
8.1,1.2,132
8.1,1.35,132
8.1,1.5,140
8.25,-1.5,138
8.25,-1.35,175
8.25,-1.2,185
8.25,-1.05,195
8.25,-0.9,192
8.25,-0.75,164
8.25,-0.6,101
8.25,-0.45,60
8.25,-0.3,34
8.25,-0.15,40
8.25,0.0,47
8.25,0.15,61
8.25,0.3,86
8.25,0.45,98
8.25,0.6,101
8.25,0.75,98
8.25,0.9,97
8.25,1.05,97
8.25,1.2,101
8.25,1.35,101
8.25,1.5,101
8.4,-1.5,171
8.4,-1.35,178
8.4,-1.2,190
8.4,-1.05,200
8.4,-0.9,196
8.4,-0.75,178
8.4,-0.6,99
8.4,-0.45,66
8.4,-0.3,8
8.4,-0.15,44
8.4,0.0,63
8.4,0.15,33
8.4,0.3,42
8.4,0.45,42
8.4,0.6,45
8.4,0.75,97
8.4,0.9,101
8.4,1.05,101
8.4,1.2,101
8.4,1.35,137
8.4,1.5,137
8.55,-1.5,165
8.55,-1.35,153
8.55,-1.2,165
8.55,-1.05,175
8.55,-0.9,171
8.55,-0.75,175
8.55,-0.6,66
8.55,-0.45,82
8.55,-0.3,16
8.55,-0.15,76
8.55,0.0,50
8.55,0.15,64
8.55,0.3,54
8.55,0.45,48
8.55,0.6,50
8.55,0.75,49
8.55,0.9,49
8.55,1.05,93
8.55,1.2,93
8.55,1.35,137
8.55,1.5,137
8.7,-1.5,165
8.7,-1.35,185
8.7,-1.2,201
8.7,-1.05,247
8.7,-0.9,206
8.7,-0.75,147
8.7,-0.6,68
8.7,-0.45,68
8.7,-0.3,33
8.7,-0.15,79
8.7,0.0,80
8.7,0.15,80
8.7,0.3,26
8.7,0.45,46
8.7,0.6,48
8.7,0.75,89
8.7,0.9,89
8.7,1.05,116
8.7,1.2,116
8.7,1.35,120
8.7,1.5,120
8.85,-1.5,198
8.85,-1.35,217
8.85,-1.2,194
8.85,-1.05,142
8.85,-0.9,164
8.85,-0.75,132
8.85,-0.6,124
8.85,-0.45,109
8.85,-0.3,58
8.85,-0.15,91
8.85,0.0,80
8.85,0.15,54
8.85,0.3,52
8.85,0.45,89
8.85,0.6,95
8.85,0.75,112
8.85,0.9,112
8.85,1.05,105
8.85,1.2,105
8.85,1.35,105
8.85,1.5,111
9.0,-1.5,176
9.0,-1.35,140
9.0,-1.2,140
9.0,-1.05,178
9.0,-0.9,139
9.0,-0.75,146
9.0,-0.6,146
9.0,-0.45,105
9.0,-0.3,97
9.0,-0.15,97
9.0,0.0,72
9.0,0.15,55
9.0,0.3,88
9.0,0.45,98
9.0,0.6,100
9.0,0.75,97
9.0,0.9,98
9.0,1.05,96
9.0,1.2,101
9.0,1.35,101
9.0,1.5,101
9.15,-1.5,134
9.15,-1.35,170
9.15,-1.2,178
9.15,-1.05,108
9.15,-0.9,102
9.15,-0.75,66
9.15,-0.6,83
9.15,-0.45,49
9.15,-0.3,84
9.15,-0.15,67
9.15,0.0,34
9.15,0.15,94
9.15,0.3,114
9.15,0.45,121
9.15,0.6,115
9.15,0.75,105
9.15,0.9,87
9.15,1.05,75
9.15,1.2,74
9.15,1.35,91
9.15,1.5,91
9.3,-1.5,143
9.3,-1.35,110
9.3,-1.2,110
9.3,-1.05,116
9.3,-0.9,173
9.3,-0.75,123
9.3,-0.6,91
9.3,-0.45,98
9.3,-0.3,59
9.3,-0.15,54
9.3,0.0,48
9.3,0.15,103
9.3,0.3,122
9.3,0.45,131
9.3,0.6,124
9.3,0.75,110
9.3,0.9,99
9.3,1.05,94
9.3,1.2,89
9.3,1.35,89
9.3,1.5,89
9.45,-1.5,143
9.45,-1.35,119
9.45,-1.2,126
9.45,-1.05,130
9.45,-0.9,118
9.45,-0.75,109
9.45,-0.6,51
9.45,-0.45,120
9.45,-0.3,90
9.45,-0.15,77
9.45,0.0,48
9.45,0.15,117
9.45,0.3,139
9.45,0.45,146
9.45,0.6,149
9.45,0.75,138
9.45,0.9,130
9.45,1.05,153
9.45,1.2,152
9.45,1.35,151
9.45,1.5,125
9.6,-1.5,135
9.6,-1.35,137
9.6,-1.2,180
9.6,-1.05,155
9.6,-0.9,190
9.6,-0.75,193
9.6,-0.6,188
9.6,-0.45,106
9.6,-0.3,82
9.6,-0.15,119
9.6,0.0,84
9.6,0.15,136
9.6,0.3,149
9.6,0.45,159
9.6,0.6,161
9.6,0.75,158
9.6,0.9,154
9.6,1.05,152
9.6,1.2,151
9.6,1.35,152
9.6,1.5,152
9.75,-1.5,147
9.75,-1.35,147
9.75,-1.2,180
9.75,-1.05,176
9.75,-0.9,178
9.75,-0.75,158
9.75,-0.6,193
9.75,-0.45,173
9.75,-0.3,171
9.75,-0.15,139
9.75,0.0,108
9.75,0.15,141
9.75,0.3,162
9.75,0.45,170
9.75,0.6,175
9.75,0.75,175
9.75,0.9,175
9.75,1.05,175
9.75,1.2,175
9.75,1.35,175
9.75,1.5,175
9.9,-1.5,192
9.9,-1.35,188
9.9,-1.2,150
9.9,-1.05,146
9.9,-0.9,122
9.9,-0.75,122
9.9,-0.6,133
9.9,-0.45,197
9.9,-0.3,139
9.9,-0.15,157
9.9,0.0,127
9.9,0.15,143
9.9,0.3,163
9.9,0.45,175
9.9,0.6,174
9.9,0.75,175
9.9,0.9,175
9.9,1.05,175
9.9,1.2,175
9.9,1.35,175
9.9,1.5,135
10.05,-1.5,193
10.05,-1.35,191
10.05,-1.2,186
10.05,-1.05,159
10.05,-0.9,122
10.05,-0.75,144
10.05,-0.6,109
10.05,-0.45,116
10.05,-0.3,141
10.05,-0.15,142
10.05,0.0,181
10.05,0.15,149
10.05,0.3,151
10.05,0.45,151
10.05,0.6,151
10.05,0.75,174
10.05,0.9,175
10.05,1.05,175
10.05,1.2,175
10.05,1.35,175
10.05,1.5,149
10.2,-1.5,218
10.2,-1.35,218
10.2,-1.2,218
10.2,-1.05,173
10.2,-0.9,178
10.2,-0.75,208
10.2,-0.6,145
10.2,-0.45,129
10.2,-0.3,142
10.2,-0.15,175
10.2,0.0,192
10.2,0.15,192
10.2,0.3,155
10.2,0.45,155
10.2,0.6,151
10.2,0.75,151
10.2,0.9,151
10.2,1.05,151
10.2,1.2,176
10.2,1.35,176
10.2,1.5,176
10.35,-1.5,171
10.35,-1.35,173
10.35,-1.2,185
10.35,-1.05,202
10.35,-0.9,223
10.35,-0.75,195
10.35,-0.6,154
10.35,-0.45,108
10.35,-0.3,188
10.35,-0.15,190
10.35,0.0,219
10.35,0.15,191
10.35,0.3,196
10.35,0.45,198
10.35,0.6,173
10.35,0.75,151
10.35,0.9,151
10.35,1.05,188
10.35,1.2,188
10.35,1.35,188
10.35,1.5,219
10.5,-1.5,171
10.5,-1.35,175
10.5,-1.2,207
10.5,-1.05,207
10.5,-0.9,232
10.5,-0.75,226
10.5,-0.6,181
10.5,-0.45,122
10.5,-0.3,188
10.5,-0.15,180
10.5,0.0,201
10.5,0.15,223
10.5,0.3,198
10.5,0.45,188
10.5,0.6,187
10.5,0.75,191
10.5,0.9,194
10.5,1.05,195
10.5,1.2,196
10.5,1.35,196
10.5,1.5,196
10.65,-1.5,175
10.65,-1.35,160
10.65,-1.2,167
10.65,-1.05,183
10.65,-0.9,190
10.65,-0.75,184
10.65,-0.6,143
10.65,-0.45,85
10.65,-0.3,111
10.65,-0.15,142
10.65,0.0,185
10.65,0.15,196
10.65,0.3,202
10.65,0.45,201
10.65,0.6,187
10.65,0.75,188
10.65,0.9,193
10.65,1.05,195
10.65,1.2,196
10.65,1.35,196
10.65,1.5,196
10.8,-1.5,140
10.8,-1.35,150
10.8,-1.2,153
10.8,-1.05,156
10.8,-0.9,155
10.8,-0.75,150
10.8,-0.6,89
10.8,-0.45,64
10.8,-0.3,81
10.8,-0.15,83
10.8,0.0,127
10.8,0.15,160
10.8,0.3,188
10.8,0.45,189
10.8,0.6,191
10.8,0.75,193
10.8,0.9,193
10.8,1.05,195
10.8,1.2,196
10.8,1.35,196
10.8,1.5,196
10.95,-1.5,152
10.95,-1.35,152
10.95,-1.2,137
10.95,-1.05,155
10.95,-0.9,108
10.95,-0.75,80
10.95,-0.6,73
10.95,-0.45,42
10.95,-0.3,39
10.95,-0.15,28
10.95,0.0,136
10.95,0.15,150
10.95,0.3,163
10.95,0.45,179
10.95,0.6,193
10.95,0.75,193
10.95,0.9,193
10.95,1.05,194
10.95,1.2,194
10.95,1.35,195
10.95,1.5,195
11.1,-1.5,108
11.1,-1.35,152
11.1,-1.2,74
11.1,-1.05,49
11.1,-0.9,45
11.1,-0.75,22
11.1,-0.6,43
11.1,-0.45,58
11.1,-0.3,63
11.1,-0.15,65
11.1,0.0,130
11.1,0.15,159
11.1,0.3,193
11.1,0.45,188
11.1,0.6,179
11.1,0.75,188
11.1,0.9,186
11.1,1.05,186
11.1,1.2,186
11.1,1.35,186
11.1,1.5,186
11.25,-1.5,93
11.25,-1.35,91
11.25,-1.2,88
11.25,-1.05,55
11.25,-0.9,53
11.25,-0.75,65
11.25,-0.6,107
11.25,-0.45,60
11.25,-0.3,66
11.25,-0.15,53
11.25,0.0,152
11.25,0.15,211
11.25,0.3,222
11.25,0.45,195
11.25,0.6,187
11.25,0.75,180
11.25,0.9,177
11.25,1.05,176
11.25,1.2,147
11.25,1.35,187
11.25,1.5,219
11.4,-1.5,52
11.4,-1.35,60
11.4,-1.2,57
11.4,-1.05,55
11.4,-0.9,56
11.4,-0.75,87
11.4,-0.6,102
11.4,-0.45,148
11.4,-0.3,106
11.4,-0.15,131
11.4,0.0,161
11.4,0.15,173
11.4,0.3,194
11.4,0.45,190
11.4,0.6,184
11.4,0.75,179
11.4,0.9,177
11.4,1.05,180
11.4,1.2,180
11.4,1.35,180
11.4,1.5,180
11.55,-1.5,76
11.55,-1.35,76
11.55,-1.2,72
11.55,-1.05,75
11.55,-0.9,98
11.55,-0.75,107
11.55,-0.6,139
11.55,-0.45,146
11.55,-0.3,175
11.55,-0.15,164
11.55,0.0,136
11.55,0.15,182
11.55,0.3,166
11.55,0.45,213
11.55,0.6,216
11.55,0.75,218
11.55,0.9,219
11.55,1.05,180
11.55,1.2,180
11.55,1.35,180
11.55,1.5,174
11.7,-1.5,91
11.7,-1.35,89
11.7,-1.2,82
11.7,-1.05,95
11.7,-0.9,85
11.7,-0.75,98
11.7,-0.6,129
11.7,-0.45,204
11.7,-0.3,195
11.7,-0.15,205
11.7,0.0,190
11.7,0.15,166
11.7,0.3,188
11.7,0.45,196
11.7,0.6,208
11.7,0.75,220
11.7,0.9,219
11.7,1.05,219
11.7,1.2,219
11.7,1.35,160
11.7,1.5,160
11.85,-1.5,30
11.85,-1.35,61
11.85,-1.2,59
11.85,-1.05,57
11.85,-0.9,64
11.85,-0.75,69
11.85,-0.6,110
11.85,-0.45,190
11.85,-0.3,189
11.85,-0.15,181
11.85,0.0,167
11.85,0.15,168
11.85,0.3,148
11.85,0.45,201
11.85,0.6,170
11.85,0.75,177
11.85,0.9,173
11.85,1.05,173
11.85,1.2,135
11.85,1.35,135
11.85,1.5,135
12.0,-1.5,30
12.0,-1.35,51
12.0,-1.2,49
12.0,-1.05,47
12.0,-0.9,48
12.0,-0.75,62
12.0,-0.6,97
12.0,-0.45,132
12.0,-0.3,131
12.0,-0.15,151
12.0,0.0,143
12.0,0.15,146
12.0,0.3,159
12.0,0.45,164
12.0,0.6,166
12.0,0.75,164
12.0,0.9,188
12.0,1.05,163
12.0,1.2,162
12.0,1.35,135
12.0,1.5,135
12.15,-1.5,18
12.15,-1.35,51
12.15,-1.2,48
12.15,-1.05,58
12.15,-0.9,32
12.15,-0.75,34
12.15,-0.6,32
12.15,-0.45,39
12.15,-0.3,65
12.15,-0.15,103
12.15,0.0,115
12.15,0.15,100
12.15,0.3,139
12.15,0.45,141
12.15,0.6,138
12.15,0.75,171
12.15,0.9,129
12.15,1.05,128
12.15,1.2,127
12.15,1.35,162
12.15,1.5,162
12.3,-1.5,20
12.3,-1.35,49
12.3,-1.2,29
12.3,-1.05,11
12.3,-0.9,33
12.3,-0.75,32
12.3,-0.6,38
12.3,-0.45,32
12.3,-0.3,51
12.3,-0.15,33
12.3,0.0,87
12.3,0.15,122
12.3,0.3,136
12.3,0.45,141
12.3,0.6,139
12.3,0.75,138
12.3,0.9,97
12.3,1.05,95
12.3,1.2,95
12.3,1.35,95
12.3,1.5,95
12.45,-1.5,40
12.45,-1.35,40
12.45,-1.2,34
12.45,-1.05,85
12.45,-0.9,91
12.45,-0.75,101
12.45,-0.6,127
12.45,-0.45,141
12.45,-0.3,88
12.45,-0.15,50
12.45,0.0,81
12.45,0.15,99
12.45,0.3,130
12.45,0.45,111
12.45,0.6,136
12.45,0.75,98
12.45,0.9,95
12.45,1.05,127
12.45,1.2,94
12.45,1.35,93
12.45,1.5,93
12.6,-1.5,73
12.6,-1.35,82
12.6,-1.2,78
12.6,-1.05,110
12.6,-0.9,129
12.6,-0.75,153
12.6,-0.6,170
12.6,-0.45,170
12.6,-0.3,135
12.6,-0.15,123
12.6,0.0,122
12.6,0.15,113
12.6,0.3,120
12.6,0.45,122
12.6,0.6,107
12.6,0.75,96
12.6,0.9,94
12.6,1.05,92
12.6,1.2,117
12.6,1.35,115
12.6,1.5,85
12.75,-1.5,104
12.75,-1.35,105
12.75,-1.2,109
12.75,-1.05,114
12.75,-0.9,158
12.75,-0.75,161
12.75,-0.6,170
12.75,-0.45,170
12.75,-0.3,153
12.75,-0.15,155
12.75,0.0,133
12.75,0.15,146
12.75,0.3,145
12.75,0.45,143
12.75,0.6,106
12.75,0.75,107
12.75,0.9,105
12.75,1.05,88
12.75,1.2,88
12.75,1.35,85
12.75,1.5,109
12.9,-1.5,77
12.9,-1.35,80
12.9,-1.2,85
12.9,-1.05,91
12.9,-0.9,149
12.9,-0.75,154
12.9,-0.6,161
12.9,-0.45,158
12.9,-0.3,182
12.9,-0.15,162
12.9,0.0,144
12.9,0.15,156
12.9,0.3,155
12.9,0.45,141
12.9,0.6,101
12.9,0.75,98
12.9,0.9,106
12.9,1.05,102
12.9,1.2,97
12.9,1.35,74
12.9,1.5,72
13.05,-1.5,77
13.05,-1.35,79
13.05,-1.2,97
13.05,-1.05,131
13.05,-0.9,135
13.05,-0.75,150
13.05,-0.6,150
13.05,-0.45,150
13.05,-0.3,178
13.05,-0.15,160
13.05,0.0,122
13.05,0.15,125
13.05,0.3,153
13.05,0.45,148
13.05,0.6,130
13.05,0.75,127
13.05,0.9,97
13.05,1.05,97
13.05,1.2,97
13.05,1.35,92
13.05,1.5,59
