-3.0,-1.5,56
-3.0,-1.35,57
-3.0,-1.2,60
-3.0,-1.05,63
-3.0,-0.9,65
-3.0,-0.75,67
-3.0,-0.6,68
-3.0,-0.45,69
-3.0,-0.3,70
-3.0,-0.15,71
-3.0,0.0,72
-3.0,0.15,66
-3.0,0.3,66
-3.0,0.45,65
-3.0,0.6,63
-3.0,0.75,61
-3.0,0.9,59
-3.0,1.05,51
-3.0,1.2,48
-3.0,1.35,48
-3.0,1.5,48
-2.85,-1.5,57
-2.85,-1.35,58
-2.85,-1.2,60
-2.85,-1.05,63
-2.85,-0.9,66
-2.85,-0.75,68
-2.85,-0.6,70
-2.85,-0.45,71
-2.85,-0.3,73
-2.85,-0.15,75
-2.85,0.0,77
-2.85,0.15,71
-2.85,0.3,70
-2.85,0.45,68
-2.85,0.6,66
-2.85,0.75,63
-2.85,0.9,59
-2.85,1.05,51
-2.85,1.2,48
-2.85,1.35,48
-2.85,1.5,48
-2.7,-1.5,60
-2.7,-1.35,60
-2.7,-1.2,62
-2.7,-1.05,65
-2.7,-0.9,67
-2.7,-0.75,70
-2.7,-0.6,72
-2.7,-0.45,74
-2.7,-0.3,78
-2.7,-0.15,81
-2.7,0.0,84
-2.7,0.15,79
-2.7,0.3,78
-2.7,0.45,74
-2.7,0.6,69
-2.7,0.75,65
-2.7,0.9,60
-2.7,1.05,51
-2.7,1.2,54
-2.7,1.35,48
-2.7,1.5,48
-2.55,-1.5,63
-2.55,-1.35,63
-2.55,-1.2,65
-2.55,-1.05,67
-2.55,-0.9,69
-2.55,-0.75,72
-2.55,-0.6,76
-2.55,-0.45,80
-2.55,-0.3,85
-2.55,-0.15,90
-2.55,0.0,94
-2.55,0.15,89
-2.55,0.3,87
-2.55,0.45,81
-2.55,0.6,74
-2.55,0.75,67
-2.55,0.9,63
-2.55,1.05,58
-2.55,1.2,54
-2.55,1.35,48
-2.55,1.5,48
-2.4,-1.5,65
-2.4,-1.35,66
-2.4,-1.2,67
-2.4,-1.05,69
-2.4,-0.9,72
-2.4,-0.75,76
-2.4,-0.6,81
-2.4,-0.45,88
-2.4,-0.3,94
-2.4,-0.15,99
-2.4,0.0,103
-2.4,0.15,103
-2.4,0.3,94
-2.4,0.45,86
-2.4,0.6,77
-2.4,0.75,75
-2.4,0.9,63
-2.4,1.05,58
-2.4,1.2,54
-2.4,1.35,48
-2.4,1.5,48
-2.25,-1.5,75
-2.25,-1.35,67
-2.25,-1.2,68
-2.25,-1.05,71
-2.25,-0.9,75
-2.25,-0.75,80
-2.25,-0.6,88
-2.25,-0.45,96
-2.25,-0.3,102
-2.25,-0.15,107
-2.25,0.0,109
-2.25,0.15,108
-2.25,0.3,97
-2.25,0.45,88
-2.25,0.6,83
-2.25,0.75,75
-2.25,0.9,63
-2.25,1.05,58
-2.25,1.2,54
-2.25,1.35,48
-2.25,1.5,48
-2.1,-1.5,76
-2.1,-1.35,76
-2.1,-1.2,83
-2.1,-1.05,72
-2.1,-0.9,90
-2.1,-0.75,84
-2.1,-0.6,93
-2.1,-0.45,101
-2.1,-0.3,108
-2.1,-0.15,109
-2.1,0.0,109
-2.1,0.15,107
-2.1,0.3,100
-2.1,0.45,91
-2.1,0.6,81
-2.1,0.75,73
-2.1,0.9,62
-2.1,1.05,57
-2.1,1.2,49
-2.1,1.35,48
-2.1,1.5,48
-1.95,-1.5,76
-1.95,-1.35,77
-1.95,-1.2,84
-1.95,-1.05,86
-1.95,-0.9,91
-1.95,-0.75,98
-1.95,-0.6,107
-1.95,-0.45,115
-1.95,-0.3,108
-1.95,-0.15,109
-1.95,0.0,106
-1.95,0.15,101
-1.95,0.3,94
-1.95,0.45,85
-1.95,0.6,77
-1.95,0.75,71
-1.95,0.9,60
-1.95,1.05,57
-1.95,1.2,49
-1.95,1.35,48
-1.95,1.5,48
-1.8,-1.5,76
-1.8,-1.35,77
-1.8,-1.2,78
-1.8,-1.05,86
-1.8,-0.9,90
-1.8,-0.75,97
-1.8,-0.6,104
-1.8,-0.45,111
-1.8,-0.3,115
-1.8,-0.15,102
-1.8,0.0,109
-1.8,0.15,92
-1.8,0.3,86
-1.8,0.45,79
-1.8,0.6,72
-1.8,0.75,67
-1.8,0.9,58
-1.8,1.05,55
-1.8,1.2,49
-1.8,1.35,48
-1.8,1.5,48
-1.65,-1.5,88
-1.65,-1.35,89
-1.65,-1.2,77
-1.65,-1.05,79
-1.65,-0.9,88
-1.65,-0.75,93
-1.65,-0.6,106
-1.65,-0.45,111
-1.65,-0.3,106
-1.65,-0.15,105
-1.65,0.0,101
-1.65,0.15,96
-1.65,0.3,91
-1.65,0.45,74
-1.65,0.6,67
-1.65,0.75,63
-1.65,0.9,54
-1.65,1.05,52
-1.65,1.2,47
-1.65,1.35,48
-1.65,1.5,25
-1.5,-1.5,97
-1.5,-1.35,97
-1.5,-1.2,89
-1.5,-1.05,90
-1.5,-0.9,86
-1.5,-0.75,89
-1.5,-0.6,93
-1.5,-0.45,103
-1.5,-0.3,105
-1.5,-0.15,104
-1.5,0.0,93
-1.5,0.15,89
-1.5,0.3,85
-1.5,0.45,80
-1.5,0.6,64
-1.5,0.75,60
-1.5,0.9,56
-1.5,1.05,49
-1.5,1.2,44
-1.5,1.35,23
-1.5,1.5,25
-1.35,-1.5,97
-1.35,-1.35,97
-1.35,-1.2,97
-1.35,-1.05,98
-1.35,-0.9,90
-1.35,-0.75,92
-1.35,-0.6,96
-1.35,-0.45,105
-1.35,-0.3,105
-1.35,-0.15,97
-1.35,0.0,94
-1.35,0.15,109
-1.35,0.3,81
-1.35,0.45,77
-1.35,0.6,61
-1.35,0.75,56
-1.35,0.9,51
-1.35,1.05,45
-1.35,1.2,41
-1.35,1.35,44
-1.35,1.5,44
-1.2,-1.5,118
-1.2,-1.35,118
-1.2,-1.2,97
-1.2,-1.05,97
-1.2,-0.9,108
-1.2,-0.75,108
-1.2,-0.6,99
-1.2,-0.45,101
-1.2,-0.3,101
-1.2,-0.15,100
-1.2,0.0,90
-1.2,0.15,105
-1.2,0.3,101
-1.2,0.45,97
-1.2,0.6,81
-1.2,0.75,52
-1.2,0.9,48
-1.2,1.05,21
-1.2,1.2,22
-1.2,1.35,25
-1.2,1.5,28
-1.05,-1.5,118
-1.05,-1.35,118
-1.05,-1.2,118
-1.05,-1.05,129
-1.05,-0.9,129
-1.05,-0.75,129
-1.05,-0.6,129
-1.05,-0.45,101
-1.05,-0.3,98
-1.05,-0.15,97
-1.05,0.0,87
-1.05,0.15,85
-1.05,0.3,81
-1.05,0.45,74
-1.05,0.6,46
-1.05,0.75,41
-1.05,0.9,29
-1.05,1.05,21
-1.05,1.2,21
-1.05,1.35,24
-1.05,1.5,28
-0.9,-1.5,99
-0.9,-1.35,99
-0.9,-1.2,99
-0.9,-1.05,99
-0.9,-0.9,99
-0.9,-0.75,99
-0.9,-0.6,99
-0.9,-0.45,98
-0.9,-0.3,93
-0.9,-0.15,77
-0.9,0.0,92
-0.9,0.15,82
-0.9,0.3,73
-0.9,0.45,67
-0.9,0.6,59
-0.9,0.75,38
-0.9,0.9,34
-0.9,1.05,32
-0.9,1.2,32
-0.9,1.35,24
-0.9,1.5,27
-0.75,-1.5,99
-0.75,-1.35,99
-0.75,-1.2,99
-0.75,-1.05,99
-0.75,-0.9,99
-0.75,-0.75,99
-0.75,-0.6,98
-0.75,-0.45,98
-0.75,-0.3,98
-0.75,-0.15,70
-0.75,0.0,84
-0.75,0.15,74
-0.75,0.3,73
-0.75,0.45,72
-0.75,0.6,62
-0.75,0.75,58
-0.75,0.9,37
-0.75,1.05,34
-0.75,1.2,33
-0.75,1.35,45
-0.75,1.5,41
-0.6,-1.5,99
-0.6,-1.35,99
-0.6,-1.2,99
-0.6,-1.05,99
-0.6,-0.9,99
-0.6,-0.75,98
-0.6,-0.6,70
-0.6,-0.45,70
-0.6,-0.3,70
-0.6,-0.15,70
-0.6,0.0,90
-0.6,0.15,85
-0.6,0.3,74
-0.6,0.45,75
-0.6,0.6,67
-0.6,0.75,63
-0.6,0.9,41
-0.6,1.05,36
-0.6,1.2,36
-0.6,1.35,36
-0.6,1.5,44
-0.45,-1.5,99
-0.45,-1.35,99
-0.45,-1.2,70
-0.45,-1.05,69
-0.45,-0.9,69
-0.45,-0.75,69
-0.45,-0.6,70
-0.45,-0.45,70
-0.45,-0.3,70
-0.45,-0.15,70
-0.45,0.0,90
-0.45,0.15,86
-0.45,0.3,88
-0.45,0.45,80
-0.45,0.6,82
-0.45,0.75,74
-0.45,0.9,63
-0.45,1.05,43
-0.45,1.2,37
-0.45,1.35,36
-0.45,1.5,37
-0.3,-1.5,63
-0.3,-1.35,70
-0.3,-1.2,69
-0.3,-1.05,69
-0.3,-0.9,69
-0.3,-0.75,68
-0.3,-0.6,68
-0.3,-0.45,69
-0.3,-0.3,70
-0.3,-0.15,70
-0.3,0.0,90
-0.3,0.15,73
-0.3,0.3,91
-0.3,0.45,90
-0.3,0.6,84
-0.3,0.75,80
-0.3,0.9,71
-0.3,1.05,55
-0.3,1.2,40
-0.3,1.35,36
-0.3,1.5,47
-0.15,-1.5,62
-0.15,-1.35,62
-0.15,-1.2,62
-0.15,-1.05,62
-0.15,-0.9,62
-0.15,-0.75,67
-0.15,-0.6,66
-0.15,-0.45,67
-0.15,-0.3,69
-0.15,-0.15,71
-0.15,0.0,90
-0.15,0.15,89
-0.15,0.3,93
-0.15,0.45,95
-0.15,0.6,97
-0.15,0.75,93
-0.15,0.9,73
-0.15,1.05,58
-0.15,1.2,61
-0.15,1.35,57
-0.15,1.5,60
0.0,-1.5,51
0.0,-1.35,66
0.0,-1.2,66
0.0,-1.05,66
0.0,-0.9,66
0.0,-0.75,64
0.0,-0.6,64
0.0,-0.45,65
0.0,-0.3,69
0.0,-0.15,72
0.0,0.0,88
0.0,0.15,92
0.0,0.3,108
0.0,0.45,116
0.0,0.6,103
0.0,0.75,94
0.0,0.9,79
0.0,1.05,77
0.0,1.2,65
0.0,1.35,60
0.0,1.5,57
0.15,-1.5,51
0.15,-1.35,51
0.15,-1.2,50
0.15,-1.05,66
0.15,-0.9,64
0.15,-0.75,62
0.15,-0.6,62
0.15,-0.45,64
0.15,-0.3,68
0.15,-0.15,74
0.15,0.0,78
0.15,0.15,99
0.15,0.3,94
0.15,0.45,119
0.15,0.6,103
0.15,0.75,104
0.15,0.9,105
0.15,1.05,84
0.15,1.2,73
0.15,1.35,57
0.15,1.5,61
0.3,-1.5,62
0.3,-1.35,51
0.3,-1.2,50
0.3,-1.05,49
0.3,-0.9,63
0.3,-0.75,61
0.3,-0.6,60
0.3,-0.45,63
0.3,-0.3,69
0.3,-0.15,75
0.3,0.0,92
0.3,0.15,115
0.3,0.3,111
0.3,0.45,121
0.3,0.6,121
0.3,0.75,117
0.3,0.9,113
0.3,1.05,92
0.3,1.2,76
0.3,1.35,81
0.3,1.5,81
0.45,-1.5,55
0.45,-1.35,61
0.45,-1.2,60
0.45,-1.05,51
0.45,-0.9,49
0.45,-0.75,54
0.45,-0.6,66
0.45,-0.45,65
0.45,-0.3,71
0.45,-0.15,78
0.45,0.0,84
0.45,0.15,97
0.45,0.3,120
0.45,0.45,115
0.45,0.6,114
0.45,0.75,145
0.45,0.9,140
0.45,1.05,117
0.45,1.2,104
0.45,1.35,99
0.45,1.5,65
0.6,-1.5,55
0.6,-1.35,55
0.6,-1.2,53
0.6,-1.05,52
0.6,-0.9,42
0.6,-0.75,49
0.6,-0.6,50
0.6,-0.45,66
0.6,-0.3,71
0.6,-0.15,77
0.6,0.0,83
0.6,0.15,97
0.6,0.3,98
0.6,0.45,114
0.6,0.6,135
0.6,0.75,133
0.6,0.9,149
0.6,1.05,136
0.6,1.2,109
0.6,1.35,83
0.6,1.5,79
0.75,-1.5,51
0.75,-1.35,51
0.75,-1.2,51
0.75,-1.05,53
0.75,-0.9,51
0.75,-0.75,50
0.75,-0.6,50
0.75,-0.45,59
0.75,-0.3,66
0.75,-0.15,76
0.75,0.0,80
0.75,0.15,93
0.75,0.3,110
0.75,0.45,118
0.75,0.6,123
0.75,0.75,121
0.75,0.9,130
0.75,1.05,118
0.75,1.2,111
0.75,1.35,83
0.75,1.5,80
0.9,-1.5,51
0.9,-1.35,51
0.9,-1.2,51
0.9,-1.05,50
0.9,-0.9,49
0.9,-0.75,52
0.9,-0.6,58
0.9,-0.45,58
0.9,-0.3,63
0.9,-0.15,87
0.9,0.0,88
0.9,0.15,94
0.9,0.3,107
0.9,0.45,114
0.9,0.6,113
0.9,0.75,120
0.9,0.9,105
0.9,1.05,96
0.9,1.2,83
0.9,1.35,76
0.9,1.5,52
1.05,-1.5,29
1.05,-1.35,29
1.05,-1.2,28
1.05,-1.05,28
1.05,-0.9,28
1.05,-0.75,27
1.05,-0.6,32
1.05,-0.45,39
1.05,-0.3,36
1.05,-0.15,46
1.05,0.0,85
1.05,0.15,69
1.05,0.3,93
1.05,0.45,109
1.05,0.6,96
1.05,0.75,91
1.05,0.9,89
1.05,1.05,67
1.05,1.2,59
1.05,1.35,59
1.05,1.5,47
1.2,-1.5,28
1.2,-1.35,27
1.2,-1.2,27
1.2,-1.05,26
1.2,-0.9,26
1.2,-0.75,26
1.2,-0.6,25
1.2,-0.45,36
1.2,-0.3,44
1.2,-0.15,45
1.2,0.0,46
1.2,0.15,51
1.2,0.3,87
1.2,0.45,86
1.2,0.6,57
1.2,0.75,69
1.2,0.9,63
1.2,1.05,57
1.2,1.2,54
1.2,1.35,42
1.2,1.5,55
1.35,-1.5,28
1.35,-1.35,28
1.35,-1.2,27
1.35,-1.05,26
1.35,-0.9,17
1.35,-0.75,17
1.35,-0.6,26
1.35,-0.45,33
1.35,-0.3,36
1.35,-0.15,40
1.35,0.0,51
1.35,0.15,57
1.35,0.3,45
1.35,0.45,67
1.35,0.6,56
1.35,0.75,44
1.35,0.9,35
1.35,1.05,39
1.35,1.2,40
1.35,1.35,44
1.35,1.5,49
1.5,-1.5,28
1.5,-1.35,28
1.5,-1.2,27
1.5,-1.05,36
1.5,-0.9,34
1.5,-0.75,25
1.5,-0.6,24
1.5,-0.45,25
1.5,-0.3,28
1.5,-0.15,32
1.5,0.0,50
1.5,0.15,51
1.5,0.3,45
1.5,0.45,48
1.5,0.6,28
1.5,0.75,16
1.5,0.9,25
1.5,1.05,23
1.5,1.2,15
1.5,1.35,18
1.5,1.5,49
1.65,-1.5,38
1.65,-1.35,37
1.65,-1.2,37
1.65,-1.05,35
1.65,-0.9,33
1.65,-0.75,31
1.65,-0.6,24
1.65,-0.45,24
1.65,-0.3,25
1.65,-0.15,29
1.65,0.0,38
1.65,0.15,57
1.65,0.3,38
1.65,0.45,43
1.65,0.6,25
1.65,0.75,13
1.65,0.9,4
1.65,1.05,0
1.65,1.2,0
1.65,1.35,0
1.65,1.5,0
1.8,-1.5,38
1.8,-1.35,37
1.8,-1.2,37
1.8,-1.05,36
1.8,-0.9,34
1.8,-0.75,31
1.8,-0.6,28
1.8,-0.45,27
1.8,-0.3,24
1.8,-0.15,24
1.8,0.0,40
1.8,0.15,61
1.8,0.3,57
1.8,0.45,38
1.8,0.6,24
1.8,0.75,13
1.8,0.9,4
1.8,1.05,0
1.8,1.2,0
1.8,1.35,0
1.8,1.5,0
1.95,-1.5,53
1.95,-1.35,53
1.95,-1.2,52
1.95,-1.05,27
1.95,-0.9,26
1.95,-0.75,24
1.95,-0.6,24
1.95,-0.45,24
1.95,-0.3,26
1.95,-0.15,27
1.95,0.0,72
1.95,0.15,73
1.95,0.3,79
1.95,0.45,41
1.95,0.6,22
1.95,0.75,16
1.95,0.9,0
1.95,1.05,0
1.95,1.2,0
1.95,1.35,0
1.95,1.5,0
2.1,-1.5,74
2.1,-1.35,74
2.1,-1.2,73
2.1,-1.05,72
2.1,-0.9,49
2.1,-0.75,47
2.1,-0.6,64
2.1,-0.45,64
2.1,-0.3,71
2.1,-0.15,64
2.1,0.0,69
2.1,0.15,68
2.1,0.3,72
2.1,0.45,39
2.1,0.6,19
2.1,0.75,11
2.1,0.9,4
2.1,1.05,4
2.1,1.2,0
2.1,1.35,0
2.1,1.5,0
2.25,-1.5,110
2.25,-1.35,110
2.25,-1.2,74
2.25,-1.05,73
2.25,-0.9,76
2.25,-0.75,75
2.25,-0.6,94
2.25,-0.45,95
2.25,-0.3,104
2.25,-0.15,111
2.25,0.0,119
2.25,0.15,67
2.25,0.3,65
2.25,0.45,42
2.25,0.6,37
2.25,0.75,6
2.25,0.9,0
2.25,1.05,0
2.25,1.2,15
2.25,1.35,10
2.25,1.5,11
2.4,-1.5,49
2.4,-1.35,85
2.4,-1.2,85
2.4,-1.05,84
2.4,-0.9,91
2.4,-0.75,59
2.4,-0.6,69
2.4,-0.45,82
2.4,-0.3,87
2.4,-0.15,99
2.4,0.0,91
2.4,0.15,91
2.4,0.3,53
2.4,0.45,47
2.4,0.6,45
2.4,0.75,34
2.4,0.9,22
2.4,1.05,17
2.4,1.2,16
2.4,1.35,12
2.4,1.5,36
2.55,-1.5,59
2.55,-1.35,89
2.55,-1.2,89
2.55,-1.05,89
2.55,-0.9,96
2.55,-0.75,103
2.55,-0.6,108
2.55,-0.45,84
2.55,-0.3,94
2.55,-0.15,90
2.55,0.0,86
2.55,0.15,43
2.55,0.3,55
2.55,0.45,56
2.55,0.6,49
2.55,0.75,69
2.55,0.9,28
2.55,1.05,45
2.55,1.2,45
2.55,1.35,40
2.55,1.5,43
2.7,-1.5,67
2.7,-1.35,67
2.7,-1.2,73
2.7,-1.05,81
2.7,-0.9,82
2.7,-0.75,82
2.7,-0.6,107
2.7,-0.45,85
2.7,-0.3,56
2.7,-0.15,58
2.7,0.0,27
2.7,0.15,22
2.7,0.3,54
2.7,0.45,50
2.7,0.6,79
2.7,0.75,92
2.7,0.9,58
2.7,1.05,83
2.7,1.2,77
2.7,1.35,80
2.7,1.5,103
2.85,-1.5,56
2.85,-1.35,73
2.85,-1.2,73
2.85,-1.05,74
2.85,-0.9,76
2.85,-0.75,64
2.85,-0.6,64
2.85,-0.45,57
2.85,-0.3,68
2.85,-0.15,46
2.85,0.0,42
2.85,0.15,47
2.85,0.3,22
2.85,0.45,84
2.85,0.6,108
2.85,0.75,131
2.85,0.9,135
2.85,1.05,145
2.85,1.2,127
2.85,1.35,128
2.85,1.5,135
3.0,-1.5,55
3.0,-1.35,56
3.0,-1.2,61
3.0,-1.05,75
3.0,-0.9,106
3.0,-0.75,106
3.0,-0.6,103
3.0,-0.45,59
3.0,-0.3,55
3.0,-0.15,69
3.0,0.0,42
3.0,0.15,42
3.0,0.3,71
3.0,0.45,126
3.0,0.6,239
3.0,0.75,228
3.0,0.9,203
3.0,1.05,159
3.0,1.2,142
3.0,1.35,136
3.0,1.5,138
3.15,-1.5,74
3.15,-1.35,75
3.15,-1.2,83
3.15,-1.05,85
3.15,-0.9,93
3.15,-0.75,95
3.15,-0.6,108
3.15,-0.45,105
3.15,-0.3,83
3.15,-0.15,81
3.15,0.0,80
3.15,0.15,61
3.15,0.3,97
3.15,0.45,213
3.15,0.6,235
3.15,0.75,255
3.15,0.9,224
3.15,1.05,213
3.15,1.2,179
3.15,1.35,170
3.15,1.5,151
3.3,-1.5,79
3.3,-1.35,86
3.3,-1.2,92
3.3,-1.05,76
3.3,-0.9,85
3.3,-0.75,100
3.3,-0.6,102
3.3,-0.45,114
3.3,-0.3,115
3.3,-0.15,138
3.3,0.0,89
3.3,0.15,43
3.3,0.3,80
3.3,0.45,144
3.3,0.6,255
3.3,0.75,255
3.3,0.9,255
3.3,1.05,237
3.3,1.2,196
3.3,1.35,165
3.3,1.5,135
3.45,-1.5,127
3.45,-1.35,118
3.45,-1.2,117
3.45,-1.05,116
3.45,-0.9,68
3.45,-0.75,86
3.45,-0.6,123
3.45,-0.45,129
3.45,-0.3,143
3.45,-0.15,177
3.45,0.0,132
3.45,0.15,94
3.45,0.3,78
3.45,0.45,96
3.45,0.6,255
3.45,0.75,255
3.45,0.9,255
3.45,1.05,192
3.45,1.2,171
3.45,1.35,161
3.45,1.5,161
3.6,-1.5,200
3.6,-1.35,162
3.6,-1.2,122
3.6,-1.05,119
3.6,-0.9,117
3.6,-0.75,116
3.6,-0.6,140
3.6,-0.45,134
3.6,-0.3,183
3.6,-0.15,255
3.6,0.0,195
3.6,0.15,108
3.6,0.3,105
3.6,0.45,172
3.6,0.6,179
3.6,0.75,245
3.6,0.9,197
3.6,1.05,177
3.6,1.2,181
3.6,1.35,152
3.6,1.5,157
3.75,-1.5,174
3.75,-1.35,170
3.75,-1.2,164
3.75,-1.05,122
3.75,-0.9,116
3.75,-0.75,118
3.75,-0.6,157
3.75,-0.45,176
3.75,-0.3,179
3.75,-0.15,194
3.75,0.0,238
3.75,0.15,94
3.75,0.3,136
3.75,0.45,191
3.75,0.6,198
3.75,0.75,151
3.75,0.9,156
3.75,1.05,140
3.75,1.2,129
3.75,1.35,128
3.75,1.5,157
3.9,-1.5,199
3.9,-1.35,205
3.9,-1.2,218
3.9,-1.05,182
3.9,-0.9,179
3.9,-0.75,172
3.9,-0.6,185
3.9,-0.45,205
3.9,-0.3,185
3.9,-0.15,187
3.9,0.0,162
3.9,0.15,109
3.9,0.3,104
3.9,0.45,160
3.9,0.6,171
3.9,0.75,139
3.9,0.9,121
3.9,1.05,106
3.9,1.2,96
3.9,1.35,124
3.9,1.5,132
4.05,-1.5,237
4.05,-1.35,230
4.05,-1.2,221
4.05,-1.05,214
4.05,-0.9,213
4.05,-0.75,220
4.05,-0.6,232
4.05,-0.45,241
4.05,-0.3,242
4.05,-0.15,178
4.05,0.0,88
4.05,0.15,115
4.05,0.3,82
4.05,0.45,156
4.05,0.6,177
4.05,0.75,142
4.05,0.9,132
4.05,1.05,115
4.05,1.2,93
4.05,1.35,86
4.05,1.5,100
4.2,-1.5,195
4.2,-1.35,190
4.2,-1.2,186
4.2,-1.05,192
4.2,-0.9,199
4.2,-0.75,243
4.2,-0.6,255
4.2,-0.45,255
4.2,-0.3,255
4.2,-0.15,178
4.2,0.0,69
4.2,0.15,102
4.2,0.3,121
4.2,0.45,170
4.2,0.6,183
4.2,0.75,120
4.2,0.9,138
4.2,1.05,97
4.2,1.2,96
4.2,1.35,102
4.2,1.5,108
4.35,-1.5,171
4.35,-1.35,171
4.35,-1.2,170
4.35,-1.05,190
4.35,-0.9,171
4.35,-0.75,213
4.35,-0.6,217
4.35,-0.45,214
4.35,-0.3,179
4.35,-0.15,170
4.35,0.0,122
4.35,0.15,87
4.35,0.3,174
4.35,0.45,204
4.35,0.6,189
4.35,0.75,155
4.35,0.9,57
4.35,1.05,48
4.35,1.2,90
4.35,1.35,77
4.35,1.5,82
4.5,-1.5,178
4.5,-1.35,178
4.5,-1.2,183
4.5,-1.05,155
4.5,-0.9,162
4.5,-0.75,173
4.5,-0.6,210
4.5,-0.45,181
4.5,-0.3,124
4.5,-0.15,75
4.5,0.0,70
4.5,0.15,79
4.5,0.3,108
4.5,0.45,179
4.5,0.6,116
4.5,0.75,91
4.5,0.9,61
4.5,1.05,34
4.5,1.2,38
4.5,1.35,40
4.5,1.5,44
4.65,-1.5,154
4.65,-1.35,154
4.65,-1.2,155
4.65,-1.05,159
4.65,-0.9,142
4.65,-0.75,145
4.65,-0.6,130
4.65,-0.45,96
4.65,-0.3,49
4.65,-0.15,48
4.65,0.0,41
4.65,0.15,101
4.65,0.3,68
4.65,0.45,97
4.65,0.6,99
4.65,0.75,67
4.65,0.9,63
4.65,1.05,62
4.65,1.2,27
4.65,1.35,28
4.65,1.5,27
4.8,-1.5,166
4.8,-1.35,146
4.8,-1.2,147
4.8,-1.05,101
4.8,-0.9,115
4.8,-0.75,115
4.8,-0.6,107
4.8,-0.45,86
4.8,-0.3,48
4.8,-0.15,56
4.8,0.0,2
4.8,0.15,62
4.8,0.3,136
4.8,0.45,162
4.8,0.6,88
4.8,0.75,58
4.8,0.9,58
4.8,1.05,30
4.8,1.2,28
4.8,1.35,26
4.8,1.5,27
4.95,-1.5,146
4.95,-1.35,99
4.95,-1.2,99
4.95,-1.05,99
4.95,-0.9,124
4.95,-0.75,120
4.95,-0.6,71
4.95,-0.45,90
4.95,-0.3,93
4.95,-0.15,60
4.95,0.0,35
4.95,0.15,94
4.95,0.3,125
4.95,0.45,126
4.95,0.6,97
4.95,0.75,69
4.95,0.9,66
4.95,1.05,35
4.95,1.2,33
4.95,1.35,34
4.95,1.5,36
5.1,-1.5,99
5.1,-1.35,99
5.1,-1.2,109
5.1,-1.05,111
5.1,-0.9,61
5.1,-0.75,64
5.1,-0.6,65
5.1,-0.45,76
5.1,-0.3,93
5.1,-0.15,51
5.1,0.0,82
5.1,0.15,81
5.1,0.3,28
5.1,0.45,67
5.1,0.6,82
5.1,0.75,43
5.1,0.9,35
5.1,1.05,52
5.1,1.2,49
5.1,1.35,49
5.1,1.5,49
5.25,-1.5,124
5.25,-1.35,165
5.25,-1.2,109
5.25,-1.05,63
5.25,-0.9,66
5.25,-0.75,103
5.25,-0.6,105
5.25,-0.45,112
5.25,-0.3,152
5.25,-0.15,64
5.25,0.0,48
5.25,0.15,28
5.25,0.3,48
5.25,0.45,87
5.25,0.6,77
5.25,0.75,40
5.25,0.9,41
5.25,1.05,38
5.25,1.2,38
5.25,1.35,35
5.25,1.5,36
5.4,-1.5,185
5.4,-1.35,177
5.4,-1.2,176
5.4,-1.05,176
5.4,-0.9,162
5.4,-0.75,193
5.4,-0.6,198
5.4,-0.45,202
5.4,-0.3,113
5.4,-0.15,110
5.4,0.0,15
5.4,0.15,15
5.4,0.3,88
5.4,0.45,96
5.4,0.6,87
5.4,0.75,73
5.4,0.9,68
5.4,1.05,31
5.4,1.2,28
5.4,1.35,28
5.4,1.5,37
5.55,-1.5,151
5.55,-1.35,172
5.55,-1.2,172
5.55,-1.05,213
5.55,-0.9,213
5.55,-0.75,247
5.55,-0.6,212
5.55,-0.45,209
5.55,-0.3,126
5.55,-0.15,92
5.55,0.0,1
5.55,0.15,15
5.55,0.3,69
5.55,0.45,127
5.55,0.6,93
5.55,0.75,83
5.55,0.9,75
5.55,1.05,49
5.55,1.2,48
5.55,1.35,77
5.55,1.5,82
5.7,-1.5,204
5.7,-1.35,204
5.7,-1.2,204
5.7,-1.05,184
5.7,-0.9,188
5.7,-0.75,169
5.7,-0.6,181
5.7,-0.45,185
5.7,-0.3,142
5.7,-0.15,78
5.7,0.0,15
5.7,0.15,35
5.7,0.3,42
5.7,0.45,55
5.7,0.6,55
5.7,0.75,60
5.7,0.9,75
5.7,1.05,90
5.7,1.2,94
5.7,1.35,82
5.7,1.5,85
5.85,-1.5,237
5.85,-1.35,168
5.85,-1.2,192
5.85,-1.05,211
5.85,-0.9,169
5.85,-0.75,221
5.85,-0.6,206
5.85,-0.45,206
5.85,-0.3,198
5.85,-0.15,140
5.85,0.0,88
5.85,0.15,28
5.85,0.3,62
5.85,0.45,72
5.85,0.6,63
5.85,0.75,67
5.85,0.9,65
5.85,1.05,65
5.85,1.2,85
5.85,1.35,106
5.85,1.5,128
6.0,-1.5,255
6.0,-1.35,255
6.0,-1.2,221
6.0,-1.05,224
6.0,-0.9,224
6.0,-0.75,220
6.0,-0.6,195
6.0,-0.45,191
6.0,-0.3,177
6.0,-0.15,104
6.0,0.0,82
6.0,0.15,62
6.0,0.3,55
6.0,0.45,82
6.0,0.6,63
6.0,0.75,83
6.0,0.9,103
6.0,1.05,94
6.0,1.2,103
6.0,1.35,103
6.0,1.5,104
6.15,-1.5,224
6.15,-1.35,224
6.15,-1.2,224
6.15,-1.05,223
6.15,-0.9,188
6.15,-0.75,164
6.15,-0.6,183
6.15,-0.45,179
6.15,-0.3,133
6.15,-0.15,102
6.15,0.0,28
6.15,0.15,122
6.15,0.3,115
6.15,0.45,94
6.15,0.6,115
6.15,0.75,130
6.15,0.9,127
6.15,1.05,123
6.15,1.2,109
6.15,1.35,106
6.15,1.5,105
6.3,-1.5,199
6.3,-1.35,199
6.3,-1.2,199
6.3,-1.05,201
6.3,-0.9,199
6.3,-0.75,157
6.3,-0.6,178
6.3,-0.45,134
6.3,-0.3,141
6.3,-0.15,97
6.3,0.0,34
6.3,0.15,55
6.3,0.3,98
6.3,0.45,101
6.3,0.6,158
6.3,0.75,144
6.3,0.9,144
6.3,1.05,141
6.3,1.2,122
6.3,1.35,119
6.3,1.5,110
6.45,-1.5,214
6.45,-1.35,215
6.45,-1.2,218
6.45,-1.05,184
6.45,-0.9,184
6.45,-0.75,180
6.45,-0.6,153
6.45,-0.45,117
6.45,-0.3,96
6.45,-0.15,89
6.45,0.0,95
6.45,0.15,75
6.45,0.3,97
6.45,0.45,119
6.45,0.6,143
6.45,0.75,139
6.45,0.9,139
6.45,1.05,139
6.45,1.2,128
6.45,1.35,126
6.45,1.5,125
6.6,-1.5,207
6.6,-1.35,180
6.6,-1.2,186
6.6,-1.05,194
6.6,-0.9,206
6.6,-0.75,205
6.6,-0.6,161
6.6,-0.45,103
6.6,-0.3,86
6.6,-0.15,87
6.6,0.0,115
6.6,0.15,61
6.6,0.3,36
6.6,0.45,71
6.6,0.6,154
6.6,0.75,139
6.6,0.9,166
6.6,1.05,142
6.6,1.2,141
6.6,1.35,141
6.6,1.5,141
6.75,-1.5,172
6.75,-1.35,176
6.75,-1.2,183
6.75,-1.05,194
6.75,-0.9,205
6.75,-0.75,216
6.75,-0.6,204
6.75,-0.45,119
6.75,-0.3,51
6.75,-0.15,42
6.75,0.0,56
6.75,0.15,28
6.75,0.3,35
6.75,0.45,77
6.75,0.6,99
6.75,0.75,109
6.75,0.9,124
6.75,1.05,112
6.75,1.2,137
6.75,1.35,139
6.75,1.5,141
6.9,-1.5,159
6.9,-1.35,170
6.9,-1.2,158
6.9,-1.05,171
6.9,-0.9,185
6.9,-0.75,190
6.9,-0.6,182
6.9,-0.45,151
6.9,-0.3,50
6.9,-0.15,33
6.9,0.0,22
6.9,0.15,35
6.9,0.3,49
6.9,0.45,92
6.9,0.6,98
6.9,0.75,89
6.9,0.9,84
6.9,1.05,102
6.9,1.2,110
6.9,1.35,112
6.9,1.5,117
7.05,-1.5,166
7.05,-1.35,170
7.05,-1.2,177
7.05,-1.05,194
7.05,-0.9,203
7.05,-0.75,204
7.05,-0.6,193
7.05,-0.45,144
7.05,-0.3,67
7.05,-0.15,42
7.05,0.0,41
7.05,0.15,21
7.05,0.3,35
7.05,0.45,68
7.05,0.6,97
7.05,0.75,90
7.05,0.9,88
7.05,1.05,80
7.05,1.2,86
7.05,1.35,89
7.05,1.5,91
7.2,-1.5,175
7.2,-1.35,178
7.2,-1.2,182
7.2,-1.05,188
7.2,-0.9,193
7.2,-0.75,161
7.2,-0.6,161
7.2,-0.45,98
7.2,-0.3,39
7.2,-0.15,88
7.2,0.0,64
7.2,0.15,35
7.2,0.3,41
7.2,0.45,49
7.2,0.6,61
7.2,0.75,65
7.2,0.9,68
7.2,1.05,61
7.2,1.2,62
7.2,1.35,52
7.2,1.5,53
7.35,-1.5,145
7.35,-1.35,145
7.35,-1.2,139
7.35,-1.05,140
7.35,-0.9,151
7.35,-0.75,149
7.35,-0.6,100
7.35,-0.45,89
7.35,-0.3,40
7.35,-0.15,1
7.35,0.0,54
7.35,0.15,40
7.35,0.3,1
7.35,0.45,22
7.35,0.6,51
7.35,0.75,52
7.35,0.9,38
7.35,1.05,36
7.35,1.2,49
7.35,1.35,52
7.35,1.5,53
7.5,-1.5,166
7.5,-1.35,166
7.5,-1.2,167
7.5,-1.05,166
7.5,-0.9,159
7.5,-0.75,68
7.5,-0.6,67
7.5,-0.45,72
7.5,-0.3,8
7.5,-0.15,1
7.5,0.0,89
7.5,0.15,60
7.5,0.3,0
7.5,0.45,22
7.5,0.6,22
7.5,0.75,33
7.5,0.9,30
7.5,1.05,43
7.5,1.2,46
7.5,1.35,48
7.5,1.5,50
7.65,-1.5,143
7.65,-1.35,143
7.65,-1.2,125
7.65,-1.05,68
7.65,-0.9,67
7.65,-0.75,67
7.65,-0.6,50
7.65,-0.45,55
7.65,-0.3,55
7.65,-0.15,15
7.65,0.0,48
7.65,0.15,48
7.65,0.3,56
7.65,0.45,67
7.65,0.6,67
7.65,0.75,52
7.65,0.9,28
7.65,1.05,28
7.65,1.2,26
7.65,1.35,26
7.65,1.5,24
7.8,-1.5,43
7.8,-1.35,43
7.8,-1.2,43
7.8,-1.05,43
7.8,-0.9,44
7.8,-0.75,50
7.8,-0.6,44
7.8,-0.45,41
7.8,-0.3,41
7.8,-0.15,54
7.8,0.0,80
7.8,0.15,41
7.8,0.3,85
7.8,0.45,85
7.8,0.6,90
7.8,0.75,76
7.8,0.9,48
7.8,1.05,47
7.8,1.2,27
7.8,1.35,27
7.8,1.5,24
7.95,-1.5,44
7.95,-1.35,44
7.95,-1.2,44
7.95,-1.05,43
7.95,-0.9,43
7.95,-0.75,43
7.95,-0.6,42
7.95,-0.45,59
7.95,-0.3,106
7.95,-0.15,130
7.95,0.0,137
7.95,0.15,58
7.95,0.3,36
7.95,0.45,89
7.95,0.6,87
7.95,0.75,76
7.95,0.9,46
7.95,1.05,28
7.95,1.2,27
7.95,1.35,24
7.95,1.5,24
8.1,-1.5,31
8.1,-1.35,44
8.1,-1.2,44
8.1,-1.05,44
8.1,-0.9,38
8.1,-0.75,59
8.1,-0.6,65
8.1,-0.45,94
8.1,-0.3,100
8.1,-0.15,161
8.1,0.0,159
8.1,0.15,61
8.1,0.3,36
8.1,0.45,42
8.1,0.6,70
8.1,0.75,35
8.1,0.9,32
8.1,1.05,31
8.1,1.2,23
8.1,1.35,23
8.1,1.5,23
8.25,-1.5,31
8.25,-1.35,31
8.25,-1.2,31
8.25,-1.05,32
8.25,-0.9,46
8.25,-0.75,46
8.25,-0.6,47
8.25,-0.45,58
8.25,-0.3,118
8.25,-0.15,79
8.25,0.0,48
8.25,0.15,54
8.25,0.3,42
8.25,0.45,36
8.25,0.6,22
8.25,0.75,35
8.25,0.9,26
8.25,1.05,23
8.25,1.2,23
8.25,1.35,23
8.25,1.5,23
8.4,-1.5,25
8.4,-1.35,25
8.4,-1.2,23
8.4,-1.05,25
8.4,-0.9,26
8.4,-0.75,46
8.4,-0.6,45
8.4,-0.45,52
8.4,-0.3,49
8.4,-0.15,44
8.4,0.0,0
8.4,0.15,28
8.4,0.3,41
8.4,0.45,22
8.4,0.6,22
8.4,0.75,22
8.4,0.9,37
8.4,1.05,37
8.4,1.2,29
8.4,1.35,29
8.4,1.5,23
8.55,-1.5,25
8.55,-1.35,25
8.55,-1.2,26
8.55,-1.05,27
8.55,-0.9,27
8.55,-0.75,26
8.55,-0.6,38
8.55,-0.45,16
8.55,-0.3,15
8.55,-0.15,15
8.55,0.0,9
8.55,0.15,22
8.55,0.3,22
8.55,0.45,22
8.55,0.6,35
8.55,0.75,40
8.55,0.9,30
8.55,1.05,28
8.55,1.2,25
8.55,1.35,25
8.55,1.5,23
8.7,-1.5,25
8.7,-1.35,25
8.7,-1.2,26
8.7,-1.05,34
8.7,-0.9,27
8.7,-0.75,40
8.7,-0.6,40
8.7,-0.45,40
8.7,-0.3,41
8.7,-0.15,79
8.7,0.0,53
8.7,0.15,28
8.7,0.3,48
8.7,0.45,42
8.7,0.6,50
8.7,0.75,48
8.7,0.9,21
8.7,1.05,18
8.7,1.2,15
8.7,1.35,14
8.7,1.5,14
8.85,-1.5,33
8.85,-1.35,51
8.85,-1.2,48
8.85,-1.05,48
8.85,-0.9,48
8.85,-0.75,48
8.85,-0.6,49
8.85,-0.45,75
8.85,-0.3,75
8.85,-0.15,157
8.85,0.0,141
8.85,0.15,80
8.85,0.3,48
8.85,0.45,42
8.85,0.6,54
8.85,0.75,45
8.85,0.9,39
8.85,1.05,35
8.85,1.2,33
8.85,1.35,35
8.85,1.5,17
9.0,-1.5,53
9.0,-1.35,53
9.0,-1.2,53
9.0,-1.05,53
9.0,-0.9,53
9.0,-0.75,60
9.0,-0.6,55
9.0,-0.45,57
9.0,-0.3,89
9.0,-0.15,140
9.0,0.0,139
9.0,0.15,102
9.0,0.3,66
9.0,0.45,67
9.0,0.6,67
9.0,0.75,49
9.0,0.9,39
9.0,1.05,35
9.0,1.2,37
9.0,1.35,33
9.0,1.5,34
9.15,-1.5,85
9.15,-1.35,85
9.15,-1.2,114
9.15,-1.05,84
9.15,-0.9,82
9.15,-0.75,83
9.15,-0.6,78
9.15,-0.45,86
9.15,-0.3,103
9.15,-0.15,108
9.15,0.0,130
9.15,0.15,96
9.15,0.3,61
9.15,0.45,67
9.15,0.6,64
9.15,0.75,48
9.15,0.9,45
9.15,1.05,37
9.15,1.2,35
9.15,1.35,35
9.15,1.5,34
9.3,-1.5,85
9.3,-1.35,104
9.3,-1.2,69
9.3,-1.05,73
9.3,-0.9,73
9.3,-0.75,98
9.3,-0.6,101
9.3,-0.45,116
9.3,-0.3,175
9.3,-0.15,182
9.3,0.0,166
9.3,0.15,150
9.3,0.3,83
9.3,0.45,39
9.3,0.6,44
9.3,0.75,47
9.3,0.9,45
9.3,1.05,37
9.3,1.2,35
9.3,1.35,84
9.3,1.5,87
9.45,-1.5,104
9.45,-1.35,104
9.45,-1.2,104
9.45,-1.05,93
9.45,-0.9,74
9.45,-0.75,101
9.45,-0.6,104
9.45,-0.45,178
9.45,-0.3,210
9.45,-0.15,207
9.45,0.0,201
9.45,0.15,201
9.45,0.3,128
9.45,0.45,108
9.45,0.6,78
9.45,0.75,74
9.45,0.9,126
9.45,1.05,135
9.45,1.2,101
9.45,1.35,92
9.45,1.5,93
9.6,-1.5,147
9.6,-1.35,95
9.6,-1.2,95
9.6,-1.05,94
9.6,-0.9,94
9.6,-0.75,120
9.6,-0.6,131
9.6,-0.45,127
9.6,-0.3,101
9.6,-0.15,76
9.6,0.0,169
9.6,0.15,139
9.6,0.3,131
9.6,0.45,124
9.6,0.6,115
9.6,0.75,153
9.6,0.9,139
9.6,1.05,108
9.6,1.2,135
9.6,1.35,104
9.6,1.5,100
9.75,-1.5,152
9.75,-1.35,188
9.75,-1.2,187
9.75,-1.05,127
9.75,-0.9,123
9.75,-0.75,120
9.75,-0.6,120
9.75,-0.45,98
9.75,-0.3,94
9.75,-0.15,76
9.75,0.0,110
9.75,0.15,86
9.75,0.3,122
9.75,0.45,134
9.75,0.6,142
9.75,0.75,141
9.75,0.9,136
9.75,1.05,128
9.75,1.2,118
9.75,1.35,81
9.75,1.5,78
9.9,-1.5,156
9.9,-1.35,183
9.9,-1.2,193
9.9,-1.05,193
9.9,-0.9,163
9.9,-0.75,184
9.9,-0.6,173
9.9,-0.45,139
9.9,-0.3,109
9.9,-0.15,110
9.9,0.0,76
9.9,0.15,78
9.9,0.3,127
9.9,0.45,104
9.9,0.6,142
9.9,0.75,142
9.9,0.9,141
9.9,1.05,141
9.9,1.2,99
9.9,1.35,92
9.9,1.5,120
10.05,-1.5,172
10.05,-1.35,180
10.05,-1.2,193
10.05,-1.05,193
10.05,-0.9,193
10.05,-0.75,193
10.05,-0.6,174
10.05,-0.45,197
10.05,-0.3,164
10.05,-0.15,160
10.05,0.0,84
10.05,0.15,44
10.05,0.3,93
10.05,0.45,96
10.05,0.6,106
10.05,0.75,114
10.05,0.9,116
10.05,1.05,132
10.05,1.2,130
10.05,1.35,125
10.05,1.5,125
10.2,-1.5,173
10.2,-1.35,173
10.2,-1.2,174
10.2,-1.05,177
10.2,-0.9,186
10.2,-0.75,190
10.2,-0.6,205
10.2,-0.45,200
10.2,-0.3,176
10.2,-0.15,117
10.2,0.0,106
10.2,0.15,36
10.2,0.3,30
10.2,0.45,90
10.2,0.6,91
10.2,0.75,97
10.2,0.9,126
10.2,1.05,123
10.2,1.2,124
10.2,1.35,125
10.2,1.5,154
10.35,-1.5,142
10.35,-1.35,140
10.35,-1.2,140
10.35,-1.05,169
10.35,-0.9,183
10.35,-0.75,171
10.35,-0.6,202
10.35,-0.45,199
10.35,-0.3,166
10.35,-0.15,131
10.35,0.0,107
10.35,0.15,68
10.35,0.3,65
10.35,0.45,104
10.35,0.6,104
10.35,0.75,113
10.35,0.9,119
10.35,1.05,141
10.35,1.2,146
10.35,1.35,150
10.35,1.5,154
10.5,-1.5,140
10.5,-1.35,140
10.5,-1.2,178
10.5,-1.05,181
10.5,-0.9,184
10.5,-0.75,187
10.5,-0.6,191
10.5,-0.45,174
10.5,-0.3,158
10.5,-0.15,105
10.5,0.0,91
10.5,0.15,108
10.5,0.3,95
10.5,0.45,97
10.5,0.6,118
10.5,0.75,119
10.5,0.9,127
10.5,1.05,130
10.5,1.2,130
10.5,1.35,152
10.5,1.5,154
10.65,-1.5,140
10.65,-1.35,142
10.65,-1.2,144
10.65,-1.05,147
10.65,-0.9,172
10.65,-0.75,173
10.65,-0.6,179
10.65,-0.45,173
10.65,-0.3,164
10.65,-0.15,133
10.65,0.0,131
10.65,0.15,107
10.65,0.3,95
10.65,0.45,115
10.65,0.6,118
10.65,0.75,121
10.65,0.9,120
10.65,1.05,127
10.65,1.2,122
10.65,1.35,132
10.65,1.5,130
10.8,-1.5,134
10.8,-1.35,133
10.8,-1.2,134
10.8,-1.05,143
10.8,-0.9,144
10.8,-0.75,164
10.8,-0.6,137
10.8,-0.45,138
10.8,-0.3,155
10.8,-0.15,172
10.8,0.0,172
10.8,0.15,136
10.8,0.3,95
10.8,0.45,125
10.8,0.6,116
10.8,0.75,119
10.8,0.9,119
10.8,1.05,94
10.8,1.2,88
10.8,1.35,111
10.8,1.5,106
10.95,-1.5,173
10.95,-1.35,123
10.95,-1.2,122
10.95,-1.05,122
10.95,-0.9,142
10.95,-0.75,124
10.95,-0.6,120
10.95,-0.45,138
10.95,-0.3,174
10.95,-0.15,178
10.95,0.0,148
10.95,0.15,136
10.95,0.3,126
10.95,0.45,129
10.95,0.6,118
10.95,0.75,116
10.95,0.9,120
10.95,1.05,88
10.95,1.2,77
10.95,1.35,66
10.95,1.5,129
11.1,-1.5,129
11.1,-1.35,127
11.1,-1.2,124
11.1,-1.05,118
11.1,-0.9,111
11.1,-0.75,112
11.1,-0.6,118
11.1,-0.45,148
11.1,-0.3,176
11.1,-0.15,221
11.1,0.0,160
11.1,0.15,130
11.1,0.3,129
11.1,0.45,116
11.1,0.6,116
11.1,0.75,134
11.1,0.9,141
11.1,1.05,157
11.1,1.2,144
11.1,1.35,142
11.1,1.5,142
11.25,-1.5,108
11.25,-1.35,106
11.25,-1.2,103
11.25,-1.05,86
11.25,-0.9,85
11.25,-0.75,86
11.25,-0.6,91
11.25,-0.45,123
11.25,-0.3,161
11.25,-0.15,212
11.25,0.0,175
11.25,0.15,130
11.25,0.3,147
11.25,0.45,116
11.25,0.6,119
11.25,0.75,133
11.25,0.9,144
11.25,1.05,143
11.25,1.2,142
11.25,1.35,142
11.25,1.5,142
11.4,-1.5,79
11.4,-1.35,78
11.4,-1.2,98
11.4,-1.05,69
11.4,-0.9,68
11.4,-0.75,68
11.4,-0.6,61
11.4,-0.45,80
11.4,-0.3,109
11.4,-0.15,159
11.4,0.0,126
11.4,0.15,136
11.4,0.3,149
11.4,0.45,119
11.4,0.6,128
11.4,0.75,131
11.4,0.9,140
11.4,1.05,131
11.4,1.2,131
11.4,1.35,131
11.4,1.5,137
11.55,-1.5,56
11.55,-1.35,56
11.55,-1.2,56
11.55,-1.05,68
11.55,-0.9,63
11.55,-0.75,62
11.55,-0.6,59
11.55,-0.45,61
11.55,-0.3,92
11.55,-0.15,120
11.55,0.0,99
11.55,0.15,181
11.55,0.3,172
11.55,0.45,134
11.55,0.6,153
11.55,0.75,154
11.55,0.9,131
11.55,1.05,137
11.55,1.2,131
11.55,1.35,131
11.55,1.5,131
11.7,-1.5,56
11.7,-1.35,51
11.7,-1.2,51
11.7,-1.05,51
11.7,-0.9,52
11.7,-0.75,50
11.7,-0.6,36
11.7,-0.45,75
11.7,-0.3,46
11.7,-0.15,93
11.7,0.0,118
11.7,0.15,151
11.7,0.3,178
11.7,0.45,159
11.7,0.6,164
11.7,0.75,143
11.7,0.9,158
11.7,1.05,144
11.7,1.2,138
11.7,1.35,131
11.7,1.5,131
11.85,-1.5,52
11.85,-1.35,33
11.85,-1.2,44
11.85,-1.05,45
11.85,-0.9,47
11.85,-0.75,47
11.85,-0.6,39
11.85,-0.45,42
11.85,-0.3,42
11.85,-0.15,64
11.85,0.0,107
11.85,0.15,120
11.85,0.3,141
11.85,0.45,155
11.85,0.6,156
11.85,0.75,164
11.85,0.9,162
11.85,1.05,144
11.85,1.2,138
11.85,1.35,138
11.85,1.5,131
12.0,-1.5,29
12.0,-1.35,36
12.0,-1.2,39
12.0,-1.05,39
12.0,-0.9,44
12.0,-0.75,46
12.0,-0.6,40
12.0,-0.45,51
12.0,-0.3,56
12.0,-0.15,72
12.0,0.0,95
12.0,0.15,75
12.0,0.3,146
12.0,0.45,177
12.0,0.6,164
12.0,0.75,161
12.0,0.9,147
12.0,1.05,141
12.0,1.2,137
12.0,1.35,131
12.0,1.5,131
12.15,-1.5,29
12.15,-1.35,30
12.15,-1.2,42
12.15,-1.05,45
12.15,-0.9,55
12.15,-0.75,55
12.15,-0.6,64
12.15,-0.45,68
12.15,-0.3,61
12.15,-0.15,89
12.15,0.0,90
12.15,0.15,134
12.15,0.3,122
12.15,0.45,172
12.15,0.6,177
12.15,0.75,158
12.15,0.9,138
12.15,1.05,134
12.15,1.2,129
12.15,1.35,129
12.15,1.5,130
12.3,-1.5,20
12.3,-1.35,20
12.3,-1.2,34
12.3,-1.05,33
12.3,-0.9,42
12.3,-0.75,41
12.3,-0.6,42
12.3,-0.45,41
12.3,-0.3,83
12.3,-0.15,83
12.3,0.0,66
12.3,0.15,145
12.3,0.3,121
12.3,0.45,121
12.3,0.6,102
12.3,0.75,127
12.3,0.9,124
12.3,1.05,102
12.3,1.2,100
12.3,1.35,123
12.3,1.5,125
12.45,-1.5,30
12.45,-1.35,30
12.45,-1.2,35
12.45,-1.05,20
12.45,-0.9,27
12.45,-0.75,27
12.45,-0.6,27
12.45,-0.45,33
12.45,-0.3,43
12.45,-0.15,66
12.45,0.0,100
12.45,0.15,118
12.45,0.3,115
12.45,0.45,102
12.45,0.6,94
12.45,0.75,89
12.45,0.9,82
12.45,1.05,105
12.45,1.2,94
12.45,1.35,96
12.45,1.5,98
12.6,-1.5,39
12.6,-1.35,45
12.6,-1.2,44
12.6,-1.05,39
12.6,-0.9,37
12.6,-0.75,45
12.6,-0.6,45
12.6,-0.45,46
12.6,-0.3,51
12.6,-0.15,56
12.6,0.0,59
12.6,0.15,104
12.6,0.3,102
12.6,0.45,90
12.6,0.6,78
12.6,0.75,72
12.6,0.9,63
12.6,1.05,59
12.6,1.2,63
12.6,1.35,55
12.6,1.5,57
12.75,-1.5,30
12.75,-1.35,37
12.75,-1.2,38
12.75,-1.05,36
12.75,-0.9,28
12.75,-0.75,44
12.75,-0.6,42
12.75,-0.45,42
12.75,-0.3,56
12.75,-0.15,59
12.75,0.0,54
12.75,0.15,87
12.75,0.3,83
12.75,0.45,74
12.75,0.6,69
12.75,0.75,57
12.75,0.9,51
12.75,1.05,54
12.75,1.2,54
12.75,1.35,54
12.75,1.5,54
12.9,-1.5,22
12.9,-1.35,26
12.9,-1.2,27
12.9,-1.05,28
12.9,-0.9,30
12.9,-0.75,31
12.9,-0.6,47
12.9,-0.45,48
12.9,-0.3,59
12.9,-0.15,47
12.9,0.0,54
12.9,0.15,47
12.9,0.3,87
12.9,0.45,86
12.9,0.6,62
12.9,0.75,58
12.9,0.9,44
12.9,1.05,48
12.9,1.2,69
12.9,1.35,53
12.9,1.5,54
13.05,-1.5,26
13.05,-1.35,26
13.05,-1.2,28
13.05,-1.05,30
13.05,-0.9,32
13.05,-0.75,35
13.05,-0.6,48
13.05,-0.45,47
13.05,-0.3,47
13.05,-0.15,47
13.05,0.0,54
13.05,0.15,47
13.05,0.3,40
13.05,0.45,86
13.05,0.6,86
13.05,0.75,61
13.05,0.9,58
13.05,1.05,44
13.05,1.2,43
13.05,1.35,71
13.05,1.5,72
