-3.0,-1.5,0
-3.0,-1.35,4
-3.0,-1.2,22
-3.0,-1.05,44
-3.0,-0.9,64
-3.0,-0.75,79
-3.0,-0.6,71
-3.0,-0.45,93
-3.0,-0.3,92
-3.0,-0.15,88
-3.0,0.0,81
-3.0,0.15,71
-3.0,0.3,62
-3.0,0.45,55
-3.0,0.6,53
-3.0,0.75,51
-3.0,0.9,47
-3.0,1.05,36
-3.0,1.2,19
-3.0,1.35,3
-3.0,1.5,0
-2.85,-1.5,4
-2.85,-1.35,11
-2.85,-1.2,30
-2.85,-1.05,52
-2.85,-0.9,71
-2.85,-0.75,85
-2.85,-0.6,94
-2.85,-0.45,97
-2.85,-0.3,96
-2.85,-0.15,89
-2.85,0.0,79
-2.85,0.15,65
-2.85,0.3,51
-2.85,0.45,41
-2.85,0.6,40
-2.85,0.75,43
-2.85,0.9,45
-2.85,1.05,40
-2.85,1.2,25
-2.85,1.35,10
-2.85,1.5,4
-2.7,-1.5,22
-2.7,-1.35,29
-2.7,-1.2,47
-2.7,-1.05,65
-2.7,-0.9,81
-2.7,-0.75,93
-2.7,-0.6,100
-2.7,-0.45,103
-2.7,-0.3,101
-2.7,-0.15,92
-2.7,0.0,78
-2.7,0.15,58
-2.7,0.3,36
-2.7,0.45,22
-2.7,0.6,21
-2.7,0.75,33
-2.7,0.9,44
-2.7,1.05,46
-2.7,1.2,39
-2.7,1.35,28
-2.7,1.5,22
-2.55,-1.5,46
-2.55,-1.35,52
-2.55,-1.2,67
-2.55,-1.05,81
-2.55,-0.9,94
-2.55,-0.75,103
-2.55,-0.6,108
-2.55,-0.45,110
-2.55,-0.3,107
-2.55,-0.15,98
-2.55,0.0,82
-2.55,0.15,57
-2.55,0.3,27
-2.55,0.45,3
-2.55,0.6,4
-2.55,0.75,24
-2.55,0.9,45
-2.55,1.05,55
-2.55,1.2,54
-2.55,1.35,48
-2.55,1.5,44
-2.4,-1.5,68
-2.4,-1.35,74
-2.4,-1.2,82
-2.4,-1.05,96
-2.4,-0.9,105
-2.4,-0.75,112
-2.4,-0.6,116
-2.4,-0.45,117
-2.4,-0.3,114
-2.4,-0.15,107
-2.4,0.0,91
-2.4,0.15,67
-2.4,0.3,33
-2.4,0.45,5
-2.4,0.6,6
-2.4,0.75,29
-2.4,0.9,53
-2.4,1.05,66
-2.4,1.2,70
-2.4,1.35,68
-2.4,1.5,66
-2.25,-1.5,85
-2.25,-1.35,89
-2.25,-1.2,96
-2.25,-1.05,108
-2.25,-0.9,115
-2.25,-0.75,121
-2.25,-0.6,125
-2.25,-0.45,126
-2.25,-0.3,123
-2.25,-0.15,120
-2.25,0.0,107
-2.25,0.15,87
-2.25,0.3,61
-2.25,0.45,39
-2.25,0.6,38
-2.25,0.75,53
-2.25,0.9,71
-2.25,1.05,82
-2.25,1.2,86
-2.25,1.35,86
-2.25,1.5,85
-2.1,-1.5,98
-2.1,-1.35,102
-2.1,-1.2,105
-2.1,-1.05,111
-2.1,-0.9,123
-2.1,-0.75,129
-2.1,-0.6,133
-2.1,-0.45,134
-2.1,-0.3,134
-2.1,-0.15,129
-2.1,0.0,121
-2.1,0.15,110
-2.1,0.3,96
-2.1,0.45,84
-2.1,0.6,80
-2.1,0.75,87
-2.1,0.9,95
-2.1,1.05,101
-2.1,1.2,103
-2.1,1.35,103
-2.1,1.5,102
-1.95,-1.5,102
-1.95,-1.35,105
-1.95,-1.2,111
-1.95,-1.05,118
-1.95,-0.9,126
-1.95,-0.75,136
-1.95,-0.6,144
-1.95,-0.45,144
-1.95,-0.3,141
-1.95,-0.15,136
-1.95,0.0,131
-1.95,0.15,127
-1.95,0.3,123
-1.95,0.45,119
-1.95,0.6,116
-1.95,0.75,118
-1.95,0.9,120
-1.95,1.05,120
-1.95,1.2,120
-1.95,1.35,118
-1.95,1.5,116
-1.8,-1.5,102
-1.8,-1.35,104
-1.8,-1.2,108
-1.8,-1.05,116
-1.8,-0.9,129
-1.8,-0.75,154
-1.8,-0.6,152
-1.8,-0.45,151
-1.8,-0.3,146
-1.8,-0.15,140
-1.8,0.0,134
-1.8,0.15,132
-1.8,0.3,136
-1.8,0.45,142
-1.8,0.6,144
-1.8,0.75,143
-1.8,0.9,141
-1.8,1.05,138
-1.8,1.2,135
-1.8,1.35,132
-1.8,1.5,129
-1.65,-1.5,98
-1.65,-1.35,96
-1.65,-1.2,97
-1.65,-1.05,107
-1.65,-0.9,138
-1.65,-0.75,162
-1.65,-0.6,172
-1.65,-0.45,167
-1.65,-0.3,150
-1.65,-0.15,139
-1.65,0.0,128
-1.65,0.15,123
-1.65,0.3,138
-1.65,0.45,155
-1.65,0.6,164
-1.65,0.75,164
-1.65,0.9,160
-1.65,1.05,154
-1.65,1.2,149
-1.65,1.35,144
-1.65,1.5,139
-1.5,-1.5,92
-1.5,-1.35,83
-1.5,-1.2,81
-1.5,-1.05,85
-1.5,-0.9,127
-1.5,-0.75,182
-1.5,-0.6,204
-1.5,-0.45,180
-1.5,-0.3,156
-1.5,-0.15,142
-1.5,0.0,110
-1.5,0.15,85
-1.5,0.3,131
-1.5,0.45,175
-1.5,0.6,196
-1.5,0.75,194
-1.5,0.9,176
-1.5,1.05,167
-1.5,1.2,160
-1.5,1.35,140
-1.5,1.5,139
-1.35,-1.5,92
-1.35,-1.35,77
-1.35,-1.2,45
-1.35,-1.05,24
-1.35,-0.9,99
-1.35,-0.75,227
-1.35,-0.6,255
-1.35,-0.45,190
-1.35,-0.3,143
-1.35,-0.15,141
-1.35,0.0,123
-1.35,0.15,78
-1.35,0.3,167
-1.35,0.45,234
-1.35,0.6,230
-1.35,0.75,214
-1.35,0.9,201
-1.35,1.05,179
-1.35,1.2,155
-1.35,1.35,146
-1.35,1.5,140
-1.2,-1.5,86
-1.2,-1.35,75
-1.2,-1.2,38
-1.2,-1.05,5
-1.2,-0.9,86
-1.2,-0.75,221
-1.2,-0.6,255
-1.2,-0.45,113
-1.2,-0.3,102
-1.2,-0.15,138
-1.2,0.0,168
-1.2,0.15,194
-1.2,0.3,255
-1.2,0.45,255
-1.2,0.6,255
-1.2,0.75,229
-1.2,0.9,198
-1.2,1.05,184
-1.2,1.2,175
-1.2,1.35,151
-1.2,1.5,144
-1.05,-1.5,91
-1.05,-1.35,79
-1.05,-1.2,63
-1.05,-1.05,66
-1.05,-0.9,88
-1.05,-0.75,110
-1.05,-0.6,152
-1.05,-0.45,117
-1.05,-0.3,129
-1.05,-0.15,108
-1.05,0.0,236
-1.05,0.15,255
-1.05,0.3,255
-1.05,0.45,255
-1.05,0.6,255
-1.05,0.75,220
-1.05,0.9,199
-1.05,1.05,187
-1.05,1.2,161
-1.05,1.35,153
-1.05,1.5,147
-0.9,-1.5,99
-0.9,-1.35,93
-0.9,-1.2,87
-0.9,-1.05,82
-0.9,-0.9,62
-0.9,-0.75,0
-0.9,-0.6,90
-0.9,-0.45,140
-0.9,-0.3,160
-0.9,-0.15,222
-0.9,0.0,198
-0.9,0.15,216
-0.9,0.3,221
-0.9,0.45,231
-0.9,0.6,220
-0.9,0.75,203
-0.9,0.9,190
-0.9,1.05,180
-0.9,1.2,173
-0.9,1.35,169
-0.9,1.5,148
-0.75,-1.5,106
-0.75,-1.35,104
-0.75,-1.2,101
-0.75,-1.05,97
-0.75,-0.9,80
-0.75,-0.75,64
-0.75,-0.6,122
-0.75,-0.45,156
-0.75,-0.3,163
-0.75,-0.15,138
-0.75,0.0,96
-0.75,0.15,158
-0.75,0.3,177
-0.75,0.45,185
-0.75,0.6,185
-0.75,0.75,180
-0.75,0.9,175
-0.75,1.05,170
-0.75,1.2,166
-0.75,1.35,146
-0.75,1.5,143
-0.6,-1.5,114
-0.6,-1.35,114
-0.6,-1.2,113
-0.6,-1.05,116
-0.6,-0.9,125
-0.6,-0.75,156
-0.6,-0.6,195
-0.6,-0.45,185
-0.6,-0.3,176
-0.6,-0.15,138
-0.6,0.0,117
-0.6,0.15,139
-0.6,0.3,147
-0.6,0.45,152
-0.6,0.6,156
-0.6,0.75,159
-0.6,0.9,159
-0.6,1.05,142
-0.6,1.2,140
-0.6,1.35,138
-0.6,1.5,137
-0.45,-1.5,101
-0.45,-1.35,117
-0.45,-1.2,121
-0.45,-1.05,128
-0.45,-0.9,146
-0.45,-0.75,190
-0.45,-0.6,234
-0.45,-0.45,194
-0.45,-0.3,255
-0.45,-0.15,220
-0.45,0.0,150
-0.45,0.15,121
-0.45,0.3,108
-0.45,0.45,120
-0.45,0.6,133
-0.45,0.75,139
-0.45,0.9,144
-0.45,1.05,133
-0.45,1.2,134
-0.45,1.35,134
-0.45,1.5,134
-0.3,-1.5,97
-0.3,-1.35,102
-0.3,-1.2,105
-0.3,-1.05,110
-0.3,-0.9,111
-0.3,-0.75,133
-0.3,-0.6,137
-0.3,-0.45,119
-0.3,-0.3,255
-0.3,-0.15,226
-0.3,0.0,129
-0.3,0.15,85
-0.3,0.3,64
-0.3,0.45,96
-0.3,0.6,119
-0.3,0.75,131
-0.3,0.9,139
-0.3,1.05,138
-0.3,1.2,120
-0.3,1.35,104
-0.3,1.5,105
-0.15,-1.5,92
-0.15,-1.35,85
-0.15,-1.2,85
-0.15,-1.05,88
-0.15,-0.9,85
-0.15,-0.75,76
-0.15,-0.6,75
-0.15,-0.45,71
-0.15,-0.3,126
-0.15,-0.15,122
-0.15,0.0,78
-0.15,0.15,69
-0.15,0.3,64
-0.15,0.45,68
-0.15,0.6,71
-0.15,0.75,90
-0.15,0.9,95
-0.15,1.05,78
-0.15,1.2,80
-0.15,1.35,89
-0.15,1.5,91
0.0,-1.5,88
0.0,-1.35,92
0.0,-1.2,90
0.0,-1.05,84
0.0,-0.9,70
0.0,-0.75,36
0.0,-0.6,6
0.0,-0.45,66
0.0,-0.3,78
0.0,-0.15,80
0.0,0.0,60
0.0,0.15,63
0.0,0.3,66
0.0,0.45,68
0.0,0.6,68
0.0,0.75,59
0.0,0.9,71
0.0,1.05,72
0.0,1.2,87
0.0,1.35,90
0.0,1.5,91
0.15,-1.5,75
0.15,-1.35,92
0.15,-1.2,90
0.15,-1.05,82
0.15,-0.9,69
0.15,-0.75,48
0.15,-0.6,40
0.15,-0.45,53
0.15,-0.3,65
0.15,-0.15,89
0.15,0.0,60
0.15,0.15,58
0.15,0.3,58
0.15,0.45,58
0.15,0.6,59
0.15,0.75,70
0.15,0.9,72
0.15,1.05,73
0.15,1.2,72
0.15,1.35,72
0.15,1.5,72
0.3,-1.5,74
0.3,-1.35,73
0.3,-1.2,71
0.3,-1.05,67
0.3,-0.9,75
0.3,-0.75,58
0.3,-0.6,54
0.3,-0.45,55
0.3,-0.3,46
0.3,-0.15,48
0.3,0.0,54
0.3,0.15,59
0.3,0.3,60
0.3,0.45,61
0.3,0.6,70
0.3,0.75,72
0.3,0.9,71
0.3,1.05,72
0.3,1.2,72
0.3,1.35,73
0.3,1.5,73
0.45,-1.5,73
0.45,-1.35,73
0.45,-1.2,72
0.45,-1.05,71
0.45,-0.9,62
0.45,-0.75,65
0.45,-0.6,59
0.45,-0.45,59
0.45,-0.3,57
0.45,-0.15,46
0.45,0.0,15
0.45,0.15,84
0.45,0.3,81
0.45,0.45,68
0.45,0.6,71
0.45,0.75,71
0.45,0.9,73
0.45,1.05,74
0.45,1.2,74
0.45,1.35,74
0.45,1.5,74
0.6,-1.5,63
0.6,-1.35,64
0.6,-1.2,68
0.6,-1.05,71
0.6,-0.9,76
0.6,-0.75,82
0.6,-0.6,89
0.6,-0.45,91
0.6,-0.3,70
0.6,-0.15,59
0.6,0.0,55
0.6,0.15,84
0.6,0.3,77
0.6,0.45,58
0.6,0.6,73
0.6,0.75,77
0.6,0.9,79
0.6,1.05,80
0.6,1.2,80
0.6,1.35,85
0.6,1.5,80
0.75,-1.5,60
0.75,-1.35,61
0.75,-1.2,63
0.75,-1.05,67
0.75,-0.9,75
0.75,-0.75,97
0.75,-0.6,146
0.75,-0.45,205
0.75,-0.3,85
0.75,-0.15,88
0.75,0.0,84
0.75,0.15,87
0.75,0.3,70
0.75,0.45,79
0.75,0.6,86
0.75,0.75,88
0.75,0.9,89
0.75,1.05,85
0.75,1.2,85
0.75,1.35,84
0.75,1.5,80
0.9,-1.5,59
0.9,-1.35,59
0.9,-1.2,60
0.9,-1.05,68
0.9,-0.9,73
0.9,-0.75,92
0.9,-0.6,120
0.9,-0.45,122
0.9,-0.3,93
0.9,-0.15,98
0.9,0.0,94
0.9,0.15,104
0.9,0.3,72
0.9,0.45,118
0.9,0.6,107
0.9,0.75,99
0.9,0.9,85
0.9,1.05,82
0.9,1.2,81
0.9,1.35,76
0.9,1.5,71
1.05,-1.5,59
1.05,-1.35,59
1.05,-1.2,58
1.05,-1.05,59
1.05,-0.9,53
1.05,-0.75,55
1.05,-0.6,83
1.05,-0.45,92
1.05,-0.3,82
1.05,-0.15,30
1.05,0.0,235
1.05,0.15,99
1.05,0.3,168
1.05,0.45,130
1.05,0.6,103
1.05,0.75,94
1.05,0.9,76
1.05,1.05,73
1.05,1.2,71
1.05,1.35,70
1.05,1.5,65
1.2,-1.5,59
1.2,-1.35,59
1.2,-1.2,49
1.2,-1.05,42
1.2,-0.9,28
1.2,-0.75,1
1.2,-0.6,52
1.2,-0.45,87
1.2,-0.3,71
1.2,-0.15,107
1.2,0.0,79
1.2,0.15,85
1.2,0.3,60
1.2,0.45,90
1.2,0.6,90
1.2,0.75,75
1.2,0.9,71
1.2,1.05,69
1.2,1.2,60
1.2,1.35,55
1.2,1.5,54
1.35,-1.5,59
1.35,-1.35,59
1.35,-1.2,53
1.35,-1.05,39
1.35,-0.9,27
1.35,-0.75,18
1.35,-0.6,41
1.35,-0.45,59
1.35,-0.3,71
1.35,-0.15,76
1.35,0.0,78
1.35,0.15,90
1.35,0.3,90
1.35,0.45,60
1.35,0.6,62
1.35,0.75,63
1.35,0.9,57
1.35,1.05,52
1.35,1.2,51
1.35,1.35,51
1.35,1.5,50
1.5,-1.5,57
1.5,-1.35,55
1.5,-1.2,52
1.5,-1.05,57
1.5,-0.9,42
1.5,-0.75,35
1.5,-0.6,35
1.5,-0.45,6
1.5,-0.3,24
1.5,-0.15,42
1.5,0.0,47
1.5,0.15,46
1.5,0.3,2
1.5,0.45,28
1.5,0.6,39
1.5,0.75,39
1.5,0.9,40
1.5,1.05,45
1.5,1.2,45
1.5,1.35,46
1.5,1.5,47
1.65,-1.5,60
1.65,-1.35,58
1.65,-1.2,52
1.65,-1.05,58
1.65,-0.9,54
1.65,-0.75,47
1.65,-0.6,34
1.65,-0.45,29
1.65,-0.3,36
1.65,-0.15,7
1.65,0.0,45
1.65,0.15,47
1.65,0.3,10
1.65,0.45,14
1.65,0.6,23
1.65,0.75,30
1.65,0.9,34
1.65,1.05,37
1.65,1.2,37
1.65,1.35,38
1.65,1.5,43
1.8,-1.5,82
1.8,-1.35,72
1.8,-1.2,72
1.8,-1.05,72
1.8,-0.9,59
1.8,-0.75,51
1.8,-0.6,37
1.8,-0.45,8
1.8,-0.3,49
1.8,-0.15,46
1.8,0.0,46
1.8,0.15,33
1.8,0.3,17
1.8,0.45,0
1.8,0.6,6
1.8,0.75,14
1.8,0.9,24
1.8,1.05,29
1.8,1.2,32
1.8,1.35,35
1.8,1.5,37
1.95,-1.5,75
1.95,-1.35,87
1.95,-1.2,90
1.95,-1.05,94
1.95,-0.9,96
1.95,-0.75,74
1.95,-0.6,46
1.95,-0.45,30
1.95,-0.3,125
1.95,-0.15,63
1.95,0.0,50
1.95,0.15,35
1.95,0.3,15
1.95,0.45,4
1.95,0.6,6
1.95,0.75,10
1.95,0.9,14
1.95,1.05,18
1.95,1.2,21
1.95,1.35,23
1.95,1.5,34
2.1,-1.5,77
2.1,-1.35,86
2.1,-1.2,90
2.1,-1.05,109
2.1,-0.9,128
2.1,-0.75,131
2.1,-0.6,82
2.1,-0.45,50
2.1,-0.3,62
2.1,-0.15,41
2.1,0.0,24
2.1,0.15,49
2.1,0.3,18
2.1,0.45,4
2.1,0.6,4
2.1,0.75,8
2.1,0.9,23
2.1,1.05,31
2.1,1.2,36
2.1,1.35,43
2.1,1.5,46
2.25,-1.5,82
2.25,-1.35,83
2.25,-1.2,86
2.25,-1.05,95
2.25,-0.9,142
2.25,-0.75,227
2.25,-0.6,130
2.25,-0.45,101
2.25,-0.3,59
2.25,-0.15,45
2.25,0.0,50
2.25,0.15,50
2.25,0.3,36
2.25,0.45,25
2.25,0.6,11
2.25,0.75,19
2.25,0.9,28
2.25,1.05,40
2.25,1.2,44
2.25,1.35,47
2.25,1.5,49
2.4,-1.5,82
2.4,-1.35,80
2.4,-1.2,77
2.4,-1.05,71
2.4,-0.9,41
2.4,-0.75,49
2.4,-0.6,184
2.4,-0.45,203
2.4,-0.3,95
2.4,-0.15,104
2.4,0.0,67
2.4,0.15,76
2.4,0.3,82
2.4,0.45,59
2.4,0.6,53
2.4,0.75,48
2.4,0.9,52
2.4,1.05,55
2.4,1.2,58
2.4,1.35,60
2.4,1.5,57
2.55,-1.5,90
2.55,-1.35,86
2.55,-1.2,79
2.55,-1.05,63
2.55,-0.9,30
2.55,-0.75,54
2.55,-0.6,154
2.55,-0.45,135
2.55,-0.3,109
2.55,-0.15,127
2.55,0.0,121
2.55,0.15,141
2.55,0.3,153
2.55,0.45,115
2.55,0.6,95
2.55,0.75,71
2.55,0.9,66
2.55,1.05,64
2.55,1.2,64
2.55,1.35,60
2.55,1.5,60
2.7,-1.5,90
2.7,-1.35,85
2.7,-1.2,79
2.7,-1.05,64
2.7,-0.9,58
2.7,-0.75,50
2.7,-0.6,81
2.7,-0.45,134
2.7,-0.3,85
2.7,-0.15,127
2.7,0.0,121
2.7,0.15,173
2.7,0.3,172
2.7,0.45,132
2.7,0.6,108
2.7,0.75,90
2.7,0.9,83
2.7,1.05,66
2.7,1.2,64
2.7,1.35,62
2.7,1.5,60
2.85,-1.5,98
2.85,-1.35,74
2.85,-1.2,70
2.85,-1.05,58
2.85,-0.9,56
2.85,-0.75,50
2.85,-0.6,55
2.85,-0.45,64
2.85,-0.3,69
2.85,-0.15,85
2.85,0.0,217
2.85,0.15,121
2.85,0.3,173
2.85,0.45,120
2.85,0.6,98
2.85,0.75,85
2.85,0.9,70
2.85,1.05,68
2.85,1.2,63
2.85,1.35,62
2.85,1.5,62
3.0,-1.5,93
3.0,-1.35,80
3.0,-1.2,69
3.0,-1.05,67
3.0,-0.9,62
3.0,-0.75,63
3.0,-0.6,63
3.0,-0.45,40
3.0,-0.3,37
3.0,-0.15,48
3.0,0.0,48
3.0,0.15,61
3.0,0.3,108
3.0,0.45,89
3.0,0.6,53
3.0,0.75,50
3.0,0.9,58
3.0,1.05,58
3.0,1.2,59
3.0,1.35,59
3.0,1.5,59
3.15,-1.5,76
3.15,-1.35,76
3.15,-1.2,79
3.15,-1.05,98
3.15,-0.9,110
3.15,-0.75,124
3.15,-0.6,175
3.15,-0.45,73
3.15,-0.3,57
3.15,-0.15,22
3.15,0.0,63
3.15,0.15,84
3.15,0.3,80
3.15,0.45,66
3.15,0.6,0
3.15,0.75,28
3.15,0.9,44
3.15,1.05,37
3.15,1.2,38
3.15,1.35,35
3.15,1.5,32
3.3,-1.5,122
3.3,-1.35,124
3.3,-1.2,127
3.3,-1.05,116
3.3,-0.9,130
3.3,-0.75,156
3.3,-0.6,123
3.3,-0.45,72
3.3,-0.3,143
3.3,-0.15,87
3.3,0.0,138
3.3,0.15,166
3.3,0.3,108
3.3,0.45,64
3.3,0.6,25
3.3,0.75,31
3.3,0.9,37
3.3,1.05,37
3.3,1.2,38
3.3,1.35,38
3.3,1.5,32
3.45,-1.5,149
3.45,-1.35,151
3.45,-1.2,140
3.45,-1.05,167
3.45,-0.9,187
3.45,-0.75,243
3.45,-0.6,185
3.45,-0.45,114
3.45,-0.3,161
3.45,-0.15,202
3.45,0.0,235
3.45,0.15,145
3.45,0.3,58
3.45,0.45,34
3.45,0.6,29
3.45,0.75,17
3.45,0.9,19
3.45,1.05,21
3.45,1.2,24
3.45,1.35,25
3.45,1.5,30
3.6,-1.5,189
3.6,-1.35,186
3.6,-1.2,171
3.6,-1.05,174
3.6,-0.9,175
3.6,-0.75,220
3.6,-0.6,154
3.6,-0.45,65
3.6,-0.3,188
3.6,-0.15,255
3.6,0.0,202
3.6,0.15,75
3.6,0.3,8
3.6,0.45,13
3.6,0.6,6
3.6,0.75,0
3.6,0.9,10
3.6,1.05,14
3.6,1.2,11
3.6,1.35,12
3.6,1.5,13
3.75,-1.5,188
3.75,-1.35,173
3.75,-1.2,172
3.75,-1.05,170
3.75,-0.9,151
3.75,-0.75,73
3.75,-0.6,138
3.75,-0.45,181
3.75,-0.3,115
3.75,-0.15,164
3.75,0.0,157
3.75,0.15,30
3.75,0.3,19
3.75,0.45,7
3.75,0.6,9
3.75,0.75,5
3.75,0.9,11
3.75,1.05,10
3.75,1.2,12
3.75,1.35,13
3.75,1.5,13
3.9,-1.5,172
3.9,-1.35,172
3.9,-1.2,172
3.9,-1.05,170
3.9,-0.9,158
3.9,-0.75,224
3.9,-0.6,89
3.9,-0.45,56
3.9,-0.3,78
3.9,-0.15,80
3.9,0.0,93
3.9,0.15,78
3.9,0.3,75
3.9,0.45,32
3.9,0.6,16
3.9,0.75,15
3.9,0.9,18
3.9,1.05,13
3.9,1.2,11
3.9,1.35,12
3.9,1.5,12
4.05,-1.5,165
4.05,-1.35,166
4.05,-1.2,168
4.05,-1.05,170
4.05,-0.9,166
4.05,-0.75,187
4.05,-0.6,112
4.05,-0.45,26
4.05,-0.3,72
4.05,-0.15,62
4.05,0.0,123
4.05,0.15,165
4.05,0.3,79
4.05,0.45,62
4.05,0.6,25
4.05,0.75,15
4.05,0.9,19
4.05,1.05,16
4.05,1.2,17
4.05,1.35,13
4.05,1.5,13
4.2,-1.5,132
4.2,-1.35,132
4.2,-1.2,140
4.2,-1.05,155
4.2,-0.9,187
4.2,-0.75,186
4.2,-0.6,95
4.2,-0.45,91
4.2,-0.3,88
4.2,-0.15,13
4.2,0.0,33
4.2,0.15,49
4.2,0.3,87
4.2,0.45,59
4.2,0.6,41
4.2,0.75,24
4.2,0.9,33
4.2,1.05,33
4.2,1.2,19
4.2,1.35,18
4.2,1.5,17
4.35,-1.5,132
4.35,-1.35,136
4.35,-1.2,139
4.35,-1.05,153
4.35,-0.9,181
4.35,-0.75,165
4.35,-0.6,108
4.35,-0.45,64
4.35,-0.3,72
4.35,-0.15,66
4.35,0.0,210
4.35,0.15,81
4.35,0.3,36
4.35,0.45,57
4.35,0.6,45
4.35,0.75,37
4.35,0.9,26
4.35,1.05,21
4.35,1.2,27
4.35,1.35,27
4.35,1.5,27
4.5,-1.5,130
4.5,-1.35,127
4.5,-1.2,128
4.5,-1.05,115
4.5,-0.9,117
4.5,-0.75,106
4.5,-0.6,195
4.5,-0.45,64
4.5,-0.3,137
4.5,-0.15,105
4.5,0.0,164
4.5,0.15,55
4.5,0.3,56
4.5,0.45,53
4.5,0.6,55
4.5,0.75,45
4.5,0.9,33
4.5,1.05,30
4.5,1.2,27
4.5,1.35,26
4.5,1.5,26
4.65,-1.5,88
4.65,-1.35,81
4.65,-1.2,82
4.65,-1.05,83
4.65,-0.9,81
4.65,-0.75,75
4.65,-0.6,61
4.65,-0.45,74
4.65,-0.3,150
4.65,-0.15,17
4.65,0.0,108
4.65,0.15,89
4.65,0.3,36
4.65,0.45,53
4.65,0.6,34
4.65,0.75,17
4.65,0.9,22
4.65,1.05,22
4.65,1.2,24
4.65,1.35,24
4.65,1.5,25
4.8,-1.5,69
4.8,-1.35,68
4.8,-1.2,66
4.8,-1.05,49
4.8,-0.9,49
4.8,-0.75,39
4.8,-0.6,60
4.8,-0.45,72
4.8,-0.3,171
4.8,-0.15,75
4.8,0.0,100
4.8,0.15,57
4.8,0.3,212
4.8,0.45,61
4.8,0.6,22
4.8,0.75,2
4.8,0.9,12
4.8,1.05,14
4.8,1.2,17
4.8,1.35,22
4.8,1.5,23
4.95,-1.5,82
4.95,-1.35,64
4.95,-1.2,52
4.95,-1.05,51
4.95,-0.9,50
4.95,-0.75,53
4.95,-0.6,39
4.95,-0.45,60
4.95,-0.3,74
4.95,-0.15,44
4.95,0.0,123
4.95,0.15,51
4.95,0.3,15
4.95,0.45,33
4.95,0.6,14
4.95,0.75,5
4.95,0.9,2
4.95,1.05,9
4.95,1.2,14
4.95,1.35,16
4.95,1.5,18
5.1,-1.5,69
5.1,-1.35,68
5.1,-1.2,67
5.1,-1.05,71
5.1,-0.9,64
5.1,-0.75,53
5.1,-0.6,10
5.1,-0.45,206
5.1,-0.3,5
5.1,-0.15,90
5.1,0.0,66
5.1,0.15,13
5.1,0.3,6
5.1,0.45,11
5.1,0.6,5
5.1,0.75,0
5.1,0.9,0
5.1,1.05,6
5.1,1.2,9
5.1,1.35,12
5.1,1.5,13
5.25,-1.5,76
5.25,-1.35,74
5.25,-1.2,71
5.25,-1.05,75
5.25,-0.9,63
5.25,-0.75,63
5.25,-0.6,141
5.25,-0.45,111
5.25,-0.3,90
5.25,-0.15,56
5.25,0.0,99
5.25,0.15,75
5.25,0.3,40
5.25,0.45,5
5.25,0.6,6
5.25,0.75,0
5.25,0.9,0
5.25,1.05,1
5.25,1.2,1
5.25,1.35,1
5.25,1.5,1
5.4,-1.5,97
5.4,-1.35,120
5.4,-1.2,117
5.4,-1.05,114
5.4,-0.9,98
5.4,-0.75,106
5.4,-0.6,142
5.4,-0.45,95
5.4,-0.3,131
5.4,-0.15,72
5.4,0.0,172
5.4,0.15,82
5.4,0.3,34
5.4,0.45,9
5.4,0.6,4
5.4,0.75,3
5.4,0.9,2
5.4,1.05,2
5.4,1.2,2
5.4,1.35,4
5.4,1.5,4
5.55,-1.5,124
5.55,-1.35,124
5.55,-1.2,124
5.55,-1.05,114
5.55,-0.9,121
5.55,-0.75,112
5.55,-0.6,145
5.55,-0.45,147
5.55,-0.3,77
5.55,-0.15,71
5.55,0.0,133
5.55,0.15,21
5.55,0.3,45
5.55,0.45,12
5.55,0.6,2
5.55,0.75,2
5.55,0.9,2
5.55,1.05,2
5.55,1.2,3
5.55,1.35,3
5.55,1.5,4
5.7,-1.5,124
5.7,-1.35,124
5.7,-1.2,124
5.7,-1.05,121
5.7,-0.9,116
5.7,-0.75,48
5.7,-0.6,236
5.7,-0.45,241
5.7,-0.3,223
5.7,-0.15,42
5.7,0.0,10
5.7,0.15,11
5.7,0.3,23
5.7,0.45,13
5.7,0.6,3
5.7,0.75,5
5.7,0.9,13
5.7,1.05,19
5.7,1.2,23
5.7,1.35,23
5.7,1.5,24
5.85,-1.5,127
5.85,-1.35,127
5.85,-1.2,128
5.85,-1.05,130
5.85,-0.9,144
5.85,-0.75,209
5.85,-0.6,85
5.85,-0.45,48
5.85,-0.3,47
5.85,-0.15,23
5.85,0.0,10
5.85,0.15,42
5.85,0.3,31
5.85,0.45,36
5.85,0.6,21
5.85,0.75,29
5.85,0.9,28
5.85,1.05,27
5.85,1.2,29
5.85,1.35,30
5.85,1.5,31
6.0,-1.5,119
6.0,-1.35,119
6.0,-1.2,117
6.0,-1.05,117
6.0,-0.9,122
6.0,-0.75,139
6.0,-0.6,73
6.0,-0.45,93
6.0,-0.3,60
6.0,-0.15,54
6.0,0.0,25
6.0,0.15,35
6.0,0.3,85
6.0,0.45,97
6.0,0.6,56
6.0,0.75,49
6.0,0.9,44
6.0,1.05,42
6.0,1.2,36
6.0,1.35,33
6.0,1.5,33
6.15,-1.5,117
6.15,-1.35,117
6.15,-1.2,117
6.15,-1.05,130
6.15,-0.9,129
6.15,-0.75,122
6.15,-0.6,88
6.15,-0.45,131
6.15,-0.3,229
6.15,-0.15,153
6.15,0.0,122
6.15,0.15,125
6.15,0.3,165
6.15,0.45,160
6.15,0.6,86
6.15,0.75,63
6.15,0.9,53
6.15,1.05,44
6.15,1.2,45
6.15,1.35,39
6.15,1.5,35
6.3,-1.5,116
6.3,-1.35,116
6.3,-1.2,130
6.3,-1.05,130
6.3,-0.9,126
6.3,-0.75,153
6.3,-0.6,131
6.3,-0.45,204
6.3,-0.3,116
6.3,-0.15,43
6.3,0.0,0
6.3,0.15,76
6.3,0.3,141
6.3,0.45,126
6.3,0.6,33
6.3,0.75,32
6.3,0.9,47
6.3,1.05,53
6.3,1.2,51
6.3,1.35,51
6.3,1.5,51
6.45,-1.5,116
6.45,-1.35,133
6.45,-1.2,133
6.45,-1.05,136
6.45,-0.9,142
6.45,-0.75,140
6.45,-0.6,190
6.45,-0.45,97
6.45,-0.3,49
6.45,-0.15,58
6.45,0.0,40
6.45,0.15,55
6.45,0.3,81
6.45,0.45,57
6.45,0.6,3
6.45,0.75,19
6.45,0.9,38
6.45,1.05,47
6.45,1.2,51
6.45,1.35,51
6.45,1.5,51
6.6,-1.5,114
6.6,-1.35,117
6.6,-1.2,121
6.6,-1.05,117
6.6,-0.9,150
6.6,-0.75,237
6.6,-0.6,83
6.6,-0.45,66
6.6,-0.3,33
6.6,-0.15,51
6.6,0.0,6
6.6,0.15,16
6.6,0.3,39
6.6,0.45,31
6.6,0.6,31
6.6,0.75,32
6.6,0.9,39
6.6,1.05,46
6.6,1.2,50
6.6,1.35,48
6.6,1.5,51
6.75,-1.5,97
6.75,-1.35,97
6.75,-1.2,114
6.75,-1.05,120
6.75,-0.9,135
6.75,-0.75,107
6.75,-0.6,69
6.75,-0.45,105
6.75,-0.3,149
6.75,-0.15,118
6.75,0.0,14
6.75,0.15,6
6.75,0.3,35
6.75,0.45,48
6.75,0.6,13
6.75,0.75,29
6.75,0.9,48
6.75,1.05,54
6.75,1.2,58
6.75,1.35,48
6.75,1.5,50
6.9,-1.5,112
6.9,-1.35,97
6.9,-1.2,98
6.9,-1.05,103
6.9,-0.9,84
6.9,-0.75,67
6.9,-0.6,52
6.9,-0.45,56
6.9,-0.3,89
6.9,-0.15,0
6.9,0.0,6
6.9,0.15,83
6.9,0.3,67
6.9,0.45,43
6.9,0.6,27
6.9,0.75,27
6.9,0.9,27
6.9,1.05,27
6.9,1.2,36
6.9,1.35,37
6.9,1.5,38
7.05,-1.5,96
7.05,-1.35,94
7.05,-1.2,92
7.05,-1.05,89
7.05,-0.9,79
7.05,-0.75,72
7.05,-0.6,53
7.05,-0.45,33
7.05,-0.3,27
7.05,-0.15,28
7.05,0.0,8
7.05,0.15,58
7.05,0.3,33
7.05,0.45,36
7.05,0.6,45
7.05,0.75,46
7.05,0.9,40
7.05,1.05,41
7.05,1.2,42
7.05,1.35,36
7.05,1.5,36
7.2,-1.5,92
7.2,-1.35,86
7.2,-1.2,79
7.2,-1.05,72
7.2,-0.9,79
7.2,-0.75,79
7.2,-0.6,183
7.2,-0.45,43
7.2,-0.3,43
7.2,-0.15,34
7.2,0.0,43
7.2,0.15,18
7.2,0.3,39
7.2,0.45,50
7.2,0.6,46
7.2,0.75,53
7.2,0.9,55
7.2,1.05,53
7.2,1.2,36
7.2,1.35,36
7.2,1.5,36
7.35,-1.5,89
7.35,-1.35,82
7.35,-1.2,63
7.35,-1.05,24
7.35,-0.9,53
7.35,-0.75,113
7.35,-0.6,205
7.35,-0.45,39
7.35,-0.3,0
7.35,-0.15,8
7.35,0.0,57
7.35,0.15,154
7.35,0.3,140
7.35,0.45,7
7.35,0.6,52
7.35,0.75,52
7.35,0.9,58
7.35,1.05,58
7.35,1.2,58
7.35,1.35,56
7.35,1.5,50
7.5,-1.5,80
7.5,-1.35,73
7.5,-1.2,61
7.5,-1.05,42
7.5,-0.9,63
7.5,-0.75,107
7.5,-0.6,127
7.5,-0.45,26
7.5,-0.3,13
7.5,-0.15,20
7.5,0.0,32
7.5,0.15,99
7.5,0.3,96
7.5,0.45,82
7.5,0.6,60
7.5,0.75,58
7.5,0.9,56
7.5,1.05,56
7.5,1.2,55
7.5,1.35,56
7.5,1.5,57
7.65,-1.5,45
7.65,-1.35,44
7.65,-1.2,66
7.65,-1.05,68
7.65,-0.9,72
7.65,-0.75,73
7.65,-0.6,63
7.65,-0.45,83
7.65,-0.3,61
7.65,-0.15,16
7.65,0.0,5
7.65,0.15,38
7.65,0.3,44
7.65,0.45,51
7.65,0.6,59
7.65,0.75,58
7.65,0.9,51
7.65,1.05,55
7.65,1.2,58
7.65,1.35,60
7.65,1.5,45
7.8,-1.5,28
7.8,-1.35,44
7.8,-1.2,40
7.8,-1.05,42
7.8,-0.9,56
7.8,-0.75,46
7.8,-0.6,8
7.8,-0.45,34
7.8,-0.3,55
7.8,-0.15,43
7.8,0.0,18
7.8,0.15,57
7.8,0.3,44
7.8,0.45,32
7.8,0.6,35
7.8,0.75,45
7.8,0.9,48
7.8,1.05,52
7.8,1.2,66
7.8,1.35,68
7.8,1.5,65
7.95,-1.5,24
7.95,-1.35,24
7.95,-1.2,41
7.95,-1.05,46
7.95,-0.9,35
7.95,-0.75,52
7.95,-0.6,60
7.95,-0.45,76
7.95,-0.3,5
7.95,-0.15,92
7.95,0.0,36
7.95,0.15,21
7.95,0.3,44
7.95,0.45,25
7.95,0.6,51
7.95,0.75,53
7.95,0.9,66
7.95,1.05,74
7.95,1.2,73
7.95,1.35,73
7.95,1.5,86
8.1,-1.5,40
8.1,-1.35,40
8.1,-1.2,39
8.1,-1.05,42
8.1,-0.9,43
8.1,-0.75,34
8.1,-0.6,36
8.1,-0.45,76
8.1,-0.3,108
8.1,-0.15,24
8.1,0.0,40
8.1,0.15,7
8.1,0.3,7
8.1,0.45,0
8.1,0.6,33
8.1,0.75,73
8.1,0.9,94
8.1,1.05,95
8.1,1.2,99
8.1,1.35,96
8.1,1.5,93
8.25,-1.5,28
8.25,-1.35,40
8.25,-1.2,37
8.25,-1.05,29
8.25,-0.9,15
8.25,-0.75,50
8.25,-0.6,104
8.25,-0.45,58
8.25,-0.3,43
8.25,-0.15,212
8.25,0.0,44
8.25,0.15,31
8.25,0.3,27
8.25,0.45,34
8.25,0.6,74
8.25,0.75,157
8.25,0.9,166
8.25,1.05,133
8.25,1.2,117
8.25,1.35,108
8.25,1.5,104
8.4,-1.5,28
8.4,-1.35,28
8.4,-1.2,28
8.4,-1.05,28
8.4,-0.9,15
8.4,-0.75,46
8.4,-0.6,109
8.4,-0.45,255
8.4,-0.3,14
8.4,-0.15,1
8.4,0.0,35
8.4,0.15,51
8.4,0.3,55
8.4,0.45,65
8.4,0.6,110
8.4,0.75,213
8.4,0.9,197
8.4,1.05,148
8.4,1.2,126
8.4,1.35,116
8.4,1.5,106
8.55,-1.5,41
8.55,-1.35,42
8.55,-1.2,38
8.55,-1.05,32
8.55,-0.9,14
8.55,-0.75,5
8.55,-0.6,73
8.55,-0.45,86
8.55,-0.3,46
8.55,-0.15,169
8.55,0.0,152
8.55,0.15,76
8.55,0.3,52
8.55,0.45,91
8.55,0.6,129
8.55,0.75,143
8.55,0.9,151
8.55,1.05,136
8.55,1.2,124
8.55,1.35,115
8.55,1.5,108
8.7,-1.5,42
8.7,-1.35,37
8.7,-1.2,42
8.7,-1.05,36
8.7,-0.9,29
8.7,-0.75,55
8.7,-0.6,85
8.7,-0.45,81
8.7,-0.3,48
8.7,-0.15,104
8.7,0.0,158
8.7,0.15,17
8.7,0.3,40
8.7,0.45,52
8.7,0.6,124
8.7,0.75,123
8.7,0.9,129
8.7,1.05,127
8.7,1.2,120
8.7,1.35,113
8.7,1.5,108
8.85,-1.5,37
8.85,-1.35,37
8.85,-1.2,42
8.85,-1.05,42
8.85,-0.9,49
8.85,-0.75,58
8.85,-0.6,85
8.85,-0.45,108
8.85,-0.3,45
8.85,-0.15,67
8.85,0.0,50
8.85,0.15,14
8.85,0.3,29
8.85,0.45,52
8.85,0.6,104
8.85,0.75,153
8.85,0.9,136
8.85,1.05,121
8.85,1.2,114
8.85,1.35,108
8.85,1.5,103
9.0,-1.5,37
9.0,-1.35,37
9.0,-1.2,37
9.0,-1.05,36
9.0,-0.9,34
9.0,-0.75,56
9.0,-0.6,52
9.0,-0.45,55
9.0,-0.3,48
9.0,-0.15,25
9.0,0.0,204
9.0,0.15,73
9.0,0.3,29
9.0,0.45,83
9.0,0.6,166
9.0,0.75,223
9.0,0.9,158
9.0,1.05,121
9.0,1.2,106
9.0,1.35,100
9.0,1.5,96
9.15,-1.5,73
9.15,-1.35,58
9.15,-1.2,66
9.15,-1.05,49
9.15,-0.9,28
9.15,-0.75,100
9.15,-0.6,55
9.15,-0.45,49
9.15,-0.3,35
9.15,-0.15,97
9.15,0.0,104
9.15,0.15,160
9.15,0.3,77
9.15,0.45,66
9.15,0.6,88
9.15,0.75,140
9.15,0.9,113
9.15,1.05,109
9.15,1.2,101
9.15,1.35,97
9.15,1.5,94
9.3,-1.5,74
9.3,-1.35,74
9.3,-1.2,74
9.3,-1.05,79
9.3,-0.9,111
9.3,-0.75,91
9.3,-0.6,160
9.3,-0.45,60
9.3,-0.3,53
9.3,-0.15,31
9.3,0.0,75
9.3,0.15,57
9.3,0.3,33
9.3,0.45,0
9.3,0.6,56
9.3,0.75,89
9.3,0.9,104
9.3,1.05,82
9.3,1.2,94
9.3,1.35,93
9.3,1.5,84
9.45,-1.5,73
9.45,-1.35,73
9.45,-1.2,81
9.45,-1.05,81
9.45,-0.9,84
9.45,-0.75,118
9.45,-0.6,146
9.45,-0.45,102
9.45,-0.3,31
9.45,-0.15,62
9.45,0.0,19
9.45,0.15,28
9.45,0.3,17
9.45,0.45,25
9.45,0.6,44
9.45,0.75,62
9.45,0.9,65
9.45,1.05,69
9.45,1.2,81
9.45,1.35,81
9.45,1.5,93
9.6,-1.5,68
9.6,-1.35,71
9.6,-1.2,75
9.6,-1.05,71
9.6,-0.9,7
9.6,-0.75,146
9.6,-0.6,137
9.6,-0.45,33
9.6,-0.3,79
9.6,-0.15,119
9.6,0.0,66
9.6,0.15,51
9.6,0.3,37
9.6,0.45,40
9.6,0.6,41
9.6,0.75,54
9.6,0.9,59
9.6,1.05,62
9.6,1.2,60
9.6,1.35,61
9.6,1.5,61
9.75,-1.5,68
9.75,-1.35,76
9.75,-1.2,76
9.75,-1.05,75
9.75,-0.9,73
9.75,-0.75,104
9.75,-0.6,2
9.75,-0.45,125
9.75,-0.3,124
9.75,-0.15,97
9.75,0.0,91
9.75,0.15,18
9.75,0.3,78
9.75,0.45,63
9.75,0.6,49
9.75,0.75,45
9.75,0.9,45
9.75,1.05,58
9.75,1.2,59
9.75,1.35,60
9.75,1.5,61
9.9,-1.5,69
9.9,-1.35,68
9.9,-1.2,76
9.9,-1.05,76
9.9,-0.9,76
9.9,-0.75,86
9.9,-0.6,117
9.9,-0.45,147
9.9,-0.3,69
9.9,-0.15,51
9.9,0.0,217
9.9,0.15,43
9.9,0.3,217
9.9,0.45,65
9.9,0.6,53
9.9,0.75,48
9.9,0.9,46
9.9,1.05,45
9.9,1.2,59
9.9,1.35,61
9.9,1.5,61
10.05,-1.5,67
10.05,-1.35,76
10.05,-1.2,67
10.05,-1.05,64
10.05,-0.9,62
10.05,-0.75,59
10.05,-0.6,92
10.05,-0.45,206
10.05,-0.3,72
10.05,-0.15,76
10.05,0.0,51
10.05,0.15,42
10.05,0.3,52
10.05,0.45,8
10.05,0.6,47
10.05,0.75,48
10.05,0.9,48
10.05,1.05,48
10.05,1.2,48
10.05,1.35,48
10.05,1.5,59
10.2,-1.5,71
10.2,-1.35,67
10.2,-1.2,61
10.2,-1.05,46
10.2,-0.9,43
10.2,-0.75,51
10.2,-0.6,2
10.2,-0.45,73
10.2,-0.3,119
10.2,-0.15,140
10.2,0.0,59
10.2,0.15,55
10.2,0.3,20
10.2,0.45,27
10.2,0.6,47
10.2,0.75,50
10.2,0.9,50
10.2,1.05,51
10.2,1.2,51
10.2,1.35,51
10.2,1.5,51
10.35,-1.5,79
10.35,-1.35,76
10.35,-1.2,70
10.35,-1.05,57
10.35,-0.9,26
10.35,-0.75,43
10.35,-0.6,49
10.35,-0.45,27
10.35,-0.3,97
10.35,-0.15,128
10.35,0.0,67
10.35,0.15,54
10.35,0.3,30
10.35,0.45,32
10.35,0.6,50
10.35,0.75,50
10.35,0.9,50
10.35,1.05,50
10.35,1.2,50
10.35,1.35,50
10.35,1.5,47
10.5,-1.5,89
10.5,-1.35,83
10.5,-1.2,81
10.5,-1.05,79
10.5,-0.9,81
10.5,-0.75,106
10.5,-0.6,124
10.5,-0.45,45
10.5,-0.3,62
10.5,-0.15,53
10.5,0.0,48
10.5,0.15,31
10.5,0.3,39
10.5,0.45,45
10.5,0.6,41
10.5,0.75,38
10.5,0.9,35
10.5,1.05,33
10.5,1.2,31
10.5,1.35,30
10.5,1.5,45
10.65,-1.5,93
10.65,-1.35,94
10.65,-1.2,96
10.65,-1.05,102
10.65,-0.9,117
10.65,-0.75,145
10.65,-0.6,221
10.65,-0.45,129
10.65,-0.3,50
10.65,-0.15,13
10.65,0.0,2
10.65,0.15,14
10.65,0.3,36
10.65,0.45,37
10.65,0.6,31
10.65,0.75,29
10.65,0.9,28
10.65,1.05,30
10.65,1.2,30
10.65,1.35,29
10.65,1.5,29
10.8,-1.5,126
10.8,-1.35,128
10.8,-1.2,122
10.8,-1.05,127
10.8,-0.9,131
10.8,-0.75,128
10.8,-0.6,103
10.8,-0.45,96
10.8,-0.3,13
10.8,-0.15,23
10.8,0.0,12
10.8,0.15,11
10.8,0.3,11
10.8,0.45,25
10.8,0.6,29
10.8,0.75,31
10.8,0.9,26
10.8,1.05,26
10.8,1.2,26
10.8,1.35,40
10.8,1.5,41
10.95,-1.5,116
10.95,-1.35,117
10.95,-1.2,129
10.95,-1.05,130
10.95,-0.9,117
10.95,-0.75,118
10.95,-0.6,109
10.95,-0.45,104
10.95,-0.3,87
10.95,-0.15,117
10.95,0.0,68
10.95,0.15,31
10.95,0.3,17
10.95,0.45,15
10.95,0.6,22
10.95,0.75,26
10.95,0.9,29
10.95,1.05,35
10.95,1.2,37
10.95,1.35,41
10.95,1.5,42
11.1,-1.5,114
11.1,-1.35,115
11.1,-1.2,114
11.1,-1.05,112
11.1,-0.9,107
11.1,-0.75,90
11.1,-0.6,106
11.1,-0.45,111
11.1,-0.3,138
11.1,-0.15,146
11.1,0.0,120
11.1,0.15,82
11.1,0.3,16
11.1,0.45,15
11.1,0.6,29
11.1,0.75,43
11.1,0.9,51
11.1,1.05,55
11.1,1.2,56
11.1,1.35,44
11.1,1.5,44
11.25,-1.5,113
11.25,-1.35,112
11.25,-1.2,97
11.25,-1.05,85
11.25,-0.9,90
11.25,-0.75,97
11.25,-0.6,165
11.25,-0.45,97
11.25,-0.3,118
11.25,-0.15,34
11.25,0.0,75
11.25,0.15,86
11.25,0.3,51
11.25,0.45,34
11.25,0.6,44
11.25,0.75,50
11.25,0.9,54
11.25,1.05,56
11.25,1.2,46
11.25,1.35,47
11.25,1.5,47
11.4,-1.5,92
11.4,-1.35,92
11.4,-1.2,82
11.4,-1.05,82
11.4,-0.9,83
11.4,-0.75,84
11.4,-0.6,68
11.4,-0.45,60
11.4,-0.3,40
11.4,-0.15,61
11.4,0.0,77
11.4,0.15,76
11.4,0.3,45
11.4,0.45,37
11.4,0.6,53
11.4,0.75,59
11.4,0.9,59
11.4,1.05,58
11.4,1.2,60
11.4,1.35,50
11.4,1.5,49
11.55,-1.5,101
11.55,-1.35,87
11.55,-1.2,87
11.55,-1.05,83
11.55,-0.9,74
11.55,-0.75,65
11.55,-0.6,57
11.55,-0.45,43
11.55,-0.3,60
11.55,-0.15,59
11.55,0.0,42
11.55,0.15,53
11.55,0.3,24
11.55,0.45,24
11.55,0.6,73
11.55,0.75,70
11.55,0.9,66
11.55,1.05,62
11.55,1.2,60
11.55,1.35,49
11.55,1.5,49
11.7,-1.5,103
11.7,-1.35,104
11.7,-1.2,106
11.7,-1.05,107
11.7,-0.9,104
11.7,-0.75,67
11.7,-0.6,44
11.7,-0.45,8
11.7,-0.3,1
11.7,-0.15,21
11.7,0.0,22
11.7,0.15,50
11.7,0.3,52
11.7,0.45,119
11.7,0.6,126
11.7,0.75,78
11.7,0.9,72
11.7,1.05,70
11.7,1.2,69
11.7,1.35,57
11.7,1.5,55
11.85,-1.5,110
11.85,-1.35,112
11.85,-1.2,113
11.85,-1.05,122
11.85,-0.9,143
11.85,-0.75,148
11.85,-0.6,8
11.85,-0.45,26
11.85,-0.3,3
11.85,-0.15,11
11.85,0.0,24
11.85,0.15,29
11.85,0.3,55
11.85,0.45,78
11.85,0.6,80
11.85,0.75,65
11.85,0.9,70
11.85,1.05,70
11.85,1.2,60
11.85,1.35,57
11.85,1.5,55
12.0,-1.5,107
12.0,-1.35,112
12.0,-1.2,117
12.0,-1.05,124
12.0,-0.9,152
12.0,-0.75,168
12.0,-0.6,91
12.0,-0.45,58
12.0,-0.3,7
12.0,-0.15,28
12.0,0.0,13
12.0,0.15,0
12.0,0.3,36
12.0,0.45,64
12.0,0.6,68
12.0,0.75,65
12.0,0.9,65
12.0,1.05,63
12.0,1.2,60
12.0,1.35,56
12.0,1.5,54
12.15,-1.5,105
12.15,-1.35,111
12.15,-1.2,115
12.15,-1.05,120
12.15,-0.9,120
12.15,-0.75,118
12.15,-0.6,115
12.15,-0.45,96
12.15,-0.3,56
12.15,-0.15,36
12.15,0.0,42
12.15,0.15,34
12.15,0.3,47
12.15,0.45,59
12.15,0.6,64
12.15,0.75,65
12.15,0.9,63
12.15,1.05,61
12.15,1.2,58
12.15,1.35,54
12.15,1.5,51
12.3,-1.5,97
12.3,-1.35,104
12.3,-1.2,111
12.3,-1.05,119
12.3,-0.9,119
12.3,-0.75,119
12.3,-0.6,104
12.3,-0.45,76
12.3,-0.3,77
12.3,-0.15,71
12.3,0.0,60
12.3,0.15,70
12.3,0.3,59
12.3,0.45,59
12.3,0.6,65
12.3,0.75,63
12.3,0.9,61
12.3,1.05,58
12.3,1.2,54
12.3,1.35,50
12.3,1.5,46
12.45,-1.5,87
12.45,-1.35,95
12.45,-1.2,105
12.45,-1.05,113
12.45,-0.9,123
12.45,-0.75,147
12.45,-0.6,186
12.45,-0.45,122
12.45,-0.3,90
12.45,-0.15,79
12.45,0.0,82
12.45,0.15,109
12.45,0.3,112
12.45,0.45,68
12.45,0.6,71
12.45,0.75,65
12.45,0.9,62
12.45,1.05,58
12.45,1.2,53
12.45,1.35,47
12.45,1.5,39
12.6,-1.5,69
12.6,-1.35,85
12.6,-1.2,98
12.6,-1.05,109
12.6,-0.9,122
12.6,-0.75,154
12.6,-0.6,205
12.6,-0.45,111
12.6,-0.3,62
12.6,-0.15,61
12.6,0.0,66
12.6,0.15,106
12.6,0.3,141
12.6,0.45,84
12.6,0.6,67
12.6,0.75,63
12.6,0.9,58
12.6,1.05,52
12.6,1.2,45
12.6,1.35,36
12.6,1.5,31
12.75,-1.5,43
12.75,-1.35,59
12.75,-1.2,81
12.75,-1.05,92
12.75,-0.9,92
12.75,-0.75,106
12.75,-0.6,122
12.75,-0.45,96
12.75,-0.3,69
12.75,-0.15,13
12.75,0.0,33
12.75,0.15,63
12.75,0.3,28
12.75,0.45,22
12.75,0.6,48
12.75,0.75,55
12.75,0.9,54
12.75,1.05,46
12.75,1.2,35
12.75,1.35,22
12.75,1.5,15
12.9,-1.5,7
12.9,-1.35,29
12.9,-1.2,65
12.9,-1.05,77
12.9,-0.9,64
12.9,-0.75,66
12.9,-0.6,89
12.9,-0.45,95
12.9,-0.3,96
12.9,-0.15,81
12.9,0.0,51
12.9,0.15,49
12.9,0.3,22
12.9,0.45,18
12.9,0.6,44
12.9,0.75,49
12.9,0.9,49
12.9,1.05,42
12.9,1.2,27
12.9,1.35,8
12.9,1.5,0
13.05,-1.5,0
13.05,-1.35,20
13.05,-1.2,57
13.05,-1.05,73
13.05,-0.9,70
13.05,-0.75,73
13.05,-0.6,83
13.05,-0.45,95
13.05,-0.3,96
13.05,-0.15,93
13.05,0.0,71
13.05,0.15,61
13.05,0.3,43
13.05,0.45,40
13.05,0.6,49
13.05,0.75,48
13.05,0.9,47
13.05,1.05,39
13.05,1.2,23
13.05,1.35,5
13.05,1.5,0
