-3.0,-1.5,0
-3.0,-1.35,1
-3.0,-1.2,25
-3.0,-1.05,56
-3.0,-0.9,84
-3.0,-0.75,105
-3.0,-0.6,116
-3.0,-0.45,125
-3.0,-0.3,130
-3.0,-0.15,134
-3.0,0.0,148
-3.0,0.15,153
-3.0,0.3,159
-3.0,0.45,167
-3.0,0.6,173
-3.0,0.75,175
-3.0,0.9,165
-3.0,1.05,134
-3.0,1.2,80
-3.0,1.35,19
-3.0,1.5,0
-2.85,-1.5,1
-2.85,-1.35,10
-2.85,-1.2,34
-2.85,-1.05,64
-2.85,-0.9,90
-2.85,-0.75,109
-2.85,-0.6,121
-2.85,-0.45,135
-2.85,-0.3,129
-2.85,-0.15,131
-2.85,0.0,144
-2.85,0.15,149
-2.85,0.3,159
-2.85,0.45,170
-2.85,0.6,186
-2.85,0.75,200
-2.85,0.9,196
-2.85,1.05,165
-2.85,1.2,110
-2.85,1.35,48
-2.85,1.5,17
-2.7,-1.5,23
-2.7,-1.35,33
-2.7,-1.2,54
-2.7,-1.05,79
-2.7,-0.9,100
-2.7,-0.75,115
-2.7,-0.6,124
-2.7,-0.45,127
-2.7,-0.3,135
-2.7,-0.15,135
-2.7,0.0,127
-2.7,0.15,143
-2.7,0.3,152
-2.7,0.45,168
-2.7,0.6,197
-2.7,0.75,238
-2.7,0.9,244
-2.7,1.05,204
-2.7,1.2,152
-2.7,1.35,99
-2.7,1.5,70
-2.55,-1.5,51
-2.55,-1.35,61
-2.55,-1.2,77
-2.55,-1.05,95
-2.55,-0.9,111
-2.55,-0.75,122
-2.55,-0.6,126
-2.55,-0.45,126
-2.55,-0.3,128
-2.55,-0.15,120
-2.55,0.0,119
-2.55,0.15,128
-2.55,0.3,141
-2.55,0.45,153
-2.55,0.6,185
-2.55,0.75,255
-2.55,0.9,255
-2.55,1.05,224
-2.55,1.2,178
-2.55,1.35,138
-2.55,1.5,115
-2.4,-1.5,77
-2.4,-1.35,86
-2.4,-1.2,98
-2.4,-1.05,111
-2.4,-0.9,122
-2.4,-0.75,129
-2.4,-0.6,130
-2.4,-0.45,125
-2.4,-0.3,120
-2.4,-0.15,98
-2.4,0.0,86
-2.4,0.15,106
-2.4,0.3,128
-2.4,0.45,127
-2.4,0.6,112
-2.4,0.75,171
-2.4,0.9,228
-2.4,1.05,205
-2.4,1.2,176
-2.4,1.35,156
-2.4,1.5,141
-2.25,-1.5,99
-2.25,-1.35,106
-2.25,-1.2,115
-2.25,-1.05,124
-2.25,-0.9,132
-2.25,-0.75,136
-2.25,-0.6,136
-2.25,-0.45,129
-2.25,-0.3,119
-2.25,-0.15,80
-2.25,0.0,47
-2.25,0.15,87
-2.25,0.3,126
-2.25,0.45,114
-2.25,0.6,62
-2.25,0.75,81
-2.25,0.9,155
-2.25,1.05,173
-2.25,1.2,171
-2.25,1.35,164
-2.25,1.5,155
-2.1,-1.5,116
-2.1,-1.35,121
-2.1,-1.2,128
-2.1,-1.05,135
-2.1,-0.9,141
-2.1,-0.75,144
-2.1,-0.6,144
-2.1,-0.45,139
-2.1,-0.3,132
-2.1,-0.15,102
-2.1,0.0,78
-2.1,0.15,115
-2.1,0.3,143
-2.1,0.45,114
-2.1,0.6,79
-2.1,0.75,118
-2.1,0.9,156
-2.1,1.05,168
-2.1,1.2,172
-2.1,1.35,169
-2.1,1.5,163
-1.95,-1.5,118
-1.95,-1.35,134
-1.95,-1.2,139
-1.95,-1.05,145
-1.95,-0.9,140
-1.95,-0.75,154
-1.95,-0.6,156
-1.95,-0.45,165
-1.95,-0.3,158
-1.95,-0.15,149
-1.95,0.0,148
-1.95,0.15,168
-1.95,0.3,188
-1.95,0.45,160
-1.95,0.6,91
-1.95,0.75,171
-1.95,0.9,188
-1.95,1.05,182
-1.95,1.2,179
-1.95,1.35,175
-1.95,1.5,169
-1.8,-1.5,127
-1.8,-1.35,132
-1.8,-1.2,150
-1.8,-1.05,155
-1.8,-0.9,160
-1.8,-0.75,153
-1.8,-0.6,171
-1.8,-0.45,174
-1.8,-0.3,177
-1.8,-0.15,179
-1.8,0.0,188
-1.8,0.15,200
-1.8,0.3,240
-1.8,0.45,255
-1.8,0.6,255
-1.8,0.75,255
-1.8,0.9,225
-1.8,1.05,206
-1.8,1.2,189
-1.8,1.35,181
-1.8,1.5,172
-1.65,-1.5,130
-1.65,-1.35,134
-1.65,-1.2,142
-1.65,-1.05,161
-1.65,-0.9,166
-1.65,-0.75,185
-1.65,-0.6,190
-1.65,-0.45,189
-1.65,-0.3,199
-1.65,-0.15,203
-1.65,0.0,200
-1.65,0.15,201
-1.65,0.3,222
-1.65,0.45,246
-1.65,0.6,247
-1.65,0.75,255
-1.65,0.9,233
-1.65,1.05,207
-1.65,1.2,202
-1.65,1.35,195
-1.65,1.5,179
-1.5,-1.5,122
-1.5,-1.35,137
-1.5,-1.2,142
-1.5,-1.05,148
-1.5,-0.9,156
-1.5,-0.75,187
-1.5,-0.6,194
-1.5,-0.45,207
-1.5,-0.3,222
-1.5,-0.15,237
-1.5,0.0,208
-1.5,0.15,199
-1.5,0.3,196
-1.5,0.45,203
-1.5,0.6,212
-1.5,0.75,239
-1.5,0.9,233
-1.5,1.05,215
-1.5,1.2,202
-1.5,1.35,194
-1.5,1.5,189
-1.35,-1.5,122
-1.35,-1.35,123
-1.35,-1.2,127
-1.35,-1.05,148
-1.35,-0.9,153
-1.35,-0.75,160
-1.35,-0.6,169
-1.35,-0.45,196
-1.35,-0.3,243
-1.35,-0.15,255
-1.35,0.0,238
-1.35,0.15,174
-1.35,0.3,144
-1.35,0.45,176
-1.35,0.6,232
-1.35,0.75,255
-1.35,0.9,241
-1.35,1.05,210
-1.35,1.2,194
-1.35,1.35,181
-1.35,1.5,186
-1.2,-1.5,122
-1.2,-1.35,126
-1.2,-1.2,128
-1.2,-1.05,131
-1.2,-0.9,142
-1.2,-0.75,146
-1.2,-0.6,157
-1.2,-0.45,166
-1.2,-0.3,201
-1.2,-0.15,232
-1.2,0.0,198
-1.2,0.15,130
-1.2,0.3,50
-1.2,0.45,113
-1.2,0.6,196
-1.2,0.75,246
-1.2,0.9,217
-1.2,1.05,195
-1.2,1.2,186
-1.2,1.35,177
-1.2,1.5,177
-1.05,-1.5,122
-1.05,-1.35,123
-1.05,-1.2,125
-1.05,-1.05,141
-1.05,-0.9,142
-1.05,-0.75,143
-1.05,-0.6,139
-1.05,-0.45,131
-1.05,-0.3,110
-1.05,-0.15,107
-1.05,0.0,137
-1.05,0.15,118
-1.05,0.3,87
-1.05,0.45,95
-1.05,0.6,112
-1.05,0.75,145
-1.05,0.9,165
-1.05,1.05,173
-1.05,1.2,177
-1.05,1.35,179
-1.05,1.5,179
-0.9,-1.5,115
-0.9,-1.35,116
-0.9,-1.2,120
-0.9,-1.05,122
-0.9,-0.9,136
-0.9,-0.75,136
-0.9,-0.6,131
-0.9,-0.45,115
-0.9,-0.3,71
-0.9,-0.15,50
-0.9,0.0,100
-0.9,0.15,109
-0.9,0.3,94
-0.9,0.45,60
-0.9,0.6,6
-0.9,0.75,69
-0.9,0.9,124
-0.9,1.05,157
-0.9,1.2,168
-0.9,1.35,163
-0.9,1.5,162
-0.75,-1.5,101
-0.75,-1.35,102
-0.75,-1.2,104
-0.75,-1.05,105
-0.75,-0.9,123
-0.75,-0.75,124
-0.75,-0.6,124
-0.75,-0.45,119
-0.75,-0.3,102
-0.75,-0.15,97
-0.75,0.0,115
-0.75,0.15,102
-0.75,0.3,95
-0.75,0.45,56
-0.75,0.6,37
-0.75,0.75,91
-0.75,0.9,137
-0.75,1.05,149
-0.75,1.2,149
-0.75,1.35,149
-0.75,1.5,157
-0.6,-1.5,95
-0.6,-1.35,96
-0.6,-1.2,96
-0.6,-1.05,98
-0.6,-0.9,102
-0.6,-0.75,105
-0.6,-0.6,125
-0.6,-0.45,135
-0.6,-0.3,151
-0.6,-0.15,154
-0.6,0.0,139
-0.6,0.15,113
-0.6,0.3,107
-0.6,0.45,50
-0.6,0.6,68
-0.6,0.75,174
-0.6,0.9,183
-0.6,1.05,174
-0.6,1.2,164
-0.6,1.35,160
-0.6,1.5,160
-0.45,-1.5,92
-0.45,-1.35,76
-0.45,-1.2,77
-0.45,-1.05,79
-0.45,-0.9,82
-0.45,-0.75,86
-0.45,-0.6,95
-0.45,-0.45,130
-0.45,-0.3,187
-0.45,-0.15,247
-0.45,0.0,171
-0.45,0.15,166
-0.45,0.3,190
-0.45,0.45,138
-0.45,0.6,175
-0.45,0.75,255
-0.45,0.9,216
-0.45,1.05,182
-0.45,1.2,162
-0.45,1.35,154
-0.45,1.5,160
-0.3,-1.5,70
-0.3,-1.35,75
-0.3,-1.2,76
-0.3,-1.05,77
-0.3,-0.9,78
-0.3,-0.75,81
-0.3,-0.6,86
-0.3,-0.45,97
-0.3,-0.3,146
-0.3,-0.15,211
-0.3,0.0,138
-0.3,0.15,164
-0.3,0.3,150
-0.3,0.45,136
-0.3,0.6,157
-0.3,0.75,205
-0.3,0.9,198
-0.3,1.05,175
-0.3,1.2,162
-0.3,1.35,154
-0.3,1.5,150
-0.15,-1.5,69
-0.15,-1.35,69
-0.15,-1.2,70
-0.15,-1.05,74
-0.15,-0.9,84
-0.15,-0.75,84
-0.15,-0.6,74
-0.15,-0.45,68
-0.15,-0.3,63
-0.15,-0.15,78
-0.15,0.0,71
-0.15,0.15,107
-0.15,0.3,132
-0.15,0.45,135
-0.15,0.6,246
-0.15,0.75,201
-0.15,0.9,174
-0.15,1.05,163
-0.15,1.2,157
-0.15,1.35,148
-0.15,1.5,148
0.0,-1.5,83
0.0,-1.35,83
0.0,-1.2,83
0.0,-1.05,83
0.0,-0.9,84
0.0,-0.75,80
0.0,-0.6,74
0.0,-0.45,61
0.0,-0.3,55
0.0,-0.15,87
0.0,0.0,51
0.0,0.15,63
0.0,0.3,76
0.0,0.45,131
0.0,0.6,188
0.0,0.75,182
0.0,0.9,152
0.0,1.05,147
0.0,1.2,148
0.0,1.35,151
0.0,1.5,151
0.15,-1.5,77
0.15,-1.35,77
0.15,-1.2,81
0.15,-1.05,80
0.15,-0.9,79
0.15,-0.75,79
0.15,-0.6,63
0.15,-0.45,58
0.15,-0.3,46
0.15,-0.15,46
0.15,0.0,41
0.15,0.15,90
0.15,0.3,255
0.15,0.45,163
0.15,0.6,186
0.15,0.75,143
0.15,0.9,68
0.15,1.05,110
0.15,1.2,133
0.15,1.35,142
0.15,1.5,141
0.3,-1.5,61
0.3,-1.35,61
0.3,-1.2,61
0.3,-1.05,61
0.3,-0.9,66
0.3,-0.75,67
0.3,-0.6,68
0.3,-0.45,69
0.3,-0.3,69
0.3,-0.15,81
0.3,0.0,75
0.3,0.15,34
0.3,0.3,202
0.3,0.45,150
0.3,0.6,150
0.3,0.75,178
0.3,0.9,96
0.3,1.05,108
0.3,1.2,123
0.3,1.35,130
0.3,1.5,135
0.45,-1.5,61
0.45,-1.35,61
0.45,-1.2,61
0.45,-1.05,61
0.45,-0.9,62
0.45,-0.75,61
0.45,-0.6,70
0.45,-0.45,78
0.45,-0.3,92
0.45,-0.15,167
0.45,0.0,199
0.45,0.15,66
0.45,0.3,104
0.45,0.45,104
0.45,0.6,110
0.45,0.75,142
0.45,0.9,121
0.45,1.05,106
0.45,1.2,103
0.45,1.35,103
0.45,1.5,109
0.6,-1.5,24
0.6,-1.35,44
0.6,-1.2,44
0.6,-1.05,46
0.6,-0.9,46
0.6,-0.75,45
0.6,-0.6,51
0.6,-0.45,68
0.6,-0.3,83
0.6,-0.15,64
0.6,0.0,104
0.6,0.15,96
0.6,0.3,140
0.6,0.45,91
0.6,0.6,88
0.6,0.75,44
0.6,0.9,84
0.6,1.05,88
0.6,1.2,84
0.6,1.35,89
0.6,1.5,88
0.75,-1.5,23
0.75,-1.35,22
0.75,-1.2,39
0.75,-1.05,34
0.75,-0.9,31
0.75,-0.75,27
0.75,-0.6,46
0.75,-0.45,67
0.75,-0.3,84
0.75,-0.15,97
0.75,0.0,99
0.75,0.15,95
0.75,0.3,69
0.75,0.45,44
0.75,0.6,91
0.75,0.75,78
0.75,0.9,71
0.75,1.05,75
0.75,1.2,75
0.75,1.35,74
0.75,1.5,74
0.9,-1.5,19
0.9,-1.35,18
0.9,-1.2,23
0.9,-1.05,28
0.9,-0.9,22
0.9,-0.75,17
0.9,-0.6,1
0.9,-0.45,31
0.9,-0.3,59
0.9,-0.15,68
0.9,0.0,68
0.9,0.15,97
0.9,0.3,122
0.9,0.45,73
0.9,0.6,65
0.9,0.75,65
0.9,0.9,63
0.9,1.05,69
0.9,1.2,66
0.9,1.35,66
0.9,1.5,66
1.05,-1.5,19
1.05,-1.35,18
1.05,-1.2,17
1.05,-1.05,15
1.05,-0.9,22
1.05,-0.75,19
1.05,-0.6,8
1.05,-0.45,14
1.05,-0.3,55
1.05,-0.15,89
1.05,0.0,119
1.05,0.15,79
1.05,0.3,128
1.05,0.45,65
1.05,0.6,41
1.05,0.75,62
1.05,0.9,77
1.05,1.05,66
1.05,1.2,64
1.05,1.35,64
1.05,1.5,64
1.2,-1.5,18
1.2,-1.35,18
1.2,-1.2,17
1.2,-1.05,16
1.2,-0.9,15
1.2,-0.75,14
1.2,-0.6,18
1.2,-0.45,22
1.2,-0.3,51
1.2,-0.15,78
1.2,0.0,143
1.2,0.15,22
1.2,0.3,69
1.2,0.45,30
1.2,0.6,12
1.2,0.75,50
1.2,0.9,67
1.2,1.05,62
1.2,1.2,52
1.2,1.35,50
1.2,1.5,58
1.35,-1.5,18
1.35,-1.35,18
1.35,-1.2,18
1.35,-1.05,17
1.35,-0.9,17
1.35,-0.75,18
1.35,-0.6,21
1.35,-0.45,24
1.35,-0.3,20
1.35,-0.15,84
1.35,0.0,69
1.35,0.15,69
1.35,0.3,39
1.35,0.45,26
1.35,0.6,13
1.35,0.75,97
1.35,0.9,59
1.35,1.05,54
1.35,1.2,53
1.35,1.35,50
1.35,1.5,50
1.5,-1.5,18
1.5,-1.35,19
1.5,-1.2,18
1.5,-1.05,18
1.5,-0.9,18
1.5,-0.75,19
1.5,-0.6,21
1.5,-0.45,19
1.5,-0.3,19
1.5,-0.15,46
1.5,0.0,48
1.5,0.15,69
1.5,0.3,55
1.5,0.45,24
1.5,0.6,32
1.5,0.75,47
1.5,0.9,52
1.5,1.05,49
1.5,1.2,51
1.5,1.35,50
1.5,1.5,50
1.65,-1.5,18
1.65,-1.35,18
1.65,-1.2,22
1.65,-1.05,21
1.65,-0.9,20
1.65,-0.75,19
1.65,-0.6,19
1.65,-0.45,22
1.65,-0.3,35
1.65,-0.15,44
1.65,0.0,45
1.65,0.15,50
1.65,0.3,44
1.65,0.45,29
1.65,0.6,29
1.65,0.75,33
1.65,0.9,37
1.65,1.05,43
1.65,1.2,43
1.65,1.35,44
1.65,1.5,44
1.8,-1.5,18
1.8,-1.35,18
1.8,-1.2,18
1.8,-1.05,28
1.8,-0.9,24
1.8,-0.75,22
1.8,-0.6,8
1.8,-0.45,13
1.8,-0.3,40
1.8,-0.15,49
1.8,0.0,47
1.8,0.15,44
1.8,0.3,29
1.8,0.45,29
1.8,0.6,32
1.8,0.75,11
1.8,0.9,28
1.8,1.05,39
1.8,1.2,42
1.8,1.35,43
1.8,1.5,43
1.95,-1.5,24
1.95,-1.35,28
1.95,-1.2,28
1.95,-1.05,27
1.95,-0.9,26
1.95,-0.75,26
1.95,-0.6,15
1.95,-0.45,26
1.95,-0.3,54
1.95,-0.15,58
1.95,0.0,50
1.95,0.15,38
1.95,0.3,45
1.95,0.45,49
1.95,0.6,66
1.95,0.75,45
1.95,0.9,36
1.95,1.05,46
1.95,1.2,39
1.95,1.35,39
1.95,1.5,41
2.1,-1.5,27
2.1,-1.35,28
2.1,-1.2,28
2.1,-1.05,31
2.1,-0.9,31
2.1,-0.75,32
2.1,-0.6,35
2.1,-0.45,44
2.1,-0.3,64
2.1,-0.15,52
2.1,0.0,44
2.1,0.15,44
2.1,0.3,58
2.1,0.45,76
2.1,0.6,84
2.1,0.75,106
2.1,0.9,58
2.1,1.05,50
2.1,1.2,52
2.1,1.35,53
2.1,1.5,54
2.25,-1.5,26
2.25,-1.35,26
2.25,-1.2,26
2.25,-1.05,26
2.25,-0.9,25
2.25,-0.75,29
2.25,-0.6,34
2.25,-0.45,41
2.25,-0.3,43
2.25,-0.15,42
2.25,0.0,5
2.25,0.15,34
2.25,0.3,68
2.25,0.45,134
2.25,0.6,112
2.25,0.75,68
2.25,0.9,56
2.25,1.05,57
2.25,1.2,53
2.25,1.35,59
2.25,1.5,62
2.4,-1.5,25
2.4,-1.35,26
2.4,-1.2,26
2.4,-1.05,25
2.4,-0.9,24
2.4,-0.75,24
2.4,-0.6,28
2.4,-0.45,24
2.4,-0.3,16
2.4,-0.15,31
2.4,0.0,10
2.4,0.15,4
2.4,0.3,81
2.4,0.45,95
2.4,0.6,97
2.4,0.75,86
2.4,0.9,42
2.4,1.05,41
2.4,1.2,50
2.4,1.35,42
2.4,1.5,33
2.55,-1.5,17
2.55,-1.35,19
2.55,-1.2,26
2.55,-1.05,26
2.55,-0.9,24
2.55,-0.75,9
2.55,-0.6,7
2.55,-0.45,16
2.55,-0.3,18
2.55,-0.15,26
2.55,0.0,5
2.55,0.15,26
2.55,0.3,79
2.55,0.45,255
2.55,0.6,118
2.55,0.75,37
2.55,0.9,0
2.55,1.05,21
2.55,1.2,31
2.55,1.35,51
2.55,1.5,57
2.7,-1.5,26
2.7,-1.35,26
2.7,-1.2,26
2.7,-1.05,26
2.7,-0.9,20
2.7,-0.75,3
2.7,-0.6,0
2.7,-0.45,26
2.7,-0.3,18
2.7,-0.15,53
2.7,0.0,28
2.7,0.15,38
2.7,0.3,43
2.7,0.45,70
2.7,0.6,105
2.7,0.75,29
2.7,0.9,24
2.7,1.05,23
2.7,1.2,36
2.7,1.35,46
2.7,1.5,57
2.85,-1.5,24
2.85,-1.35,26
2.85,-1.2,26
2.85,-1.05,26
2.85,-0.9,23
2.85,-0.75,19
2.85,-0.6,28
2.85,-0.45,44
2.85,-0.3,62
2.85,-0.15,74
2.85,0.0,44
2.85,0.15,32
2.85,0.3,33
2.85,0.45,0
2.85,0.6,121
2.85,0.75,45
2.85,0.9,8
2.85,1.05,26
2.85,1.2,43
2.85,1.35,51
2.85,1.5,57
3.0,-1.5,25
3.0,-1.35,24
3.0,-1.2,22
3.0,-1.05,20
3.0,-0.9,20
3.0,-0.75,7
3.0,-0.6,26
3.0,-0.45,56
3.0,-0.3,77
3.0,-0.15,83
3.0,0.0,32
3.0,0.15,43
3.0,0.3,43
3.0,0.45,63
3.0,0.6,39
3.0,0.75,17
3.0,0.9,47
3.0,1.05,57
3.0,1.2,66
3.0,1.35,68
3.0,1.5,68
3.15,-1.5,26
3.15,-1.35,25
3.15,-1.2,24
3.15,-1.05,21
3.15,-0.9,20
3.15,-0.75,3
3.15,-0.6,29
3.15,-0.45,51
3.15,-0.3,63
3.15,-0.15,70
3.15,0.0,60
3.15,0.15,119
3.15,0.3,55
3.15,0.45,80
3.15,0.6,92
3.15,0.75,70
3.15,0.9,26
3.15,1.05,109
3.15,1.2,101
3.15,1.35,92
3.15,1.5,88
3.3,-1.5,25
3.3,-1.35,26
3.3,-1.2,29
3.3,-1.05,28
3.3,-0.9,24
3.3,-0.75,28
3.3,-0.6,45
3.3,-0.45,49
3.3,-0.3,73
3.3,-0.15,67
3.3,0.0,85
3.3,0.15,25
3.3,0.3,57
3.3,0.45,55
3.3,0.6,139
3.3,0.75,111
3.3,0.9,255
3.3,1.05,177
3.3,1.2,123
3.3,1.35,100
3.3,1.5,90
3.45,-1.5,25
3.45,-1.35,25
3.45,-1.2,26
3.45,-1.05,30
3.45,-0.9,33
3.45,-0.75,37
3.45,-0.6,43
3.45,-0.45,53
3.45,-0.3,86
3.45,-0.15,64
3.45,0.0,53
3.45,0.15,185
3.45,0.3,72
3.45,0.45,109
3.45,0.6,111
3.45,0.75,70
3.45,0.9,122
3.45,1.05,131
3.45,1.2,111
3.45,1.35,94
3.45,1.5,88
3.6,-1.5,25
3.6,-1.35,25
3.6,-1.2,25
3.6,-1.05,25
3.6,-0.9,25
3.6,-0.75,25
3.6,-0.6,33
3.6,-0.45,51
3.6,-0.3,59
3.6,-0.15,97
3.6,0.0,9
3.6,0.15,23
3.6,0.3,62
3.6,0.45,66
3.6,0.6,55
3.6,0.75,56
3.6,0.9,79
3.6,1.05,93
3.6,1.2,94
3.6,1.35,86
3.6,1.5,84
3.75,-1.5,25
3.75,-1.35,25
3.75,-1.2,25
3.75,-1.05,25
3.75,-0.9,35
3.75,-0.75,27
3.75,-0.6,27
3.75,-0.45,12
3.75,-0.3,90
3.75,-0.15,108
3.75,0.0,178
3.75,0.15,53
3.75,0.3,66
3.75,0.45,22
3.75,0.6,15
3.75,0.75,32
3.75,0.9,60
3.75,1.05,78
3.75,1.2,84
3.75,1.35,84
3.75,1.5,71
3.9,-1.5,36
3.9,-1.35,37
3.9,-1.2,33
3.9,-1.05,41
3.9,-0.9,39
3.9,-0.75,26
3.9,-0.6,12
3.9,-0.45,56
3.9,-0.3,64
3.9,-0.15,62
3.9,0.0,120
3.9,0.15,10
3.9,0.3,45
3.9,0.45,24
3.9,0.6,15
3.9,0.75,34
3.9,0.9,48
3.9,1.05,75
3.9,1.2,59
3.9,1.35,59
3.9,1.5,59
4.05,-1.5,42
4.05,-1.35,39
4.05,-1.2,40
4.05,-1.05,41
4.05,-0.9,32
4.05,-0.75,22
4.05,-0.6,12
4.05,-0.45,56
4.05,-0.3,107
4.05,-0.15,38
4.05,0.0,78
4.05,0.15,60
4.05,0.3,103
4.05,0.45,131
4.05,0.6,94
4.05,0.75,76
4.05,0.9,61
4.05,1.05,59
4.05,1.2,60
4.05,1.35,69
4.05,1.5,71
4.2,-1.5,47
4.2,-1.35,45
4.2,-1.2,41
4.2,-1.05,33
4.2,-0.9,6
4.2,-0.75,12
4.2,-0.6,60
4.2,-0.45,90
4.2,-0.3,106
4.2,-0.15,122
4.2,0.0,164
4.2,0.15,164
4.2,0.3,205
4.2,0.45,219
4.2,0.6,89
4.2,0.75,52
4.2,0.9,64
4.2,1.05,71
4.2,1.2,78
4.2,1.35,69
4.2,1.5,71
4.35,-1.5,47
4.35,-1.35,49
4.35,-1.2,48
4.35,-1.05,43
4.35,-0.9,32
4.35,-0.75,51
4.35,-0.6,81
4.35,-0.45,92
4.35,-0.3,63
4.35,-0.15,84
4.35,0.0,87
4.35,0.15,65
4.35,0.3,217
4.35,0.45,87
4.35,0.6,94
4.35,0.75,92
4.35,0.9,47
4.35,1.05,64
4.35,1.2,75
4.35,1.35,81
4.35,1.5,84
4.5,-1.5,52
4.5,-1.35,53
4.5,-1.2,55
4.5,-1.05,57
4.5,-0.9,75
4.5,-0.75,114
4.5,-0.6,155
4.5,-0.45,79
4.5,-0.3,5
4.5,-0.15,30
4.5,0.0,56
4.5,0.15,24
4.5,0.3,27
4.5,0.45,56
4.5,0.6,135
4.5,0.75,113
4.5,0.9,67
4.5,1.05,70
4.5,1.2,80
4.5,1.35,85
4.5,1.5,88
4.65,-1.5,52
4.65,-1.35,52
4.65,-1.2,58
4.65,-1.05,66
4.65,-0.9,79
4.65,-0.75,136
4.65,-0.6,220
4.65,-0.45,70
4.65,-0.3,49
4.65,-0.15,24
4.65,0.0,24
4.65,0.15,127
4.65,0.3,63
4.65,0.45,93
4.65,0.6,161
4.65,0.75,118
4.65,0.9,9
4.65,1.05,64
4.65,1.2,84
4.65,1.35,90
4.65,1.5,93
4.8,-1.5,53
4.8,-1.35,57
4.8,-1.2,57
4.8,-1.05,55
4.8,-0.9,57
4.8,-0.75,68
4.8,-0.6,67
4.8,-0.45,60
4.8,-0.3,63
4.8,-0.15,65
4.8,0.0,67
4.8,0.15,81
4.8,0.3,171
4.8,0.45,66
4.8,0.6,119
4.8,0.75,96
4.8,0.9,72
4.8,1.05,74
4.8,1.2,85
4.8,1.35,88
4.8,1.5,81
4.95,-1.5,51
4.95,-1.35,50
4.95,-1.2,48
4.95,-1.05,42
4.95,-0.9,19
4.95,-0.75,0
4.95,-0.6,46
4.95,-0.45,46
4.95,-0.3,79
4.95,-0.15,48
4.95,0.0,19
4.95,0.15,15
4.95,0.3,236
4.95,0.45,143
4.95,0.6,31
4.95,0.75,66
4.95,0.9,79
4.95,1.05,83
4.95,1.2,79
4.95,1.35,81
4.95,1.5,83
5.1,-1.5,55
5.1,-1.35,53
5.1,-1.2,52
5.1,-1.05,44
5.1,-0.9,38
5.1,-0.75,36
5.1,-0.6,51
5.1,-0.45,54
5.1,-0.3,49
5.1,-0.15,61
5.1,0.0,23
5.1,0.15,115
5.1,0.3,33
5.1,0.45,39
5.1,0.6,40
5.1,0.75,40
5.1,0.9,40
5.1,1.05,39
5.1,1.2,38
5.1,1.35,38
5.1,1.5,42
5.25,-1.5,60
5.25,-1.35,61
5.25,-1.2,58
5.25,-1.05,60
5.25,-0.9,44
5.25,-0.75,69
5.25,-0.6,84
5.25,-0.45,103
5.25,-0.3,99
5.25,-0.15,62
5.25,0.0,33
5.25,0.15,88
5.25,0.3,87
5.25,0.45,22
5.25,0.6,42
5.25,0.75,34
5.25,0.9,41
5.25,1.05,39
5.25,1.2,39
5.25,1.35,38
5.25,1.5,38
5.4,-1.5,79
5.4,-1.35,59
5.4,-1.2,58
5.4,-1.05,60
5.4,-0.9,49
5.4,-0.75,56
5.4,-0.6,91
5.4,-0.45,105
5.4,-0.3,138
5.4,-0.15,73
5.4,0.0,11
5.4,0.15,77
5.4,0.3,68
5.4,0.45,40
5.4,0.6,4
5.4,0.75,42
5.4,0.9,34
5.4,1.05,34
5.4,1.2,34
5.4,1.35,34
5.4,1.5,34
5.55,-1.5,65
5.55,-1.35,76
5.55,-1.2,73
5.55,-1.05,69
5.55,-0.9,63
5.55,-0.75,60
5.55,-0.6,78
5.55,-0.45,96
5.55,-0.3,91
5.55,-0.15,57
5.55,0.0,36
5.55,0.15,77
5.55,0.3,50
5.55,0.45,61
5.55,0.6,35
5.55,0.75,47
5.55,0.9,44
5.55,1.05,55
5.55,1.2,57
5.55,1.35,66
5.55,1.5,63
5.7,-1.5,57
5.7,-1.35,57
5.7,-1.2,65
5.7,-1.05,59
5.7,-0.9,48
5.7,-0.75,10
5.7,-0.6,37
5.7,-0.45,86
5.7,-0.3,86
5.7,-0.15,80
5.7,0.0,0
5.7,0.15,52
5.7,0.3,67
5.7,0.45,50
5.7,0.6,50
5.7,0.75,62
5.7,0.9,54
5.7,1.05,57
5.7,1.2,58
5.7,1.35,58
5.7,1.5,59
5.85,-1.5,57
5.85,-1.35,57
5.85,-1.2,65
5.85,-1.05,65
5.85,-0.9,65
5.85,-0.75,51
5.85,-0.6,50
5.85,-0.45,66
5.85,-0.3,128
5.85,-0.15,104
5.85,0.0,81
5.85,0.15,45
5.85,0.3,41
5.85,0.45,79
5.85,0.6,99
5.85,0.75,67
5.85,0.9,66
5.85,1.05,64
5.85,1.2,60
5.85,1.35,58
5.85,1.5,57
6.0,-1.5,58
6.0,-1.35,58
6.0,-1.2,57
6.0,-1.05,54
6.0,-0.9,58
6.0,-0.75,65
6.0,-0.6,62
6.0,-0.45,82
6.0,-0.3,111
6.0,-0.15,46
6.0,0.0,31
6.0,0.15,7
6.0,0.3,165
6.0,0.45,78
6.0,0.6,64
6.0,0.75,57
6.0,0.9,65
6.0,1.05,66
6.0,1.2,60
6.0,1.35,57
6.0,1.5,56
6.15,-1.5,56
6.15,-1.35,45
6.15,-1.2,50
6.15,-1.05,49
6.15,-0.9,42
6.15,-0.75,41
6.15,-0.6,60
6.15,-0.45,65
6.15,-0.3,43
6.15,-0.15,30
6.15,0.0,36
6.15,0.15,29
6.15,0.3,26
6.15,0.45,29
6.15,0.6,44
6.15,0.75,95
6.15,0.9,74
6.15,1.05,58
6.15,1.2,53
6.15,1.35,51
6.15,1.5,49
6.3,-1.5,41
6.3,-1.35,41
6.3,-1.2,39
6.3,-1.05,38
6.3,-0.9,29
6.3,-0.75,29
6.3,-0.6,35
6.3,-0.45,43
6.3,-0.3,45
6.3,-0.15,30
6.3,0.0,30
6.3,0.15,92
6.3,0.3,40
6.3,0.45,1
6.3,0.6,27
6.3,0.75,102
6.3,0.9,52
6.3,1.05,37
6.3,1.2,40
6.3,1.35,43
6.3,1.5,43
6.45,-1.5,44
6.45,-1.35,44
6.45,-1.2,43
6.45,-1.05,42
6.45,-0.9,40
6.45,-0.75,36
6.45,-0.6,1
6.45,-0.45,44
6.45,-0.3,44
6.45,-0.15,60
6.45,0.0,78
6.45,0.15,118
6.45,0.3,0
6.45,0.45,42
6.45,0.6,21
6.45,0.75,1
6.45,0.9,21
6.45,1.05,28
6.45,1.2,29
6.45,1.35,31
6.45,1.5,34
6.6,-1.5,36
6.6,-1.35,44
6.6,-1.2,61
6.6,-1.05,63
6.6,-0.9,59
6.6,-0.75,50
6.6,-0.6,35
6.6,-0.45,51
6.6,-0.3,54
6.6,-0.15,45
6.6,0.0,58
6.6,0.15,30
6.6,0.3,83
6.6,0.45,60
6.6,0.6,3
6.6,0.75,23
6.6,0.9,0
6.6,1.05,19
6.6,1.2,26
6.6,1.35,26
6.6,1.5,29
6.75,-1.5,51
6.75,-1.35,53
6.75,-1.2,55
6.75,-1.05,58
6.75,-0.9,65
6.75,-0.75,82
6.75,-0.6,96
6.75,-0.45,79
6.75,-0.3,69
6.75,-0.15,13
6.75,0.0,35
6.75,0.15,30
6.75,0.3,39
6.75,0.45,34
6.75,0.6,37
6.75,0.75,26
6.75,0.9,18
6.75,1.05,22
6.75,1.2,30
6.75,1.35,32
6.75,1.5,32
6.9,-1.5,47
6.9,-1.35,49
6.9,-1.2,51
6.9,-1.05,60
6.9,-0.9,72
6.9,-0.75,103
6.9,-0.6,173
6.9,-0.45,121
6.9,-0.3,56
6.9,-0.15,47
6.9,0.0,94
6.9,0.15,38
6.9,0.3,45
6.9,0.45,42
6.9,0.6,44
6.9,0.75,42
6.9,0.9,34
6.9,1.05,29
6.9,1.2,27
6.9,1.35,32
6.9,1.5,32
7.05,-1.5,46
7.05,-1.35,47
7.05,-1.2,49
7.05,-1.05,52
7.05,-0.9,58
7.05,-0.75,75
7.05,-0.6,91
7.05,-0.45,62
7.05,-0.3,45
7.05,-0.15,22
7.05,0.0,6
7.05,0.15,3
7.05,0.3,145
7.05,0.45,42
7.05,0.6,50
7.05,0.75,43
7.05,0.9,39
7.05,1.05,35
7.05,1.2,32
7.05,1.35,29
7.05,1.5,29
7.2,-1.5,47
7.2,-1.35,44
7.2,-1.2,44
7.2,-1.05,47
7.2,-0.9,48
7.2,-0.75,49
7.2,-0.6,45
7.2,-0.45,35
7.2,-0.3,54
7.2,-0.15,74
7.2,0.0,63
7.2,0.15,36
7.2,0.3,191
7.2,0.45,72
7.2,0.6,88
7.2,0.75,41
7.2,0.9,17
7.2,1.05,24
7.2,1.2,30
7.2,1.35,34
7.2,1.5,32
7.35,-1.5,42
7.35,-1.35,41
7.35,-1.2,39
7.35,-1.05,37
7.35,-0.9,34
7.35,-0.75,36
7.35,-0.6,41
7.35,-0.45,35
7.35,-0.3,40
7.35,-0.15,75
7.35,0.0,64
7.35,0.15,9
7.35,0.3,9
7.35,0.45,41
7.35,0.6,47
7.35,0.75,26
7.35,0.9,0
7.35,1.05,17
7.35,1.2,33
7.35,1.35,35
7.35,1.5,37
7.5,-1.5,29
7.5,-1.35,29
7.5,-1.2,27
7.5,-1.05,25
7.5,-0.9,17
7.5,-0.75,1
7.5,-0.6,38
7.5,-0.45,38
7.5,-0.3,28
7.5,-0.15,98
7.5,0.0,85
7.5,0.15,65
7.5,0.3,35
7.5,0.45,0
7.5,0.6,24
7.5,0.75,28
7.5,0.9,32
7.5,1.05,36
7.5,1.2,41
7.5,1.35,45
7.5,1.5,47
7.65,-1.5,30
7.65,-1.35,29
7.65,-1.2,28
7.65,-1.05,28
7.65,-0.9,23
7.65,-0.75,15
7.65,-0.6,26
7.65,-0.45,31
7.65,-0.3,28
7.65,-0.15,43
7.65,0.0,45
7.65,0.15,45
7.65,0.3,45
7.65,0.45,44
7.65,0.6,41
7.65,0.75,45
7.65,0.9,65
7.65,1.05,69
7.65,1.2,70
7.65,1.35,74
7.65,1.5,75
7.8,-1.5,30
7.8,-1.35,30
7.8,-1.2,29
7.8,-1.05,28
7.8,-0.9,29
7.8,-0.75,29
7.8,-0.6,24
7.8,-0.45,27
7.8,-0.3,45
7.8,-0.15,59
7.8,0.0,66
7.8,0.15,31
7.8,0.3,111
7.8,0.45,69
7.8,0.6,86
7.8,0.75,103
7.8,0.9,102
7.8,1.05,95
7.8,1.2,90
7.8,1.35,89
7.8,1.5,86
7.95,-1.5,30
7.95,-1.35,31
7.95,-1.2,33
7.95,-1.05,33
7.95,-0.9,33
7.95,-0.75,31
7.95,-0.6,31
7.95,-0.45,24
7.95,-0.3,28
7.95,-0.15,36
7.95,0.0,92
7.95,0.15,11
7.95,0.3,32
7.95,0.45,45
7.95,0.6,133
7.95,0.75,181
7.95,0.9,144
7.95,1.05,114
7.95,1.2,112
7.95,1.35,96
7.95,1.5,91
8.1,-1.5,22
8.1,-1.35,22
8.1,-1.2,27
8.1,-1.05,31
8.1,-0.9,33
8.1,-0.75,33
8.1,-0.6,25
8.1,-0.45,24
8.1,-0.3,24
8.1,-0.15,45
8.1,0.0,59
8.1,0.15,44
8.1,0.3,69
8.1,0.45,65
8.1,0.6,255
8.1,0.75,167
8.1,0.9,138
8.1,1.05,119
8.1,1.2,110
8.1,1.35,104
8.1,1.5,99
8.25,-1.5,22
8.25,-1.35,23
8.25,-1.2,25
8.25,-1.05,28
8.25,-0.9,33
8.25,-0.75,33
8.25,-0.6,31
8.25,-0.45,45
8.25,-0.3,41
8.25,-0.15,182
8.25,0.0,44
8.25,0.15,48
8.25,0.3,52
8.25,0.45,72
8.25,0.6,72
8.25,0.75,101
8.25,0.9,105
8.25,1.05,101
8.25,1.2,97
8.25,1.35,94
8.25,1.5,91
8.4,-1.5,22
8.4,-1.35,22
8.4,-1.2,22
8.4,-1.05,22
8.4,-0.9,22
8.4,-0.75,24
8.4,-0.6,33
8.4,-0.45,94
8.4,-0.3,44
8.4,-0.15,199
8.4,0.0,15
8.4,0.15,0
8.4,0.3,16
8.4,0.45,60
8.4,0.6,45
8.4,0.75,65
8.4,0.9,76
8.4,1.05,80
8.4,1.2,84
8.4,1.35,83
8.4,1.5,90
8.55,-1.5,42
8.55,-1.35,38
8.55,-1.2,37
8.55,-1.05,36
8.55,-0.9,22
8.55,-0.75,18
8.55,-0.6,5
8.55,-0.45,13
8.55,-0.3,4
8.55,-0.15,35
8.55,0.0,90
8.55,0.15,42
8.55,0.3,25
8.55,0.45,0
8.55,0.6,24
8.55,0.75,27
8.55,0.9,54
8.55,1.05,64
8.55,1.2,67
8.55,1.35,73
8.55,1.5,74
8.7,-1.5,47
8.7,-1.35,46
8.7,-1.2,45
8.7,-1.05,38
8.7,-0.9,42
8.7,-0.75,33
8.7,-0.6,22
8.7,-0.45,21
8.7,-0.3,21
8.7,-0.15,21
8.7,0.0,33
8.7,0.15,47
8.7,0.3,25
8.7,0.45,13
8.7,0.6,17
8.7,0.75,22
8.7,0.9,23
8.7,1.05,24
8.7,1.2,42
8.7,1.35,66
8.7,1.5,68
8.85,-1.5,52
8.85,-1.35,52
8.85,-1.2,52
8.85,-1.05,48
8.85,-0.9,51
8.85,-0.75,50
8.85,-0.6,62
8.85,-0.45,91
8.85,-0.3,91
8.85,-0.15,48
8.85,0.0,19
8.85,0.15,49
8.85,0.3,29
8.85,0.45,16
8.85,0.6,0
8.85,0.75,27
8.85,0.9,33
8.85,1.05,41
8.85,1.2,61
8.85,1.35,63
8.85,1.5,64
9.0,-1.5,55
9.0,-1.35,55
9.0,-1.2,55
9.0,-1.05,51
9.0,-0.9,53
9.0,-0.75,59
9.0,-0.6,70
9.0,-0.45,105
9.0,-0.3,73
9.0,-0.15,89
9.0,0.0,101
9.0,0.15,19
9.0,0.3,0
9.0,0.45,37
9.0,0.6,42
9.0,0.75,36
9.0,0.9,55
9.0,1.05,58
9.0,1.2,59
9.0,1.35,60
9.0,1.5,60
9.15,-1.5,53
9.15,-1.35,53
9.15,-1.2,54
9.15,-1.05,55
9.15,-0.9,55
9.15,-0.75,55
9.15,-0.6,64
9.15,-0.45,72
9.15,-0.3,72
9.15,-0.15,101
9.15,0.0,54
9.15,0.15,95
9.15,0.3,21
9.15,0.45,89
9.15,0.6,57
9.15,0.75,68
9.15,0.9,69
9.15,1.05,67
9.15,1.2,69
9.15,1.35,64
9.15,1.5,63
9.3,-1.5,44
9.3,-1.35,44
9.3,-1.2,51
9.3,-1.05,52
9.3,-0.9,55
9.3,-0.75,55
9.3,-0.6,38
9.3,-0.45,17
9.3,-0.3,43
9.3,-0.15,106
9.3,0.0,75
9.3,0.15,92
9.3,0.3,66
9.3,0.45,48
9.3,0.6,121
9.3,0.75,122
9.3,0.9,105
9.3,1.05,77
9.3,1.2,72
9.3,1.35,80
9.3,1.5,78
9.45,-1.5,21
9.45,-1.35,26
9.45,-1.2,27
9.45,-1.05,28
9.45,-0.9,32
9.45,-0.75,42
9.45,-0.6,71
9.45,-0.45,38
9.45,-0.3,0
9.45,-0.15,0
9.45,0.0,28
9.45,0.15,92
9.45,0.3,217
9.45,0.45,106
9.45,0.6,244
9.45,0.75,153
9.45,0.9,121
9.45,1.05,111
9.45,1.2,94
9.45,1.35,77
9.45,1.5,77
9.6,-1.5,20
9.6,-1.35,21
9.6,-1.2,21
9.6,-1.05,22
9.6,-0.9,31
9.6,-0.75,32
9.6,-0.6,32
9.6,-0.45,40
9.6,-0.3,40
9.6,-0.15,33
9.6,0.0,15
9.6,0.15,56
9.6,0.3,77
9.6,0.45,64
9.6,0.6,114
9.6,0.75,112
9.6,0.9,104
9.6,1.05,101
9.6,1.2,88
9.6,1.35,87
9.6,1.5,86
9.75,-1.5,18
9.75,-1.35,18
9.75,-1.2,18
9.75,-1.05,18
9.75,-0.9,28
9.75,-0.75,21
9.75,-0.6,7
9.75,-0.45,31
9.75,-0.3,65
9.75,-0.15,141
9.75,0.0,4
9.75,0.15,39
9.75,0.3,51
9.75,0.45,114
9.75,0.6,90
9.75,0.75,47
9.75,0.9,62
9.75,1.05,78
9.75,1.2,82
9.75,1.35,87
9.75,1.5,87
9.9,-1.5,23
9.9,-1.35,16
9.9,-1.2,16
9.9,-1.05,16
9.9,-0.9,19
9.9,-0.75,14
9.9,-0.6,6
9.9,-0.45,26
9.9,-0.3,162
9.9,-0.15,47
9.9,0.0,47
9.9,0.15,38
9.9,0.3,37
9.9,0.45,38
9.9,0.6,40
9.9,0.75,20
9.9,0.9,54
9.9,1.05,67
9.9,1.2,69
9.9,1.35,72
9.9,1.5,73
10.05,-1.5,23
10.05,-1.35,21
10.05,-1.2,19
10.05,-1.05,16
10.05,-0.9,16
10.05,-0.75,17
10.05,-0.6,19
10.05,-0.45,20
10.05,-0.3,20
10.05,-0.15,20
10.05,0.0,28
10.05,0.15,26
10.05,0.3,16
10.05,0.45,21
10.05,0.6,77
10.05,0.75,67
10.05,0.9,70
10.05,1.05,86
10.05,1.2,92
10.05,1.35,95
10.05,1.5,97
10.2,-1.5,28
10.2,-1.35,25
10.2,-1.2,33
10.2,-1.05,29
10.2,-0.9,17
10.2,-0.75,22
10.2,-0.6,27
10.2,-0.45,19
10.2,-0.3,38
10.2,-0.15,50
10.2,0.0,60
10.2,0.15,57
10.2,0.3,63
10.2,0.45,67
10.2,0.6,106
10.2,0.75,91
10.2,0.9,80
10.2,1.05,76
10.2,1.2,76
10.2,1.35,76
10.2,1.5,76
10.35,-1.5,37
10.35,-1.35,33
10.35,-1.2,39
10.35,-1.05,25
10.35,-0.9,16
10.35,-0.75,17
10.35,-0.6,43
10.35,-0.45,50
10.35,-0.3,173
10.35,-0.15,185
10.35,0.0,79
10.35,0.15,80
10.35,0.3,123
10.35,0.45,236
10.35,0.6,155
10.35,0.75,100
10.35,0.9,82
10.35,1.05,76
10.35,1.2,76
10.35,1.35,76
10.35,1.5,76
10.5,-1.5,43
10.5,-1.35,41
10.5,-1.2,34
10.5,-1.05,21
10.5,-0.9,0
10.5,-0.75,16
10.5,-0.6,46
10.5,-0.45,93
10.5,-0.3,130
10.5,-0.15,71
10.5,0.0,67
10.5,0.15,73
10.5,0.3,69
10.5,0.45,52
10.5,0.6,87
10.5,0.75,86
10.5,0.9,80
10.5,1.05,76
10.5,1.2,76
10.5,1.35,76
10.5,1.5,76
10.65,-1.5,54
10.65,-1.35,54
10.65,-1.2,56
10.65,-1.05,60
10.65,-0.9,66
10.65,-0.75,78
10.65,-0.6,79
10.65,-0.45,90
10.65,-0.3,77
10.65,-0.15,16
10.65,0.0,45
10.65,0.15,51
10.65,0.3,60
10.65,0.45,18
10.65,0.6,46
10.65,0.75,72
10.65,0.9,81
10.65,1.05,84
10.65,1.2,85
10.65,1.35,85
10.65,1.5,92
10.8,-1.5,77
10.8,-1.35,78
10.8,-1.2,83
10.8,-1.05,99
10.8,-0.9,153
10.8,-0.75,158
10.8,-0.6,84
10.8,-0.45,77
10.8,-0.3,85
10.8,-0.15,16
10.8,0.0,40
10.8,0.15,40
10.8,0.3,46
10.8,0.45,36
10.8,0.6,53
10.8,0.75,80
10.8,0.9,93
10.8,1.05,110
10.8,1.2,114
10.8,1.35,117
10.8,1.5,119
10.95,-1.5,82
10.95,-1.35,85
10.95,-1.2,93
10.95,-1.05,109
10.95,-0.9,142
10.95,-0.75,135
10.95,-0.6,85
10.95,-0.45,79
10.95,-0.3,79
10.95,-0.15,40
10.95,0.0,46
10.95,0.15,53
10.95,0.3,70
10.95,0.45,67
10.95,0.6,98
10.95,0.75,103
10.95,0.9,110
10.95,1.05,124
10.95,1.2,124
10.95,1.35,124
10.95,1.5,124
11.1,-1.5,79
11.1,-1.35,86
11.1,-1.2,91
11.1,-1.05,98
11.1,-0.9,102
11.1,-0.75,90
11.1,-0.6,57
11.1,-0.45,57
11.1,-0.3,49
11.1,-0.15,56
11.1,0.0,67
11.1,0.15,82
11.1,0.3,110
11.1,0.45,137
11.1,0.6,145
11.1,0.75,136
11.1,0.9,132
11.1,1.05,124
11.1,1.2,122
11.1,1.35,119
11.1,1.5,111
11.25,-1.5,70
11.25,-1.35,73
11.25,-1.2,80
11.25,-1.05,82
11.25,-0.9,86
11.25,-0.75,83
11.25,-0.6,66
11.25,-0.45,61
11.25,-0.3,17
11.25,-0.15,58
11.25,0.0,89
11.25,0.15,102
11.25,0.3,75
11.25,0.45,189
11.25,0.6,180
11.25,0.75,158
11.25,0.9,150
11.25,1.05,145
11.25,1.2,140
11.25,1.35,136
11.25,1.5,133
11.4,-1.5,68
11.4,-1.35,70
11.4,-1.2,71
11.4,-1.05,78
11.4,-0.9,79
11.4,-0.75,90
11.4,-0.6,152
11.4,-0.45,72
11.4,-0.3,59
11.4,-0.15,76
11.4,0.0,119
11.4,0.15,106
11.4,0.3,67
11.4,0.45,176
11.4,0.6,172
11.4,0.75,166
11.4,0.9,161
11.4,1.05,150
11.4,1.2,142
11.4,1.35,136
11.4,1.5,131
11.55,-1.5,64
11.55,-1.35,64
11.55,-1.2,64
11.55,-1.05,68
11.55,-0.9,59
11.55,-0.75,66
11.55,-0.6,77
11.55,-0.45,20
11.55,-0.3,57
11.55,-0.15,135
11.55,0.0,79
11.55,0.15,96
11.55,0.3,255
11.55,0.45,165
11.55,0.6,161
11.55,0.75,193
11.55,0.9,176
11.55,1.05,154
11.55,1.2,142
11.55,1.35,136
11.55,1.5,131
11.7,-1.5,68
11.7,-1.35,68
11.7,-1.2,68
11.7,-1.05,58
11.7,-0.9,59
11.7,-0.75,66
11.7,-0.6,61
11.7,-0.45,36
11.7,-0.3,31
11.7,-0.15,108
11.7,0.0,95
11.7,0.15,99
11.7,0.3,130
11.7,0.45,104
11.7,0.6,197
11.7,0.75,169
11.7,0.9,161
11.7,1.05,147
11.7,1.2,139
11.7,1.35,135
11.7,1.5,128
11.85,-1.5,52
11.85,-1.35,55
11.85,-1.2,55
11.85,-1.05,50
11.85,-0.9,48
11.85,-0.75,45
11.85,-0.6,48
11.85,-0.45,51
11.85,-0.3,45
11.85,-0.15,55
11.85,0.0,62
11.85,0.15,54
11.85,0.3,96
11.85,0.45,62
11.85,0.6,84
11.85,0.75,125
11.85,0.9,133
11.85,1.05,133
11.85,1.2,131
11.85,1.35,126
11.85,1.5,123
12.0,-1.5,50
12.0,-1.35,50
12.0,-1.2,49
12.0,-1.05,46
12.0,-0.9,40
12.0,-0.75,27
12.0,-0.6,25
12.0,-0.45,98
12.0,-0.3,74
12.0,-0.15,57
12.0,0.0,50
12.0,0.15,40
12.0,0.3,26
12.0,0.45,17
12.0,0.6,64
12.0,0.75,96
12.0,0.9,112
12.0,1.05,118
12.0,1.2,117
12.0,1.35,115
12.0,1.5,111
12.15,-1.5,52
12.15,-1.35,53
12.15,-1.2,46
12.15,-1.05,53
12.15,-0.9,43
12.15,-0.75,34
12.15,-0.6,22
12.15,-0.45,64
12.15,-0.3,54
12.15,-0.15,48
12.15,0.0,46
12.15,0.15,40
12.15,0.3,30
12.15,0.45,41
12.15,0.6,59
12.15,0.75,79
12.15,0.9,99
12.15,1.05,96
12.15,1.2,105
12.15,1.35,103
12.15,1.5,101
12.3,-1.5,59
12.3,-1.35,59
12.3,-1.2,59
12.3,-1.05,59
12.3,-0.9,57
12.3,-0.75,50
12.3,-0.6,50
12.3,-0.45,66
12.3,-0.3,142
12.3,-0.15,0
12.3,0.0,47
12.3,0.15,41
12.3,0.3,23
12.3,0.45,30
12.3,0.6,44
12.3,0.75,66
12.3,0.9,69
12.3,1.05,84
12.3,1.2,85
12.3,1.35,90
12.3,1.5,87
12.45,-1.5,53
12.45,-1.35,57
12.45,-1.2,59
12.45,-1.05,59
12.45,-0.9,59
12.45,-0.75,59
12.45,-0.6,62
12.45,-0.45,98
12.45,-0.3,149
12.45,-0.15,93
12.45,0.0,61
12.45,0.15,52
12.45,0.3,40
12.45,0.45,23
12.45,0.6,34
12.45,0.75,37
12.45,0.9,57
12.45,1.05,60
12.45,1.2,69
12.45,1.35,65
12.45,1.5,70
12.6,-1.5,42
12.6,-1.35,48
12.6,-1.2,56
12.6,-1.05,59
12.6,-0.9,54
12.6,-0.75,54
12.6,-0.6,65
12.6,-0.45,100
12.6,-0.3,164
12.6,-0.15,79
12.6,0.0,17
12.6,0.15,42
12.6,0.3,31
12.6,0.45,16
12.6,0.6,21
12.6,0.75,25
12.6,0.9,33
12.6,1.05,36
12.6,1.2,46
12.6,1.35,39
12.6,1.5,41
12.75,-1.5,22
12.75,-1.35,33
12.75,-1.2,48
12.75,-1.05,50
12.75,-0.9,51
12.75,-0.75,45
12.75,-0.6,49
12.75,-0.45,33
12.75,-0.3,68
12.75,-0.15,56
12.75,0.0,32
12.75,0.15,40
12.75,0.3,19
12.75,0.45,0
12.75,0.6,6
12.75,0.75,24
12.75,0.9,35
12.75,1.05,36
12.75,1.2,22
12.75,1.35,20
12.75,1.5,13
12.9,-1.5,0
12.9,-1.35,10
12.9,-1.2,32
12.9,-1.05,46
12.9,-0.9,50
12.9,-0.75,49
12.9,-0.6,41
12.9,-0.45,6
12.9,-0.3,34
12.9,-0.15,53
12.9,0.0,48
12.9,0.15,42
12.9,0.3,25
12.9,0.45,8
12.9,0.6,9
12.9,0.75,17
12.9,0.9,30
12.9,1.05,29
12.9,1.2,19
12.9,1.35,3
12.9,1.5,0
13.05,-1.5,0
13.05,-1.35,5
13.05,-1.2,28
13.05,-1.05,44
13.05,-0.9,50
13.05,-0.75,50
13.05,-0.6,45
13.05,-0.45,38
13.05,-0.3,43
13.05,-0.15,51
13.05,0.0,50
13.05,0.15,45
13.05,0.3,34
13.05,0.45,22
13.05,0.6,20
13.05,0.75,21
13.05,0.9,21
13.05,1.05,25
13.05,1.2,19
13.05,1.35,0
13.05,1.5,0
