-3.0,-1.5,0
-3.0,-1.35,10
-3.0,-1.2,43
-3.0,-1.05,77
-3.0,-0.9,95
-3.0,-0.75,108
-3.0,-0.6,113
-3.0,-0.45,117
-3.0,-0.3,106
-3.0,-0.15,82
-3.0,0.0,39
-3.0,0.15,0
-3.0,0.3,24
-3.0,0.45,68
-3.0,0.6,95
-3.0,0.75,105
-3.0,0.9,112
-3.0,1.05,98
-3.0,1.2,65
-3.0,1.35,18
-3.0,1.5,0
-2.85,-1.5,9
-2.85,-1.35,23
-2.85,-1.2,55
-2.85,-1.05,88
-2.85,-0.9,111
-2.85,-0.75,118
-2.85,-0.6,125
-2.85,-0.45,125
-2.85,-0.3,122
-2.85,-0.15,102
-2.85,0.0,67
-2.85,0.15,36
-2.85,0.3,60
-2.85,0.45,94
-2.85,0.6,106
-2.85,0.75,123
-2.85,0.9,125
-2.85,1.05,106
-2.85,1.2,78
-2.85,1.35,39
-2.85,1.5,17
-2.7,-1.5,39
-2.7,-1.35,53
-2.7,-1.2,78
-2.7,-1.05,105
-2.7,-0.9,124
-2.7,-0.75,137
-2.7,-0.6,139
-2.7,-0.45,142
-2.7,-0.3,144
-2.7,-0.15,131
-2.7,0.0,110
-2.7,0.15,95
-2.7,0.3,101
-2.7,0.45,111
-2.7,0.6,123
-2.7,0.75,130
-2.7,0.9,137
-2.7,1.05,128
-2.7,1.2,107
-2.7,1.35,79
-2.7,1.5,61
-2.55,-1.5,70
-2.55,-1.35,82
-2.55,-1.2,100
-2.55,-1.05,119
-2.55,-0.9,137
-2.55,-0.75,149
-2.55,-0.6,159
-2.55,-0.45,167
-2.55,-0.3,163
-2.55,-0.15,154
-2.55,0.0,132
-2.55,0.15,117
-2.55,0.3,111
-2.55,0.45,111
-2.55,0.6,116
-2.55,0.75,155
-2.55,0.9,170
-2.55,1.05,151
-2.55,1.2,131
-2.55,1.35,111
-2.55,1.5,96
-2.4,-1.5,94
-2.4,-1.35,104
-2.4,-1.2,118
-2.4,-1.05,132
-2.4,-0.9,145
-2.4,-0.75,159
-2.4,-0.6,171
-2.4,-0.45,187
-2.4,-0.3,194
-2.4,-0.15,191
-2.4,0.0,145
-2.4,0.15,123
-2.4,0.3,113
-2.4,0.45,106
-2.4,0.6,59
-2.4,0.75,193
-2.4,0.9,200
-2.4,1.05,164
-2.4,1.2,146
-2.4,1.35,131
-2.4,1.5,119
-2.25,-1.5,107
-2.25,-1.35,119
-2.25,-1.2,129
-2.25,-1.05,140
-2.25,-0.9,155
-2.25,-0.75,166
-2.25,-0.6,178
-2.25,-0.45,202
-2.25,-0.3,214
-2.25,-0.15,208
-2.25,0.0,124
-2.25,0.15,118
-2.25,0.3,123
-2.25,0.45,119
-2.25,0.6,113
-2.25,0.75,155
-2.25,0.9,174
-2.25,1.05,165
-2.25,1.2,154
-2.25,1.35,142
-2.25,1.5,132
-2.1,-1.5,119
-2.1,-1.35,127
-2.1,-1.2,136
-2.1,-1.05,147
-2.1,-0.9,159
-2.1,-0.75,169
-2.1,-0.6,177
-2.1,-0.45,181
-2.1,-0.3,168
-2.1,-0.15,112
-2.1,0.0,74
-2.1,0.15,106
-2.1,0.3,116
-2.1,0.45,119
-2.1,0.6,148
-2.1,0.75,187
-2.1,0.9,179
-2.1,1.05,169
-2.1,1.2,159
-2.1,1.35,154
-2.1,1.5,147
-1.95,-1.5,124
-1.95,-1.35,130
-1.95,-1.2,138
-1.95,-1.05,147
-1.95,-0.9,157
-1.95,-0.75,173
-1.95,-0.6,192
-1.95,-0.45,188
-1.95,-0.3,146
-1.95,-0.15,97
-1.95,0.0,90
-1.95,0.15,108
-1.95,0.3,113
-1.95,0.45,112
-1.95,0.6,30
-1.95,0.75,221
-1.95,0.9,197
-1.95,1.05,180
-1.95,1.2,167
-1.95,1.35,158
-1.95,1.5,150
-1.8,-1.5,122
-1.8,-1.35,128
-1.8,-1.2,137
-1.8,-1.05,145
-1.8,-0.9,154
-1.8,-0.75,170
-1.8,-0.6,203
-1.8,-0.45,209
-1.8,-0.3,143
-1.8,-0.15,75
-1.8,0.0,71
-1.8,0.15,91
-1.8,0.3,119
-1.8,0.45,158
-1.8,0.6,214
-1.8,0.75,255
-1.8,0.9,204
-1.8,1.05,178
-1.8,1.2,167
-1.8,1.35,157
-1.8,1.5,151
-1.65,-1.5,121
-1.65,-1.35,126
-1.65,-1.2,133
-1.65,-1.05,137
-1.65,-0.9,144
-1.65,-0.75,154
-1.65,-0.6,167
-1.65,-0.45,172
-1.65,-0.3,157
-1.65,-0.15,118
-1.65,0.0,70
-1.65,0.15,76
-1.65,0.3,124
-1.65,0.45,153
-1.65,0.6,179
-1.65,0.75,188
-1.65,0.9,180
-1.65,1.05,162
-1.65,1.2,165
-1.65,1.35,161
-1.65,1.5,143
-1.5,-1.5,119
-1.5,-1.35,124
-1.5,-1.2,126
-1.5,-1.05,128
-1.5,-0.9,131
-1.5,-0.75,144
-1.5,-0.6,147
-1.5,-0.45,161
-1.5,-0.3,215
-1.5,-0.15,152
-1.5,0.0,119
-1.5,0.15,119
-1.5,0.3,149
-1.5,0.45,147
-1.5,0.6,124
-1.5,0.75,118
-1.5,0.9,144
-1.5,1.05,152
-1.5,1.2,154
-1.5,1.35,154
-1.5,1.5,139
-1.35,-1.5,115
-1.35,-1.35,118
-1.35,-1.2,131
-1.35,-1.05,131
-1.35,-0.9,131
-1.35,-0.75,128
-1.35,-0.6,123
-1.35,-0.45,107
-1.35,-0.3,115
-1.35,-0.15,138
-1.35,0.0,147
-1.35,0.15,181
-1.35,0.3,178
-1.35,0.45,145
-1.35,0.6,83
-1.35,0.75,70
-1.35,0.9,124
-1.35,1.05,144
-1.35,1.2,138
-1.35,1.35,122
-1.35,1.5,128
-1.2,-1.5,124
-1.2,-1.35,129
-1.2,-1.2,127
-1.2,-1.05,124
-1.2,-0.9,121
-1.2,-0.75,115
-1.2,-0.6,106
-1.2,-0.45,83
-1.2,-0.3,77
-1.2,-0.15,107
-1.2,0.0,164
-1.2,0.15,255
-1.2,0.3,200
-1.2,0.45,148
-1.2,0.6,130
-1.2,0.75,118
-1.2,0.9,128
-1.2,1.05,120
-1.2,1.2,122
-1.2,1.35,109
-1.2,1.5,109
-1.05,-1.5,121
-1.05,-1.35,125
-1.05,-1.2,123
-1.05,-1.05,111
-1.05,-0.9,114
-1.05,-0.75,107
-1.05,-0.6,95
-1.05,-0.45,83
-1.05,-0.3,72
-1.05,-0.15,62
-1.05,0.0,143
-1.05,0.15,255
-1.05,0.3,23
-1.05,0.45,114
-1.05,0.6,171
-1.05,0.75,151
-1.05,0.9,124
-1.05,1.05,116
-1.05,1.2,111
-1.05,1.35,108
-1.05,1.5,100
-0.9,-1.5,109
-0.9,-1.35,123
-0.9,-1.2,120
-0.9,-1.05,115
-0.9,-0.9,109
-0.9,-0.75,100
-0.9,-0.6,80
-0.9,-0.45,62
-0.9,-0.3,33
-0.9,-0.15,57
-0.9,0.0,138
-0.9,0.15,255
-0.9,0.3,176
-0.9,0.45,155
-0.9,0.6,221
-0.9,0.75,163
-0.9,0.9,106
-0.9,1.05,93
-0.9,1.2,100
-0.9,1.35,108
-0.9,1.5,108
-0.75,-1.5,109
-0.75,-1.35,116
-0.75,-1.2,112
-0.75,-1.05,108
-0.75,-0.9,102
-0.75,-0.75,99
-0.75,-0.6,86
-0.75,-0.45,62
-0.75,-0.3,33
-0.75,-0.15,61
-0.75,0.0,113
-0.75,0.15,193
-0.75,0.3,196
-0.75,0.45,151
-0.75,0.6,151
-0.75,0.75,124
-0.75,0.9,65
-0.75,1.05,66
-0.75,1.2,90
-0.75,1.35,101
-0.75,1.5,108
-0.6,-1.5,98
-0.6,-1.35,88
-0.6,-1.2,88
-0.6,-1.05,91
-0.6,-0.9,96
-0.6,-0.75,90
-0.6,-0.6,75
-0.6,-0.45,68
-0.6,-0.3,64
-0.6,-0.15,68
-0.6,0.0,61
-0.6,0.15,105
-0.6,0.3,134
-0.6,0.45,110
-0.6,0.6,96
-0.6,0.75,87
-0.6,0.9,76
-0.6,1.05,73
-0.6,1.2,83
-0.6,1.35,90
-0.6,1.5,102
-0.45,-1.5,98
-0.45,-1.35,98
-0.45,-1.2,89
-0.45,-1.05,80
-0.45,-0.9,80
-0.45,-0.75,78
-0.45,-0.6,82
-0.45,-0.45,83
-0.45,-0.3,81
-0.45,-0.15,73
-0.45,0.0,72
-0.45,0.15,66
-0.45,0.3,113
-0.45,0.45,104
-0.45,0.6,4
-0.45,0.75,61
-0.45,0.9,69
-0.45,1.05,69
-0.45,1.2,80
-0.45,1.35,87
-0.45,1.5,93
-0.3,-1.5,94
-0.3,-1.35,94
-0.3,-1.2,96
-0.3,-1.05,97
-0.3,-0.9,99
-0.3,-0.75,91
-0.3,-0.6,99
-0.3,-0.45,104
-0.3,-0.3,92
-0.3,-0.15,78
-0.3,0.0,66
-0.3,0.15,72
-0.3,0.3,120
-0.3,0.45,198
-0.3,0.6,107
-0.3,0.75,65
-0.3,0.9,61
-0.3,1.05,65
-0.3,1.2,80
-0.3,1.35,86
-0.3,1.5,91
-0.15,-1.5,104
-0.15,-1.35,106
-0.15,-1.2,112
-0.15,-1.05,105
-0.15,-0.9,110
-0.15,-0.75,118
-0.15,-0.6,117
-0.15,-0.45,125
-0.15,-0.3,117
-0.15,-0.15,107
-0.15,0.0,102
-0.15,0.15,66
-0.15,0.3,149
-0.15,0.45,255
-0.15,0.6,177
-0.15,0.75,79
-0.15,0.9,72
-0.15,1.05,76
-0.15,1.2,84
-0.15,1.35,90
-0.15,1.5,91
0.0,-1.5,144
0.0,-1.35,134
0.0,-1.2,136
0.0,-1.05,127
0.0,-0.9,127
0.0,-0.75,146
0.0,-0.6,174
0.0,-0.45,188
0.0,-0.3,149
0.0,-0.15,138
0.0,0.0,151
0.0,0.15,197
0.0,0.3,185
0.0,0.45,183
0.0,0.6,148
0.0,0.75,119
0.0,0.9,101
0.0,1.05,88
0.0,1.2,89
0.0,1.35,91
0.0,1.5,90
0.15,-1.5,143
0.15,-1.35,145
0.15,-1.2,147
0.15,-1.05,147
0.15,-0.9,147
0.15,-0.75,158
0.15,-0.6,178
0.15,-0.45,211
0.15,-0.3,144
0.15,-0.15,147
0.15,0.0,172
0.15,0.15,198
0.15,0.3,175
0.15,0.45,133
0.15,0.6,139
0.15,0.75,122
0.15,0.9,116
0.15,1.05,113
0.15,1.2,104
0.15,1.35,100
0.15,1.5,99
0.3,-1.5,128
0.3,-1.35,144
0.3,-1.2,146
0.3,-1.05,147
0.3,-0.9,143
0.3,-0.75,149
0.3,-0.6,151
0.3,-0.45,131
0.3,-0.3,89
0.3,-0.15,91
0.3,0.0,137
0.3,0.15,255
0.3,0.3,111
0.3,0.45,47
0.3,0.6,111
0.3,0.75,120
0.3,0.9,126
0.3,1.05,118
0.3,1.2,110
0.3,1.35,100
0.3,1.5,97
0.45,-1.5,121
0.45,-1.35,128
0.45,-1.2,133
0.45,-1.05,140
0.45,-0.9,144
0.45,-0.75,147
0.45,-0.6,143
0.45,-0.45,125
0.45,-0.3,20
0.45,-0.15,63
0.45,0.0,87
0.45,0.15,121
0.45,0.3,103
0.45,0.45,178
0.45,0.6,70
0.45,0.75,126
0.45,0.9,151
0.45,1.05,117
0.45,1.2,102
0.45,1.35,94
0.45,1.5,91
0.6,-1.5,115
0.6,-1.35,118
0.6,-1.2,125
0.6,-1.05,137
0.6,-0.9,149
0.6,-0.75,155
0.6,-0.6,158
0.6,-0.45,210
0.6,-0.3,123
0.6,-0.15,89
0.6,0.0,80
0.6,0.15,101
0.6,0.3,15
0.6,0.45,120
0.6,0.6,97
0.6,0.75,137
0.6,0.9,192
0.6,1.05,98
0.6,1.2,93
0.6,1.35,88
0.6,1.5,85
0.75,-1.5,104
0.75,-1.35,105
0.75,-1.2,112
0.75,-1.05,128
0.75,-0.9,151
0.75,-0.75,170
0.75,-0.6,169
0.75,-0.45,164
0.75,-0.3,145
0.75,-0.15,109
0.75,0.0,99
0.75,0.15,96
0.75,0.3,73
0.75,0.45,79
0.75,0.6,95
0.75,0.75,100
0.75,0.9,18
0.75,1.05,57
0.75,1.2,78
0.75,1.35,77
0.75,1.5,77
0.9,-1.5,86
0.9,-1.35,80
0.9,-1.2,80
0.9,-1.05,105
0.9,-0.9,148
0.9,-0.75,186
0.9,-0.6,186
0.9,-0.45,172
0.9,-0.3,213
0.9,-0.15,106
0.9,0.0,95
0.9,0.15,209
0.9,0.3,24
0.9,0.45,55
0.9,0.6,83
0.9,0.75,125
0.9,0.9,128
0.9,1.05,82
0.9,1.2,69
0.9,1.35,67
0.9,1.5,68
1.05,-1.5,75
1.05,-1.35,55
1.05,-1.2,28
1.05,-1.05,60
1.05,-0.9,142
1.05,-0.75,199
1.05,-0.6,203
1.05,-0.45,189
1.05,-0.3,101
1.05,-0.15,108
1.05,0.0,79
1.05,0.15,58
1.05,0.3,57
1.05,0.45,55
1.05,0.6,93
1.05,0.75,133
1.05,0.9,143
1.05,1.05,60
1.05,1.2,28
1.05,1.35,40
1.05,1.5,52
1.2,-1.5,70
1.2,-1.35,48
1.2,-1.2,10
1.2,-1.05,39
1.2,-0.9,128
1.2,-0.75,217
1.2,-0.6,157
1.2,-0.45,121
1.2,-0.3,82
1.2,-0.15,84
1.2,0.0,55
1.2,0.15,63
1.2,0.3,63
1.2,0.45,30
1.2,0.6,70
1.2,0.75,85
1.2,0.9,78
1.2,1.05,49
1.2,1.2,6
1.2,1.35,31
1.2,1.5,49
1.35,-1.5,70
1.35,-1.35,60
1.35,-1.2,53
1.35,-1.05,68
1.35,-0.9,91
1.35,-0.75,84
1.35,-0.6,65
1.35,-0.45,61
1.35,-0.3,62
1.35,-0.15,70
1.35,0.0,58
1.35,0.15,51
1.35,0.3,14
1.35,0.45,20
1.35,0.6,34
1.35,0.75,53
1.35,0.9,58
1.35,1.05,47
1.35,1.2,35
1.35,1.35,43
1.35,1.5,49
1.5,-1.5,69
1.5,-1.35,70
1.5,-1.2,65
1.5,-1.05,67
1.5,-0.9,58
1.5,-0.75,22
1.5,-0.6,30
1.5,-0.45,55
1.5,-0.3,56
1.5,-0.15,56
1.5,0.0,28
1.5,0.15,16
1.5,0.3,5
1.5,0.45,0
1.5,0.6,12
1.5,0.75,22
1.5,0.9,43
1.5,1.05,46
1.5,1.2,42
1.5,1.35,40
1.5,1.5,40
1.65,-1.5,69
1.65,-1.35,68
1.65,-1.2,66
1.65,-1.05,67
1.65,-0.9,54
1.65,-0.75,37
1.65,-0.6,45
1.65,-0.45,56
1.65,-0.3,76
1.65,-0.15,69
1.65,0.0,36
1.65,0.15,62
1.65,0.3,40
1.65,0.45,25
1.65,0.6,20
1.65,0.75,12
1.65,0.9,18
1.65,1.05,17
1.65,1.2,28
1.65,1.35,34
1.65,1.5,35
1.8,-1.5,69
1.8,-1.35,63
1.8,-1.2,62
1.8,-1.05,60
1.8,-0.9,52
1.8,-0.75,52
1.8,-0.6,58
1.8,-0.45,75
1.8,-0.3,106
1.8,-0.15,130
1.8,0.0,62
1.8,0.15,74
1.8,0.3,57
1.8,0.45,20
1.8,0.6,13
1.8,0.75,29
1.8,0.9,25
1.8,1.05,18
1.8,1.2,17
1.8,1.35,19
1.8,1.5,31
1.95,-1.5,51
1.95,-1.35,52
1.95,-1.2,53
1.95,-1.05,54
1.95,-0.9,55
1.95,-0.75,59
1.95,-0.6,60
1.95,-0.45,74
1.95,-0.3,92
1.95,-0.15,144
1.95,0.0,169
1.95,0.15,24
1.95,0.3,37
1.95,0.45,70
1.95,0.6,27
1.95,0.75,37
1.95,0.9,48
1.95,1.05,5
1.95,1.2,13
1.95,1.35,25
1.95,1.5,20
2.1,-1.5,52
2.1,-1.35,43
2.1,-1.2,49
2.1,-1.05,53
2.1,-0.9,61
2.1,-0.75,82
2.1,-0.6,91
2.1,-0.45,59
2.1,-0.3,60
2.1,-0.15,39
2.1,0.0,27
2.1,0.15,4
2.1,0.3,38
2.1,0.45,48
2.1,0.6,27
2.1,0.75,35
2.1,0.9,100
2.1,1.05,16
2.1,1.2,19
2.1,1.35,25
2.1,1.5,29
2.25,-1.5,43
2.25,-1.35,45
2.25,-1.2,43
2.25,-1.05,47
2.25,-0.9,53
2.25,-0.75,67
2.25,-0.6,65
2.25,-0.45,42
2.25,-0.3,50
2.25,-0.15,23
2.25,0.0,23
2.25,0.15,37
2.25,0.3,60
2.25,0.45,67
2.25,0.6,79
2.25,0.75,54
2.25,0.9,41
2.25,1.05,16
2.25,1.2,26
2.25,1.35,31
2.25,1.5,34
2.4,-1.5,43
2.4,-1.35,44
2.4,-1.2,45
2.4,-1.05,46
2.4,-0.9,47
2.4,-0.75,46
2.4,-0.6,40
2.4,-0.45,28
2.4,-0.3,28
2.4,-0.15,40
2.4,0.0,49
2.4,0.15,3
2.4,0.3,35
2.4,0.45,67
2.4,0.6,83
2.4,0.75,64
2.4,0.9,57
2.4,1.05,46
2.4,1.2,44
2.4,1.35,46
2.4,1.5,48
2.55,-1.5,42
2.55,-1.35,42
2.55,-1.2,42
2.55,-1.05,42
2.55,-0.9,35
2.55,-0.75,35
2.55,-0.6,31
2.55,-0.45,50
2.55,-0.3,40
2.55,-0.15,68
2.55,0.0,43
2.55,0.15,89
2.55,0.3,39
2.55,0.45,64
2.55,0.6,38
2.55,0.75,38
2.55,0.9,50
2.55,1.05,53
2.55,1.2,51
2.55,1.35,51
2.55,1.5,52
2.7,-1.5,37
2.7,-1.35,33
2.7,-1.2,33
2.7,-1.05,32
2.7,-0.9,31
2.7,-0.75,31
2.7,-0.6,32
2.7,-0.45,22
2.7,-0.3,18
2.7,-0.15,103
2.7,0.0,4
2.7,0.15,24
2.7,0.3,39
2.7,0.45,34
2.7,0.6,103
2.7,0.75,38
2.7,0.9,46
2.7,1.05,55
2.7,1.2,55
2.7,1.35,55
2.7,1.5,54
2.85,-1.5,37
2.85,-1.35,36
2.85,-1.2,35
2.85,-1.05,31
2.85,-0.9,31
2.85,-0.75,35
2.85,-0.6,48
2.85,-0.45,40
2.85,-0.3,56
2.85,-0.15,120
2.85,0.0,70
2.85,0.15,47
2.85,0.3,25
2.85,0.45,47
2.85,0.6,47
2.85,0.75,44
2.85,0.9,40
2.85,1.05,52
2.85,1.2,53
2.85,1.35,53
2.85,1.5,57
3.0,-1.5,35
3.0,-1.35,35
3.0,-1.2,43
3.0,-1.05,56
3.0,-0.9,52
3.0,-0.75,58
3.0,-0.6,61
3.0,-0.45,89
3.0,-0.3,121
3.0,-0.15,98
3.0,0.0,54
3.0,0.15,125
3.0,0.3,86
3.0,0.45,43
3.0,0.6,52
3.0,0.75,88
3.0,0.9,92
3.0,1.05,91
3.0,1.2,73
3.0,1.35,69
3.0,1.5,68
3.15,-1.5,48
3.15,-1.35,48
3.15,-1.2,56
3.15,-1.05,60
3.15,-0.9,61
3.15,-0.75,63
3.15,-0.6,77
3.15,-0.45,87
3.15,-0.3,115
3.15,-0.15,59
3.15,0.0,36
3.15,0.15,217
3.15,0.3,90
3.15,0.45,137
3.15,0.6,93
3.15,0.75,97
3.15,0.9,84
3.15,1.05,80
3.15,1.2,91
3.15,1.35,88
3.15,1.5,70
3.3,-1.5,79
3.3,-1.35,60
3.3,-1.2,60
3.3,-1.05,63
3.3,-0.9,62
3.3,-0.75,60
3.3,-0.6,57
3.3,-0.45,58
3.3,-0.3,105
3.3,-0.15,75
3.3,0.0,67
3.3,0.15,105
3.3,0.3,59
3.3,0.45,82
3.3,0.6,178
3.3,0.75,65
3.3,0.9,69
3.3,1.05,78
3.3,1.2,77
3.3,1.35,77
3.3,1.5,77
3.45,-1.5,79
3.45,-1.35,77
3.45,-1.2,75
3.45,-1.05,72
3.45,-0.9,63
3.45,-0.75,59
3.45,-0.6,53
3.45,-0.45,48
3.45,-0.3,48
3.45,-0.15,38
3.45,0.0,159
3.45,0.15,75
3.45,0.3,69
3.45,0.45,102
3.45,0.6,174
3.45,0.75,49
3.45,0.9,65
3.45,1.05,65
3.45,1.2,72
3.45,1.35,68
3.45,1.5,71
3.6,-1.5,98
3.6,-1.35,84
3.6,-1.2,97
3.6,-1.05,94
3.6,-0.9,73
3.6,-0.75,67
3.6,-0.6,62
3.6,-0.45,48
3.6,-0.3,103
3.6,-0.15,21
3.6,0.0,59
3.6,0.15,102
3.6,0.3,222
3.6,0.45,104
3.6,0.6,68
3.6,0.75,27
3.6,0.9,27
3.6,1.05,45
3.6,1.2,65
3.6,1.35,71
3.6,1.5,75
3.75,-1.5,102
3.75,-1.35,102
3.75,-1.2,100
3.75,-1.05,88
3.75,-0.9,79
3.75,-0.75,91
3.75,-0.6,85
3.75,-0.45,100
3.75,-0.3,135
3.75,-0.15,255
3.75,0.0,130
3.75,0.15,129
3.75,0.3,72
3.75,0.45,18
3.75,0.6,23
3.75,0.75,29
3.75,0.9,33
3.75,1.05,57
3.75,1.2,67
3.75,1.35,76
3.75,1.5,76
3.9,-1.5,120
3.9,-1.35,120
3.9,-1.2,106
3.9,-1.05,122
3.9,-0.9,121
3.9,-0.75,129
3.9,-0.6,93
3.9,-0.45,46
3.9,-0.3,66
3.9,-0.15,83
3.9,0.0,78
3.9,0.15,81
3.9,0.3,10
3.9,0.45,18
3.9,0.6,34
3.9,0.75,49
3.9,0.9,55
3.9,1.05,61
3.9,1.2,79
3.9,1.35,82
3.9,1.5,82
4.05,-1.5,133
4.05,-1.35,134
4.05,-1.2,136
4.05,-1.05,143
4.05,-0.9,147
4.05,-0.75,158
4.05,-0.6,200
4.05,-0.45,136
4.05,-0.3,79
4.05,-0.15,96
4.05,0.0,106
4.05,0.15,24
4.05,0.3,95
4.05,0.45,91
4.05,0.6,55
4.05,0.75,66
4.05,0.9,77
4.05,1.05,99
4.05,1.2,97
4.05,1.35,81
4.05,1.5,81
4.2,-1.5,158
4.2,-1.35,158
4.2,-1.2,154
4.2,-1.05,157
4.2,-0.9,164
4.2,-0.75,176
4.2,-0.6,209
4.2,-0.45,163
4.2,-0.3,93
4.2,-0.15,14
4.2,0.0,75
4.2,0.15,56
4.2,0.3,98
4.2,0.45,83
4.2,0.6,85
4.2,0.75,65
4.2,0.9,113
4.2,1.05,140
4.2,1.2,119
4.2,1.35,104
4.2,1.5,82
4.35,-1.5,155
4.35,-1.35,156
4.35,-1.2,158
4.35,-1.05,161
4.35,-0.9,158
4.35,-0.75,173
4.35,-0.6,193
4.35,-0.45,146
4.35,-0.3,140
4.35,-0.15,39
4.35,0.0,102
4.35,0.15,119
4.35,0.3,58
4.35,0.45,127
4.35,0.6,13
4.35,0.75,56
4.35,0.9,170
4.35,1.05,192
4.35,1.2,132
4.35,1.35,107
4.35,1.5,96
4.5,-1.5,135
4.5,-1.35,133
4.5,-1.2,135
4.5,-1.05,138
4.5,-0.9,141
4.5,-0.75,151
4.5,-0.6,153
4.5,-0.45,81
4.5,-0.3,51
4.5,-0.15,68
4.5,0.0,108
4.5,0.15,43
4.5,0.3,36
4.5,0.45,21
4.5,0.6,47
4.5,0.75,58
4.5,0.9,102
4.5,1.05,122
4.5,1.2,104
4.5,1.35,90
4.5,1.5,82
4.65,-1.5,121
4.65,-1.35,133
4.65,-1.2,134
4.65,-1.05,134
4.65,-0.9,114
4.65,-0.75,113
4.65,-0.6,92
4.65,-0.45,55
4.65,-0.3,109
4.65,-0.15,60
4.65,0.0,23
4.65,0.15,97
4.65,0.3,185
4.65,0.45,140
4.65,0.6,96
4.65,0.75,32
4.65,0.9,51
4.65,1.05,74
4.65,1.2,78
4.65,1.35,77
4.65,1.5,55
4.8,-1.5,100
4.8,-1.35,102
4.8,-1.2,86
4.8,-1.05,103
4.8,-0.9,102
4.8,-0.75,106
4.8,-0.6,83
4.8,-0.45,44
4.8,-0.3,11
4.8,-0.15,80
4.8,0.0,30
4.8,0.15,51
4.8,0.3,68
4.8,0.45,129
4.8,0.6,121
4.8,0.75,14
4.8,0.9,49
4.8,1.05,55
4.8,1.2,62
4.8,1.35,47
4.8,1.5,48
4.95,-1.5,71
4.95,-1.35,71
4.95,-1.2,74
4.95,-1.05,81
4.95,-0.9,95
4.95,-0.75,133
4.95,-0.6,182
4.95,-0.45,40
4.95,-0.3,53
4.95,-0.15,150
4.95,0.0,55
4.95,0.15,135
4.95,0.3,65
4.95,0.45,87
4.95,0.6,33
4.95,0.75,27
4.95,0.9,31
4.95,1.05,47
4.95,1.2,56
4.95,1.35,42
4.95,1.5,41
5.1,-1.5,73
5.1,-1.35,74
5.1,-1.2,61
5.1,-1.05,66
5.1,-0.9,67
5.1,-0.75,92
5.1,-0.6,88
5.1,-0.45,42
5.1,-0.3,49
5.1,-0.15,63
5.1,0.0,60
5.1,0.15,53
5.1,0.3,174
5.1,0.45,75
5.1,0.6,20
5.1,0.75,33
5.1,0.9,23
5.1,1.05,25
5.1,1.2,26
5.1,1.35,43
5.1,1.5,31
5.25,-1.5,96
5.25,-1.35,96
5.25,-1.2,95
5.25,-1.05,80
5.25,-0.9,92
5.25,-0.75,85
5.25,-0.6,83
5.25,-0.45,51
5.25,-0.3,102
5.25,-0.15,118
5.25,0.0,67
5.25,0.15,60
5.25,0.3,52
5.25,0.45,86
5.25,0.6,42
5.25,0.75,9
5.25,0.9,23
5.25,1.05,16
5.25,1.2,16
5.25,1.35,16
5.25,1.5,16
5.4,-1.5,92
5.4,-1.35,91
5.4,-1.2,90
5.4,-1.05,87
5.4,-0.9,81
5.4,-0.75,70
5.4,-0.6,45
5.4,-0.45,105
5.4,-0.3,104
5.4,-0.15,41
5.4,0.0,189
5.4,0.15,9
5.4,0.3,53
5.4,0.45,1
5.4,0.6,41
5.4,0.75,26
5.4,0.9,22
5.4,1.05,17
5.4,1.2,16
5.4,1.35,15
5.4,1.5,15
5.55,-1.5,90
5.55,-1.35,90
5.55,-1.2,88
5.55,-1.05,86
5.55,-0.9,86
5.55,-0.75,74
5.55,-0.6,0
5.55,-0.45,255
5.55,-0.3,154
5.55,-0.15,136
5.55,0.0,88
5.55,0.15,51
5.55,0.3,67
5.55,0.45,84
5.55,0.6,48
5.55,0.75,29
5.55,0.9,25
5.55,1.05,17
5.55,1.2,16
5.55,1.35,13
5.55,1.5,15
5.7,-1.5,87
5.7,-1.35,79
5.7,-1.2,79
5.7,-1.05,79
5.7,-0.9,78
5.7,-0.75,78
5.7,-0.6,100
5.7,-0.45,81
5.7,-0.3,7
5.7,-0.15,51
5.7,0.0,56
5.7,0.15,82
5.7,0.3,173
5.7,0.45,46
5.7,0.6,14
5.7,0.75,23
5.7,0.9,15
5.7,1.05,3
5.7,1.2,8
5.7,1.35,13
5.7,1.5,16
5.85,-1.5,85
5.85,-1.35,65
5.85,-1.2,65
5.85,-1.05,65
5.85,-0.9,83
5.85,-0.75,87
5.85,-0.6,80
5.85,-0.45,56
5.85,-0.3,63
5.85,-0.15,10
5.85,0.0,58
5.85,0.15,65
5.85,0.3,67
5.85,0.45,49
5.85,0.6,39
5.85,0.75,22
5.85,0.9,7
5.85,1.05,5
5.85,1.2,10
5.85,1.35,17
5.85,1.5,20
6.0,-1.5,65
6.0,-1.35,65
6.0,-1.2,65
6.0,-1.05,65
6.0,-0.9,65
6.0,-0.75,66
6.0,-0.6,62
6.0,-0.45,80
6.0,-0.3,26
6.0,-0.15,50
6.0,0.0,20
6.0,0.15,20
6.0,0.3,102
6.0,0.45,97
6.0,0.6,53
6.0,0.75,46
6.0,0.9,23
6.0,1.05,21
6.0,1.2,25
6.0,1.35,32
6.0,1.5,35
6.15,-1.5,85
6.15,-1.35,84
6.15,-1.2,68
6.15,-1.05,68
6.15,-0.9,68
6.15,-0.75,53
6.15,-0.6,49
6.15,-0.45,76
6.15,-0.3,62
6.15,-0.15,54
6.15,0.0,33
6.15,0.15,33
6.15,0.3,124
6.15,0.45,118
6.15,0.6,66
6.15,0.75,65
6.15,0.9,44
6.15,1.05,41
6.15,1.2,42
6.15,1.35,42
6.15,1.5,46
6.3,-1.5,43
6.3,-1.35,67
6.3,-1.2,67
6.3,-1.05,65
6.3,-0.9,68
6.3,-0.75,59
6.3,-0.6,22
6.3,-0.45,51
6.3,-0.3,27
6.3,-0.15,45
6.3,0.0,15
6.3,0.15,80
6.3,0.3,58
6.3,0.45,58
6.3,0.6,75
6.3,0.75,69
6.3,0.9,65
6.3,1.05,53
6.3,1.2,49
6.3,1.35,47
6.3,1.5,46
6.45,-1.5,56
6.45,-1.35,55
6.45,-1.2,43
6.45,-1.05,58
6.45,-0.9,57
6.45,-0.75,51
6.45,-0.6,65
6.45,-0.45,81
6.45,-0.3,50
6.45,-0.15,51
6.45,0.0,51
6.45,0.15,108
6.45,0.3,108
6.45,0.45,120
6.45,0.6,84
6.45,0.75,76
6.45,0.9,88
6.45,1.05,90
6.45,1.2,87
6.45,1.35,70
6.45,1.5,69
6.6,-1.5,56
6.6,-1.35,55
6.6,-1.2,55
6.6,-1.05,55
6.6,-0.9,52
6.6,-0.75,53
6.6,-0.6,65
6.6,-0.45,92
6.6,-0.3,105
6.6,-0.15,95
6.6,0.0,67
6.6,0.15,60
6.6,0.3,104
6.6,0.45,189
6.6,0.6,119
6.6,0.75,111
6.6,0.9,112
6.6,1.05,107
6.6,1.2,93
6.6,1.35,107
6.6,1.5,106
6.75,-1.5,56
6.75,-1.35,56
6.75,-1.2,56
6.75,-1.05,56
6.75,-0.9,53
6.75,-0.75,48
6.75,-0.6,31
6.75,-0.45,33
6.75,-0.3,60
6.75,-0.15,107
6.75,0.0,39
6.75,0.15,54
6.75,0.3,133
6.75,0.45,57
6.75,0.6,118
6.75,0.75,111
6.75,0.9,118
6.75,1.05,119
6.75,1.2,115
6.75,1.35,115
6.75,1.5,111
6.9,-1.5,48
6.9,-1.35,48
6.9,-1.2,48
6.9,-1.05,47
6.9,-0.9,47
6.9,-0.75,46
6.9,-0.6,59
6.9,-0.45,66
6.9,-0.3,125
6.9,-0.15,81
6.9,0.0,81
6.9,0.15,50
6.9,0.3,92
6.9,0.45,205
6.9,0.6,121
6.9,0.75,111
6.9,0.9,119
6.9,1.05,119
6.9,1.2,119
6.9,1.35,111
6.9,1.5,110
7.05,-1.5,73
7.05,-1.35,73
7.05,-1.2,65
7.05,-1.05,68
7.05,-0.9,64
7.05,-0.75,62
7.05,-0.6,47
7.05,-0.45,115
7.05,-0.3,78
7.05,-0.15,63
7.05,0.0,119
7.05,0.15,58
7.05,0.3,138
7.05,0.45,61
7.05,0.6,68
7.05,0.75,121
7.05,0.9,114
7.05,1.05,111
7.05,1.2,109
7.05,1.35,108
7.05,1.5,108
7.2,-1.5,66
7.2,-1.35,66
7.2,-1.2,82
7.2,-1.05,105
7.2,-0.9,95
7.2,-0.75,95
7.2,-0.6,77
7.2,-0.45,98
7.2,-0.3,30
7.2,-0.15,51
7.2,0.0,54
7.2,0.15,41
7.2,0.3,94
7.2,0.45,39
7.2,0.6,74
7.2,0.75,107
7.2,0.9,94
7.2,1.05,94
7.2,1.2,102
7.2,1.35,103
7.2,1.5,103
7.35,-1.5,62
7.35,-1.35,71
7.35,-1.2,71
7.35,-1.05,75
7.35,-0.9,76
7.35,-0.75,78
7.35,-0.6,78
7.35,-0.45,58
7.35,-0.3,73
7.35,-0.15,130
7.35,0.0,46
7.35,0.15,4
7.35,0.3,7
7.35,0.45,89
7.35,0.6,84
7.35,0.75,59
7.35,0.9,69
7.35,1.05,74
7.35,1.2,74
7.35,1.35,91
7.35,1.5,96
7.5,-1.5,49
7.5,-1.35,50
7.5,-1.2,54
7.5,-1.05,59
7.5,-0.9,68
7.5,-0.75,69
7.5,-0.6,82
7.5,-0.45,204
7.5,-0.3,31
7.5,-0.15,48
7.5,0.0,58
7.5,0.15,42
7.5,0.3,25
7.5,0.45,9
7.5,0.6,59
7.5,0.75,104
7.5,0.9,82
7.5,1.05,84
7.5,1.2,84
7.5,1.35,85
7.5,1.5,86
7.65,-1.5,39
7.65,-1.35,40
7.65,-1.2,40
7.65,-1.05,40
7.65,-0.9,44
7.65,-0.75,45
7.65,-0.6,41
7.65,-0.45,45
7.65,-0.3,46
7.65,-0.15,56
7.65,0.0,53
7.65,0.15,138
7.65,0.3,69
7.65,0.45,47
7.65,0.6,121
7.65,0.75,87
7.65,0.9,71
7.65,1.05,70
7.65,1.2,72
7.65,1.35,73
7.65,1.5,74
7.8,-1.5,33
7.8,-1.35,32
7.8,-1.2,32
7.8,-1.05,31
7.8,-0.9,22
7.8,-0.75,20
7.8,-0.6,8
7.8,-0.45,11
7.8,-0.3,60
7.8,-0.15,20
7.8,0.0,102
7.8,0.15,69
7.8,0.3,47
7.8,0.45,76
7.8,0.6,91
7.8,0.75,48
7.8,0.9,27
7.8,1.05,51
7.8,1.2,57
7.8,1.35,59
7.8,1.5,60
7.95,-1.5,31
7.95,-1.35,32
7.95,-1.2,31
7.95,-1.05,30
7.95,-0.9,29
7.95,-0.75,23
7.95,-0.6,13
7.95,-0.45,18
7.95,-0.3,62
7.95,-0.15,72
7.95,0.0,0
7.95,0.15,48
7.95,0.3,87
7.95,0.45,65
7.95,0.6,55
7.95,0.75,42
7.95,0.9,32
7.95,1.05,47
7.95,1.2,79
7.95,1.35,71
7.95,1.5,71
8.1,-1.5,31
8.1,-1.35,31
8.1,-1.2,33
8.1,-1.05,33
8.1,-0.9,32
8.1,-0.75,34
8.1,-0.6,41
8.1,-0.45,103
8.1,-0.3,24
8.1,-0.15,40
8.1,0.0,142
8.1,0.15,4
8.1,0.3,4
8.1,0.45,125
8.1,0.6,20
8.1,0.75,39
8.1,0.9,40
8.1,1.05,47
8.1,1.2,52
8.1,1.35,55
8.1,1.5,56
8.25,-1.5,40
8.25,-1.35,40
8.25,-1.2,40
8.25,-1.05,40
8.25,-0.9,40
8.25,-0.75,48
8.25,-0.6,24
8.25,-0.45,63
8.25,-0.3,51
8.25,-0.15,52
8.25,0.0,42
8.25,0.15,30
8.25,0.3,29
8.25,0.45,97
8.25,0.6,35
8.25,0.75,40
8.25,0.9,51
8.25,1.05,58
8.25,1.2,63
8.25,1.35,62
8.25,1.5,87
8.4,-1.5,25
8.4,-1.35,25
8.4,-1.2,28
8.4,-1.05,28
8.4,-0.9,29
8.4,-0.75,38
8.4,-0.6,48
8.4,-0.45,50
8.4,-0.3,51
8.4,-0.15,96
8.4,0.0,156
8.4,0.15,76
8.4,0.3,50
8.4,0.45,57
8.4,0.6,80
8.4,0.75,80
8.4,0.9,110
8.4,1.05,110
8.4,1.2,98
8.4,1.35,93
8.4,1.5,89
8.55,-1.5,24
8.55,-1.35,24
8.55,-1.2,23
8.55,-1.05,22
8.55,-0.9,20
8.55,-0.75,18
8.55,-0.6,56
8.55,-0.45,69
8.55,-0.3,55
8.55,-0.15,10
8.55,0.0,174
8.55,0.15,102
8.55,0.3,78
8.55,0.45,50
8.55,0.6,96
8.55,0.75,133
8.55,0.9,212
8.55,1.05,145
8.55,1.2,139
8.55,1.35,132
8.55,1.5,118
8.7,-1.5,42
8.7,-1.35,41
8.7,-1.2,39
8.7,-1.05,36
8.7,-0.9,25
8.7,-0.75,4
8.7,-0.6,31
8.7,-0.45,22
8.7,-0.3,50
8.7,-0.15,199
8.7,0.0,53
8.7,0.15,139
8.7,0.3,93
8.7,0.45,60
8.7,0.6,71
8.7,0.75,118
8.7,0.9,150
8.7,1.05,160
8.7,1.2,155
8.7,1.35,142
8.7,1.5,139
8.85,-1.5,77
8.85,-1.35,76
8.85,-1.2,74
8.85,-1.05,61
8.85,-0.9,66
8.85,-0.75,63
8.85,-0.6,78
8.85,-0.45,45
8.85,-0.3,43
8.85,-0.15,136
8.85,0.0,47
8.85,0.15,65
8.85,0.3,193
8.85,0.45,116
8.85,0.6,50
8.85,0.75,255
8.85,0.9,149
8.85,1.05,141
8.85,1.2,137
8.85,1.35,140
8.85,1.5,139
9.0,-1.5,97
9.0,-1.35,100
9.0,-1.2,100
9.0,-1.05,100
9.0,-0.9,105
9.0,-0.75,110
9.0,-0.6,130
9.0,-0.45,143
9.0,-0.3,70
9.0,-0.15,57
9.0,0.0,23
9.0,0.15,47
9.0,0.3,126
9.0,0.45,44
9.0,0.6,86
9.0,0.75,131
9.0,0.9,131
9.0,1.05,132
9.0,1.2,132
9.0,1.35,132
9.0,1.5,132
9.15,-1.5,119
9.15,-1.35,119
9.15,-1.2,120
9.15,-1.05,120
9.15,-0.9,122
9.15,-0.75,124
9.15,-0.6,110
9.15,-0.45,162
9.15,-0.3,71
9.15,-0.15,142
9.15,0.0,56
9.15,0.15,119
9.15,0.3,113
9.15,0.45,62
9.15,0.6,58
9.15,0.75,116
9.15,0.9,118
9.15,1.05,110
9.15,1.2,132
9.15,1.35,132
9.15,1.5,132
9.3,-1.5,120
9.3,-1.35,121
9.3,-1.2,122
9.3,-1.05,127
9.3,-0.9,138
9.3,-0.75,129
9.3,-0.6,123
9.3,-0.45,133
9.3,-0.3,101
9.3,-0.15,68
9.3,0.0,62
9.3,0.15,59
9.3,0.3,50
9.3,0.45,15
9.3,0.6,18
9.3,0.75,67
9.3,0.9,89
9.3,1.05,112
9.3,1.2,115
9.3,1.35,115
9.3,1.5,115
9.45,-1.5,121
9.45,-1.35,125
9.45,-1.2,125
9.45,-1.05,124
9.45,-0.9,125
9.45,-0.75,128
9.45,-0.6,137
9.45,-0.45,116
9.45,-0.3,98
9.45,-0.15,155
9.45,0.0,136
9.45,0.15,127
9.45,0.3,46
9.45,0.45,9
9.45,0.6,41
9.45,0.75,77
9.45,0.9,96
9.45,1.05,104
9.45,1.2,119
9.45,1.35,120
9.45,1.5,121
9.6,-1.5,121
9.6,-1.35,124
9.6,-1.2,124
9.6,-1.05,129
9.6,-0.9,128
9.6,-0.75,125
9.6,-0.6,133
9.6,-0.45,137
9.6,-0.3,163
9.6,-0.15,108
9.6,0.0,65
9.6,0.15,181
9.6,0.3,43
9.6,0.45,64
9.6,0.6,47
9.6,0.75,154
9.6,0.9,121
9.6,1.05,122
9.6,1.2,116
9.6,1.35,122
9.6,1.5,133
9.75,-1.5,140
9.75,-1.35,131
9.75,-1.2,130
9.75,-1.05,137
9.75,-0.9,125
9.75,-0.75,97
9.75,-0.6,92
9.75,-0.45,138
9.75,-0.3,85
9.75,-0.15,65
9.75,0.0,81
9.75,0.15,82
9.75,0.3,76
9.75,0.45,153
9.75,0.6,165
9.75,0.75,164
9.75,0.9,142
9.75,1.05,126
9.75,1.2,122
9.75,1.35,115
9.75,1.5,93
9.9,-1.5,154
9.9,-1.35,140
9.9,-1.2,137
9.9,-1.05,114
9.9,-0.9,99
9.9,-0.75,99
9.9,-0.6,95
9.9,-0.45,92
9.9,-0.3,3
9.9,-0.15,57
9.9,0.0,62
9.9,0.15,60
9.9,0.3,66
9.9,0.45,120
9.9,0.6,255
9.9,0.75,144
9.9,0.9,131
9.9,1.05,129
9.9,1.2,113
9.9,1.35,111
9.9,1.5,109
10.05,-1.5,155
10.05,-1.35,153
10.05,-1.2,150
10.05,-1.05,147
10.05,-0.9,135
10.05,-0.75,125
10.05,-0.6,134
10.05,-0.45,158
10.05,-0.3,158
10.05,-0.15,98
10.05,0.0,62
10.05,0.15,53
10.05,0.3,75
10.05,0.45,123
10.05,0.6,4
10.05,0.75,77
10.05,0.9,108
10.05,1.05,113
10.05,1.2,103
10.05,1.35,103
10.05,1.5,104
10.2,-1.5,148
10.2,-1.35,156
10.2,-1.2,153
10.2,-1.05,148
10.2,-0.9,147
10.2,-0.75,146
10.2,-0.6,164
10.2,-0.45,118
10.2,-0.3,116
10.2,-0.15,76
10.2,0.0,83
10.2,0.15,66
10.2,0.3,96
10.2,0.45,140
10.2,0.6,117
10.2,0.75,93
10.2,0.9,90
10.2,1.05,94
10.2,1.2,98
10.2,1.35,97
10.2,1.5,97
10.35,-1.5,147
10.35,-1.35,147
10.35,-1.2,145
10.35,-1.05,135
10.35,-0.9,120
10.35,-0.75,142
10.35,-0.6,150
10.35,-0.45,145
10.35,-0.3,76
10.35,-0.15,160
10.35,0.0,112
10.35,0.15,28
10.35,0.3,62
10.35,0.45,70
10.35,0.6,79
10.35,0.75,0
10.35,0.9,40
10.35,1.05,70
10.35,1.2,69
10.35,1.35,76
10.35,1.5,80
10.5,-1.5,149
10.5,-1.35,164
10.5,-1.2,162
10.5,-1.05,155
10.5,-0.9,96
10.5,-0.75,126
10.5,-0.6,222
10.5,-0.45,216
10.5,-0.3,158
10.5,-0.15,178
10.5,0.0,126
10.5,0.15,63
10.5,0.3,54
10.5,0.45,54
10.5,0.6,65
10.5,0.75,36
10.5,0.9,0
10.5,1.05,24
10.5,1.2,36
10.5,1.35,51
10.5,1.5,74
10.65,-1.5,166
10.65,-1.35,166
10.65,-1.2,169
10.65,-1.05,180
10.65,-0.9,241
10.65,-0.75,230
10.65,-0.6,159
10.65,-0.45,104
10.65,-0.3,97
10.65,-0.15,146
10.65,0.0,43
10.65,0.15,47
10.65,0.3,41
10.65,0.45,47
10.65,0.6,40
10.65,0.75,36
10.65,0.9,22
10.65,1.05,39
10.65,1.2,51
10.65,1.35,71
10.65,1.5,75
10.8,-1.5,144
10.8,-1.35,138
10.8,-1.2,144
10.8,-1.05,161
10.8,-0.9,176
10.8,-0.75,156
10.8,-0.6,101
10.8,-0.45,89
10.8,-0.3,44
10.8,-0.15,71
10.8,0.0,50
10.8,0.15,34
10.8,0.3,6
10.8,0.45,39
10.8,0.6,40
10.8,0.75,38
10.8,0.9,52
10.8,1.05,63
10.8,1.2,81
10.8,1.35,71
10.8,1.5,75
10.95,-1.5,138
10.95,-1.35,141
10.95,-1.2,143
10.95,-1.05,146
10.95,-0.9,143
10.95,-0.75,121
10.95,-0.6,88
10.95,-0.45,68
10.95,-0.3,85
10.95,-0.15,194
10.95,0.0,93
10.95,0.15,56
10.95,0.3,44
10.95,0.45,57
10.95,0.6,56
10.95,0.75,0
10.95,0.9,63
10.95,1.05,84
10.95,1.2,88
10.95,1.35,89
10.95,1.5,89
11.1,-1.5,130
11.1,-1.35,130
11.1,-1.2,130
11.1,-1.05,130
11.1,-0.9,111
11.1,-0.75,101
11.1,-0.6,87
11.1,-0.45,74
11.1,-0.3,109
11.1,-0.15,140
11.1,0.0,126
11.1,0.15,96
11.1,0.3,68
11.1,0.45,84
11.1,0.6,191
11.1,0.75,109
11.1,0.9,113
11.1,1.05,110
11.1,1.2,105
11.1,1.35,97
11.1,1.5,94
11.25,-1.5,138
11.25,-1.35,137
11.25,-1.2,136
11.25,-1.05,144
11.25,-0.9,135
11.25,-0.75,126
11.25,-0.6,106
11.25,-0.45,94
11.25,-0.3,75
11.25,-0.15,58
11.25,0.0,109
11.25,0.15,146
11.25,0.3,163
11.25,0.45,255
11.25,0.6,161
11.25,0.75,255
11.25,0.9,187
11.25,1.05,134
11.25,1.2,116
11.25,1.35,107
11.25,1.5,102
11.4,-1.5,155
11.4,-1.35,155
11.4,-1.2,169
11.4,-1.05,154
11.4,-0.9,168
11.4,-0.75,165
11.4,-0.6,148
11.4,-0.45,138
11.4,-0.3,158
11.4,-0.15,85
11.4,0.0,124
11.4,0.15,195
11.4,0.3,255
11.4,0.45,79
11.4,0.6,62
11.4,0.75,229
11.4,0.9,175
11.4,1.05,134
11.4,1.2,117
11.4,1.35,108
11.4,1.5,103
11.55,-1.5,169
11.55,-1.35,174
11.55,-1.2,178
11.55,-1.05,180
11.55,-0.9,183
11.55,-0.75,191
11.55,-0.6,212
11.55,-0.45,232
11.55,-0.3,214
11.55,-0.15,180
11.55,0.0,163
11.55,0.15,94
11.55,0.3,105
11.55,0.45,63
11.55,0.6,62
11.55,0.75,104
11.55,0.9,135
11.55,1.05,121
11.55,1.2,107
11.55,1.35,103
11.55,1.5,114
11.7,-1.5,152
11.7,-1.35,154
11.7,-1.2,158
11.7,-1.05,174
11.7,-0.9,182
11.7,-0.75,208
11.7,-0.6,228
11.7,-0.45,255
11.7,-0.3,216
11.7,-0.15,200
11.7,0.0,136
11.7,0.15,75
11.7,0.3,60
11.7,0.45,55
11.7,0.6,0
11.7,0.75,77
11.7,0.9,120
11.7,1.05,128
11.7,1.2,128
11.7,1.35,120
11.7,1.5,121
11.85,-1.5,135
11.85,-1.35,139
11.85,-1.2,163
11.85,-1.05,165
11.85,-0.9,176
11.85,-0.75,185
11.85,-0.6,200
11.85,-0.45,248
11.85,-0.3,222
11.85,-0.15,183
11.85,0.0,129
11.85,0.15,89
11.85,0.3,55
11.85,0.45,219
11.85,0.6,116
11.85,0.75,100
11.85,0.9,108
11.85,1.05,114
11.85,1.2,118
11.85,1.35,128
11.85,1.5,120
12.0,-1.5,114
12.0,-1.35,109
12.0,-1.2,133
12.0,-1.05,132
12.0,-0.9,131
12.0,-0.75,122
12.0,-0.6,125
12.0,-0.45,122
12.0,-0.3,104
12.0,-0.15,120
12.0,0.0,140
12.0,0.15,127
12.0,0.3,170
12.0,0.45,219
12.0,0.6,3
12.0,0.75,100
12.0,0.9,112
12.0,1.05,116
12.0,1.2,118
12.0,1.35,118
12.0,1.5,117
12.15,-1.5,97
12.15,-1.35,90
12.15,-1.2,91
12.15,-1.05,90
12.15,-0.9,93
12.15,-0.75,82
12.15,-0.6,69
12.15,-0.45,44
12.15,-0.3,98
12.15,-0.15,30
12.15,0.0,209
12.15,0.15,156
12.15,0.3,159
12.15,0.45,156
12.15,0.6,112
12.15,0.75,107
12.15,0.9,102
12.15,1.05,99
12.15,1.2,114
12.15,1.35,114
12.15,1.5,110
12.3,-1.5,78
12.3,-1.35,80
12.3,-1.2,81
12.3,-1.05,78
12.3,-0.9,79
12.3,-0.75,58
12.3,-0.6,15
12.3,-0.45,66
12.3,-0.3,128
12.3,-0.15,141
12.3,0.0,132
12.3,0.15,144
12.3,0.3,137
12.3,0.45,130
12.3,0.6,124
12.3,0.75,113
12.3,0.9,101
12.3,1.05,94
12.3,1.2,88
12.3,1.35,101
12.3,1.5,97
12.45,-1.5,76
12.45,-1.35,64
12.45,-1.2,67
12.45,-1.05,68
12.45,-0.9,63
12.45,-0.75,52
12.45,-0.6,37
12.45,-0.45,74
12.45,-0.3,48
12.45,-0.15,218
12.45,0.0,143
12.45,0.15,105
12.45,0.3,64
12.45,0.45,77
12.45,0.6,105
12.45,0.75,109
12.45,0.9,99
12.45,1.05,85
12.45,1.2,79
12.45,1.35,72
12.45,1.5,82
12.6,-1.5,45
12.6,-1.35,52
12.6,-1.2,60
12.6,-1.05,52
12.6,-0.9,53
12.6,-0.75,57
12.6,-0.6,47
12.6,-0.45,7
12.6,-0.3,68
12.6,-0.15,123
12.6,0.0,116
12.6,0.15,74
12.6,0.3,2
12.6,0.45,44
12.6,0.6,84
12.6,0.75,93
12.6,0.9,93
12.6,1.05,82
12.6,1.2,75
12.6,1.35,57
12.6,1.5,49
12.75,-1.5,24
12.75,-1.35,26
12.75,-1.2,40
12.75,-1.05,49
12.75,-0.9,54
12.75,-0.75,54
12.75,-0.6,57
12.75,-0.45,54
12.75,-0.3,68
12.75,-0.15,84
12.75,0.0,88
12.75,0.15,71
12.75,0.3,50
12.75,0.45,64
12.75,0.6,78
12.75,0.75,74
12.75,0.9,74
12.75,1.05,76
12.75,1.2,59
12.75,1.35,41
12.75,1.5,26
12.9,-1.5,1
12.9,-1.35,11
12.9,-1.2,31
12.9,-1.05,46
12.9,-0.9,54
12.9,-0.75,63
12.9,-0.6,63
12.9,-0.45,63
12.9,-0.3,57
12.9,-0.15,62
12.9,0.0,77
12.9,0.15,74
12.9,0.3,73
12.9,0.45,60
12.9,0.6,70
12.9,0.75,55
12.9,0.9,61
12.9,1.05,67
12.9,1.2,51
12.9,1.35,21
12.9,1.5,3
13.05,-1.5,0
13.05,-1.35,8
13.05,-1.2,28
13.05,-1.05,44
13.05,-0.9,54
13.05,-0.75,63
13.05,-0.6,63
13.05,-0.45,63
13.05,-0.3,60
13.05,-0.15,62
13.05,0.0,73
13.05,0.15,74
13.05,0.3,74
13.05,0.45,60
13.05,0.6,64
13.05,0.75,60
13.05,0.9,62
13.05,1.05,64
13.05,1.2,47
13.05,1.35,13
13.05,1.5,0
