-3.0,-1.5,0
-3.0,-1.35,1
-3.0,-1.2,22
-3.0,-1.05,48
-3.0,-0.9,73
-3.0,-0.75,92
-3.0,-0.6,105
-3.0,-0.45,112
-3.0,-0.3,115
-3.0,-0.15,116
-3.0,0.0,115
-3.0,0.15,114
-3.0,0.3,114
-3.0,0.45,114
-3.0,0.6,112
-3.0,0.75,103
-3.0,0.9,83
-3.0,1.05,53
-3.0,1.2,22
-3.0,1.35,0
-3.0,1.5,0
-2.85,-1.5,2
-2.85,-1.35,10
-2.85,-1.2,32
-2.85,-1.05,60
-2.85,-0.9,85
-2.85,-0.75,103
-2.85,-0.6,115
-2.85,-0.45,121
-2.85,-0.3,122
-2.85,-0.15,121
-2.85,0.0,119
-2.85,0.15,117
-2.85,0.3,116
-2.85,0.45,118
-2.85,0.6,117
-2.85,0.75,110
-2.85,0.9,91
-2.85,1.05,61
-2.85,1.2,29
-2.85,1.35,7
-2.85,1.5,0
-2.7,-1.5,25
-2.7,-1.35,35
-2.7,-1.2,57
-2.7,-1.05,82
-2.7,-0.9,104
-2.7,-0.75,119
-2.7,-0.6,128
-2.7,-0.45,131
-2.7,-0.3,130
-2.7,-0.15,127
-2.7,0.0,123
-2.7,0.15,119
-2.7,0.3,117
-2.7,0.45,118
-2.7,0.6,118
-2.7,0.75,111
-2.7,0.9,95
-2.7,1.05,71
-2.7,1.2,44
-2.7,1.35,24
-2.7,1.5,15
-2.55,-1.5,59
-2.55,-1.35,70
-2.55,-1.2,89
-2.55,-1.05,110
-2.55,-0.9,128
-2.55,-0.75,139
-2.55,-0.6,144
-2.55,-0.45,144
-2.55,-0.3,141
-2.55,-0.15,135
-2.55,0.0,128
-2.55,0.15,122
-2.55,0.3,118
-2.55,0.45,117
-2.55,0.6,115
-2.55,0.75,110
-2.55,0.9,97
-2.55,1.05,79
-2.55,1.2,59
-2.55,1.35,43
-2.55,1.5,34
-2.4,-1.5,93
-2.4,-1.35,106
-2.4,-1.2,123
-2.4,-1.05,140
-2.4,-0.9,153
-2.4,-0.75,161
-2.4,-0.6,162
-2.4,-0.45,159
-2.4,-0.3,153
-2.4,-0.15,144
-2.4,0.0,135
-2.4,0.15,127
-2.4,0.3,121
-2.4,0.45,117
-2.4,0.6,114
-2.4,0.75,109
-2.4,0.9,99
-2.4,1.05,86
-2.4,1.2,72
-2.4,1.35,60
-2.4,1.5,52
-2.25,-1.5,122
-2.25,-1.35,136
-2.25,-1.2,152
-2.25,-1.05,167
-2.25,-0.9,178
-2.25,-0.75,183
-2.25,-0.6,182
-2.25,-0.45,175
-2.25,-0.3,165
-2.25,-0.15,154
-2.25,0.0,143
-2.25,0.15,134
-2.25,0.3,126
-2.25,0.45,121
-2.25,0.6,116
-2.25,0.75,110
-2.25,0.9,102
-2.25,1.05,93
-2.25,1.2,82
-2.25,1.35,73
-2.25,1.5,67
-2.1,-1.5,144
-2.1,-1.35,158
-2.1,-1.2,174
-2.1,-1.05,190
-2.1,-0.9,201
-2.1,-0.75,205
-2.1,-0.6,201
-2.1,-0.45,190
-2.1,-0.3,177
-2.1,-0.15,164
-2.1,0.0,151
-2.1,0.15,140
-2.1,0.3,131
-2.1,0.45,125
-2.1,0.6,119
-2.1,0.75,113
-2.1,0.9,106
-2.1,1.05,99
-2.1,1.2,91
-2.1,1.35,84
-2.1,1.5,78
-1.95,-1.5,158
-1.95,-1.35,173
-1.95,-1.2,190
-1.95,-1.05,207
-1.95,-0.9,220
-1.95,-0.75,224
-1.95,-0.6,218
-1.95,-0.45,203
-1.95,-0.3,186
-1.95,-0.15,170
-1.95,0.0,156
-1.95,0.15,144
-1.95,0.3,135
-1.95,0.45,129
-1.95,0.6,123
-1.95,0.75,116
-1.95,0.9,110
-1.95,1.05,104
-1.95,1.2,98
-1.95,1.35,92
-1.95,1.5,88
-1.8,-1.5,170
-1.8,-1.35,184
-1.8,-1.2,200
-1.8,-1.05,216
-1.8,-0.9,233
-1.8,-0.75,240
-1.8,-0.6,230
-1.8,-0.45,211
-1.8,-0.3,189
-1.8,-0.15,170
-1.8,0.0,157
-1.8,0.15,146
-1.8,0.3,137
-1.8,0.45,132
-1.8,0.6,126
-1.8,0.75,120
-1.8,0.9,114
-1.8,1.05,109
-1.8,1.2,103
-1.8,1.35,99
-1.8,1.5,94
-1.65,-1.5,173
-1.65,-1.35,185
-1.65,-1.2,199
-1.65,-1.05,215
-1.65,-0.9,232
-1.65,-0.75,241
-1.65,-0.6,235
-1.65,-0.45,206
-1.65,-0.3,180
-1.65,-0.15,164
-1.65,0.0,153
-1.65,0.15,144
-1.65,0.3,137
-1.65,0.45,133
-1.65,0.6,128
-1.65,0.75,122
-1.65,0.9,117
-1.65,1.05,112
-1.65,1.2,107
-1.65,1.35,103
-1.65,1.5,99
-1.5,-1.5,171
-1.5,-1.35,181
-1.5,-1.2,191
-1.5,-1.05,202
-1.5,-0.9,213
-1.5,-0.75,219
-1.5,-0.6,204
-1.5,-0.45,171
-1.5,-0.3,154
-1.5,-0.15,148
-1.5,0.0,144
-1.5,0.15,140
-1.5,0.3,137
-1.5,0.45,132
-1.5,0.6,127
-1.5,0.75,123
-1.5,0.9,118
-1.5,1.05,114
-1.5,1.2,110
-1.5,1.35,106
-1.5,1.5,103
-1.35,-1.5,167
-1.35,-1.35,173
-1.35,-1.2,179
-1.35,-1.05,182
-1.35,-0.9,178
-1.35,-0.75,157
-1.35,-0.6,112
-1.35,-0.45,100
-1.35,-0.3,119
-1.35,-0.15,133
-1.35,0.0,140
-1.35,0.15,136
-1.35,0.3,134
-1.35,0.45,130
-1.35,0.6,126
-1.35,0.75,122
-1.35,0.9,118
-1.35,1.05,115
-1.35,1.2,111
-1.35,1.35,108
-1.35,1.5,105
-1.2,-1.5,163
-1.2,-1.35,165
-1.2,-1.2,166
-1.2,-1.05,162
-1.2,-0.9,148
-1.2,-0.75,112
-1.2,-0.6,64
-1.2,-0.45,64
-1.2,-0.3,97
-1.2,-0.15,120
-1.2,0.0,132
-1.2,0.15,138
-1.2,0.3,138
-1.2,0.45,128
-1.2,0.6,125
-1.2,0.75,121
-1.2,0.9,118
-1.2,1.05,115
-1.2,1.2,112
-1.2,1.35,109
-1.2,1.5,106
-1.05,-1.5,154
-1.05,-1.35,155
-1.05,-1.2,154
-1.05,-1.05,148
-1.05,-0.9,133
-1.05,-0.75,108
-1.05,-0.6,82
-1.05,-0.45,81
-1.05,-0.3,100
-1.05,-0.15,118
-1.05,0.0,128
-1.05,0.15,135
-1.05,0.3,137
-1.05,0.45,137
-1.05,0.6,136
-1.05,0.75,134
-1.05,0.9,117
-1.05,1.05,114
-1.05,1.2,111
-1.05,1.35,109
-1.05,1.5,89
-0.9,-1.5,150
-0.9,-1.35,150
-0.9,-1.2,148
-0.9,-1.05,144
-0.9,-0.9,134
-0.9,-0.75,119
-0.9,-0.6,107
-0.9,-0.45,105
-0.9,-0.3,112
-0.9,-0.15,120
-0.9,0.0,126
-0.9,0.15,128
-0.9,0.3,128
-0.9,0.45,134
-0.9,0.6,133
-0.9,0.75,132
-0.9,0.9,130
-0.9,1.05,129
-0.9,1.2,92
-0.9,1.35,90
-0.9,1.5,88
-0.75,-1.5,150
-0.75,-1.35,149
-0.75,-1.2,147
-0.75,-1.05,143
-0.75,-0.9,137
-0.75,-0.75,130
-0.75,-0.6,124
-0.75,-0.45,122
-0.75,-0.3,123
-0.75,-0.15,126
-0.75,0.0,127
-0.75,0.15,127
-0.75,0.3,126
-0.75,0.45,124
-0.75,0.6,122
-0.75,0.75,120
-0.75,0.9,106
-0.75,1.05,100
-0.75,1.2,99
-0.75,1.35,89
-0.75,1.5,70
-0.6,-1.5,147
-0.6,-1.35,147
-0.6,-1.2,147
-0.6,-1.05,145
-0.6,-0.9,143
-0.6,-0.75,140
-0.6,-0.6,137
-0.6,-0.45,134
-0.6,-0.3,132
-0.6,-0.15,130
-0.6,0.0,128
-0.6,0.15,126
-0.6,0.3,123
-0.6,0.45,109
-0.6,0.6,107
-0.6,0.75,106
-0.6,0.9,88
-0.6,1.05,86
-0.6,1.2,85
-0.6,1.35,66
-0.6,1.5,65
-0.45,-1.5,142
-0.45,-1.35,147
-0.45,-1.2,148
-0.45,-1.05,149
-0.45,-0.9,150
-0.45,-0.75,150
-0.45,-0.6,148
-0.45,-0.45,144
-0.45,-0.3,139
-0.45,-0.15,134
-0.45,0.0,119
-0.45,0.15,115
-0.45,0.3,97
-0.45,0.45,94
-0.45,0.6,91
-0.45,0.75,89
-0.45,0.9,87
-0.45,1.05,85
-0.45,1.2,67
-0.45,1.35,66
-0.45,1.5,61
-0.3,-1.5,141
-0.3,-1.35,143
-0.3,-1.2,150
-0.3,-1.05,154
-0.3,-0.9,159
-0.3,-0.75,163
-0.3,-0.6,153
-0.3,-0.45,147
-0.3,-0.3,137
-0.3,-0.15,118
-0.3,0.0,109
-0.3,0.15,103
-0.3,0.3,98
-0.3,0.45,94
-0.3,0.6,91
-0.3,0.75,84
-0.3,0.9,82
-0.3,1.05,79
-0.3,1.2,62
-0.3,1.35,61
-0.3,1.5,60
-0.15,-1.5,139
-0.15,-1.35,143
-0.15,-1.2,135
-0.15,-1.05,136
-0.15,-0.9,151
-0.15,-0.75,166
-0.15,-0.6,172
-0.15,-0.45,160
-0.15,-0.3,139
-0.15,-0.15,124
-0.15,0.0,112
-0.15,0.15,103
-0.15,0.3,97
-0.15,0.45,89
-0.15,0.6,85
-0.15,0.75,82
-0.15,0.9,79
-0.15,1.05,62
-0.15,1.2,61
-0.15,1.35,60
-0.15,1.5,59
0.0,-1.5,114
0.0,-1.35,118
0.0,-1.2,128
0.0,-1.05,142
0.0,-0.9,164
0.0,-0.75,194
0.0,-0.6,213
0.0,-0.45,189
0.0,-0.3,149
0.0,-0.15,124
0.0,0.0,111
0.0,0.15,101
0.0,0.3,94
0.0,0.45,87
0.0,0.6,82
0.0,0.75,65
0.0,0.9,63
0.0,1.05,61
0.0,1.2,59
0.0,1.35,58
0.0,1.5,57
0.15,-1.5,113
0.15,-1.35,116
0.15,-1.2,125
0.15,-1.05,141
0.15,-0.9,166
0.15,-0.75,207
0.15,-0.6,243
0.15,-0.45,203
0.15,-0.3,148
0.15,-0.15,122
0.15,0.0,109
0.15,0.15,98
0.15,0.3,90
0.15,0.45,83
0.15,0.6,67
0.15,0.75,64
0.15,0.9,61
0.15,1.05,59
0.15,1.2,57
0.15,1.35,56
0.15,1.5,55
0.3,-1.5,105
0.3,-1.35,110
0.3,-1.2,118
0.3,-1.05,130
0.3,-0.9,149
0.3,-0.75,177
0.3,-0.6,195
0.3,-0.45,166
0.3,-0.3,137
0.3,-0.15,125
0.3,0.0,110
0.3,0.15,94
0.3,0.3,85
0.3,0.45,69
0.3,0.6,65
0.3,0.75,62
0.3,0.9,59
0.3,1.05,57
0.3,1.2,55
0.3,1.35,54
0.3,1.5,53
0.45,-1.5,100
0.45,-1.35,104
0.45,-1.2,109
0.45,-1.05,116
0.45,-0.9,125
0.45,-0.75,133
0.45,-0.6,135
0.45,-0.45,128
0.45,-0.3,140
0.45,-0.15,163
0.45,0.0,112
0.45,0.15,79
0.45,0.3,72
0.45,0.45,66
0.45,0.6,62
0.45,0.75,59
0.45,0.9,56
0.45,1.05,53
0.45,1.2,52
0.45,1.35,51
0.45,1.5,51
0.6,-1.5,86
0.6,-1.35,101
0.6,-1.2,99
0.6,-1.05,101
0.6,-0.9,104
0.6,-0.75,104
0.6,-0.6,103
0.6,-0.45,105
0.6,-0.3,130
0.6,-0.15,213
0.6,0.0,87
0.6,0.15,64
0.6,0.3,65
0.6,0.45,63
0.6,0.6,58
0.6,0.75,55
0.6,0.9,52
0.6,1.05,49
0.6,1.2,48
0.6,1.35,47
0.6,1.5,41
0.75,-1.5,81
0.75,-1.35,81
0.75,-1.2,82
0.75,-1.05,94
0.75,-0.9,88
0.75,-0.75,86
0.75,-0.6,82
0.75,-0.45,73
0.75,-0.3,77
0.75,-0.15,62
0.75,0.0,49
0.75,0.15,65
0.75,0.3,64
0.75,0.45,60
0.75,0.6,56
0.75,0.75,54
0.75,0.9,48
0.75,1.05,43
0.75,1.2,37
0.75,1.35,41
0.75,1.5,42
0.9,-1.5,80
0.9,-1.35,79
0.9,-1.2,78
0.9,-1.05,76
0.9,-0.9,69
0.9,-0.75,61
0.9,-0.6,59
0.9,-0.45,57
0.9,-0.3,54
0.9,-0.15,55
0.9,0.0,34
0.9,0.15,73
0.9,0.3,64
0.9,0.45,49
0.9,0.6,51
0.9,0.75,47
0.9,0.9,33
0.9,1.05,29
0.9,1.2,33
0.9,1.35,36
0.9,1.5,40
1.05,-1.5,66
1.05,-1.35,56
1.05,-1.2,59
1.05,-1.05,57
1.05,-0.9,55
1.05,-0.75,41
1.05,-0.6,44
1.05,-0.45,39
1.05,-0.3,26
1.05,-0.15,31
1.05,0.0,43
1.05,0.15,54
1.05,0.3,50
1.05,0.45,36
1.05,0.6,33
1.05,0.75,26
1.05,0.9,11
1.05,1.05,14
1.05,1.2,25
1.05,1.35,32
1.05,1.5,38
1.2,-1.5,62
1.2,-1.35,46
1.2,-1.2,46
1.2,-1.05,46
1.2,-0.9,49
1.2,-0.75,42
1.2,-0.6,41
1.2,-0.45,41
1.2,-0.3,49
1.2,-0.15,47
1.2,0.0,47
1.2,0.15,49
1.2,0.3,42
1.2,0.45,9
1.2,0.6,18
1.2,0.75,18
1.2,0.9,0
1.2,1.05,5
1.2,1.2,23
1.2,1.35,33
1.2,1.5,38
1.35,-1.5,45
1.35,-1.35,46
1.35,-1.2,54
1.35,-1.05,55
1.35,-0.9,55
1.35,-0.75,54
1.35,-0.6,52
1.35,-0.45,50
1.35,-0.3,52
1.35,-0.15,55
1.35,0.0,56
1.35,0.15,46
1.35,0.3,39
1.35,0.45,3
1.35,0.6,16
1.35,0.75,18
1.35,0.9,11
1.35,1.05,14
1.35,1.2,23
1.35,1.35,29
1.35,1.5,33
1.5,-1.5,44
1.5,-1.35,45
1.5,-1.2,47
1.5,-1.05,52
1.5,-0.9,57
1.5,-0.75,57
1.5,-0.6,57
1.5,-0.45,56
1.5,-0.3,56
1.5,-0.15,60
1.5,0.0,72
1.5,0.15,67
1.5,0.3,53
1.5,0.45,36
1.5,0.6,33
1.5,0.75,33
1.5,0.9,29
1.5,1.05,27
1.5,1.2,29
1.5,1.35,31
1.5,1.5,33
1.65,-1.5,39
1.65,-1.35,40
1.65,-1.2,45
1.65,-1.05,51
1.65,-0.9,55
1.65,-0.75,58
1.65,-0.6,57
1.65,-0.45,56
1.65,-0.3,57
1.65,-0.15,76
1.65,0.0,89
1.65,0.15,74
1.65,0.3,54
1.65,0.45,49
1.65,0.6,49
1.65,0.75,47
1.65,0.9,41
1.65,1.05,37
1.65,1.2,36
1.65,1.35,36
1.65,1.5,36
1.8,-1.5,39
1.8,-1.35,39
1.8,-1.2,40
1.8,-1.05,46
1.8,-0.9,50
1.8,-0.75,57
1.8,-0.6,59
1.8,-0.45,55
1.8,-0.3,51
1.8,-0.15,73
1.8,0.0,34
1.8,0.15,43
1.8,0.3,41
1.8,0.45,58
1.8,0.6,74
1.8,0.75,59
1.8,0.9,50
1.8,1.05,44
1.8,1.2,37
1.8,1.35,36
1.8,1.5,35
1.95,-1.5,36
1.95,-1.35,34
1.95,-1.2,32
1.95,-1.05,34
1.95,-0.9,42
1.95,-0.75,58
1.95,-0.6,88
1.95,-0.45,61
1.95,-0.3,29
1.95,-0.15,0
1.95,0.0,18
1.95,0.15,18
1.95,0.3,18
1.95,0.45,78
1.95,0.6,91
1.95,0.75,63
1.95,0.9,50
1.95,1.05,44
1.95,1.2,41
1.95,1.35,34
1.95,1.5,32
2.1,-1.5,27
2.1,-1.35,26
2.1,-1.2,20
2.1,-1.05,13
2.1,-0.9,29
2.1,-0.75,52
2.1,-0.6,90
2.1,-0.45,53
2.1,-0.3,17
2.1,-0.15,24
2.1,0.0,32
2.1,0.15,22
2.1,0.3,43
2.1,0.45,48
2.1,0.6,59
2.1,0.75,56
2.1,0.9,51
2.1,1.05,44
2.1,1.2,37
2.1,1.35,32
2.1,1.5,32
2.25,-1.5,37
2.25,-1.35,20
2.25,-1.2,10
2.25,-1.05,0
2.25,-0.9,15
2.25,-0.75,27
2.25,-0.6,31
2.25,-0.45,53
2.25,-0.3,46
2.25,-0.15,48
2.25,0.0,44
2.25,0.15,47
2.25,0.3,46
2.25,0.45,45
2.25,0.6,44
2.25,0.75,44
2.25,0.9,38
2.25,1.05,36
2.25,1.2,35
2.25,1.35,33
2.25,1.5,32
2.4,-1.5,37
2.4,-1.35,31
2.4,-1.2,25
2.4,-1.05,14
2.4,-0.9,23
2.4,-0.75,24
2.4,-0.6,24
2.4,-0.45,52
2.4,-0.3,53
2.4,-0.15,54
2.4,0.0,51
2.4,0.15,56
2.4,0.3,49
2.4,0.45,41
2.4,0.6,33
2.4,0.75,32
2.4,0.9,31
2.4,1.05,31
2.4,1.2,31
2.4,1.35,30
2.4,1.5,30
2.55,-1.5,40
2.55,-1.35,40
2.55,-1.2,38
2.55,-1.05,38
2.55,-0.9,46
2.55,-0.75,43
2.55,-0.6,55
2.55,-0.45,56
2.55,-0.3,65
2.55,-0.15,62
2.55,0.0,57
2.55,0.15,53
2.55,0.3,39
2.55,0.45,27
2.55,0.6,24
2.55,0.75,22
2.55,0.9,26
2.55,1.05,28
2.55,1.2,26
2.55,1.35,27
2.55,1.5,28
2.7,-1.5,40
2.7,-1.35,40
2.7,-1.2,52
2.7,-1.05,55
2.7,-0.9,61
2.7,-0.75,70
2.7,-0.6,70
2.7,-0.45,78
2.7,-0.3,100
2.7,-0.15,70
2.7,0.0,70
2.7,0.15,50
2.7,0.3,13
2.7,0.45,9
2.7,0.6,7
2.7,0.75,14
2.7,0.9,21
2.7,1.05,26
2.7,1.2,26
2.7,1.35,28
2.7,1.5,30
2.85,-1.5,42
2.85,-1.35,55
2.85,-1.2,56
2.85,-1.05,59
2.85,-0.9,65
2.85,-0.75,79
2.85,-0.6,81
2.85,-0.45,56
2.85,-0.3,72
2.85,-0.15,58
2.85,0.0,74
2.85,0.15,74
2.85,0.3,24
2.85,0.45,5
2.85,0.6,0
2.85,0.75,16
2.85,0.9,30
2.85,1.05,38
2.85,1.2,47
2.85,1.35,34
2.85,1.5,34
3.0,-1.5,42
3.0,-1.35,45
3.0,-1.2,51
3.0,-1.05,50
3.0,-0.9,55
3.0,-0.75,55
3.0,-0.6,80
3.0,-0.45,86
3.0,-0.3,75
3.0,-0.15,46
3.0,0.0,74
3.0,0.15,92
3.0,0.3,64
3.0,0.45,23
3.0,0.6,3
3.0,0.75,21
3.0,0.9,33
3.0,1.05,41
3.0,1.2,46
3.0,1.35,30
3.0,1.5,32
3.15,-1.5,44
3.15,-1.35,45
3.15,-1.2,37
3.15,-1.05,13
3.15,-0.9,36
3.15,-0.75,161
3.15,-0.6,128
3.15,-0.45,61
3.15,-0.3,111
3.15,-0.15,44
3.15,0.0,141
3.15,0.15,115
3.15,0.3,88
3.15,0.45,55
3.15,0.6,35
3.15,0.75,38
3.15,0.9,41
3.15,1.05,25
3.15,1.2,27
3.15,1.35,28
3.15,1.5,29
3.3,-1.5,42
3.3,-1.35,40
3.3,-1.2,34
3.3,-1.05,23
3.3,-0.9,47
3.3,-0.75,102
3.3,-0.6,119
3.3,-0.45,85
3.3,-0.3,85
3.3,-0.15,64
3.3,0.0,43
3.3,0.15,64
3.3,0.3,69
3.3,0.45,65
3.3,0.6,38
3.3,0.75,31
3.3,0.9,30
3.3,1.05,30
3.3,1.2,30
3.3,1.35,31
3.3,1.5,31
3.45,-1.5,40
3.45,-1.35,38
3.45,-1.2,35
3.45,-1.05,32
3.45,-0.9,34
3.45,-0.75,57
3.45,-0.6,94
3.45,-0.45,123
3.45,-0.3,139
3.45,-0.15,58
3.45,0.0,63
3.45,0.15,54
3.45,0.3,54
3.45,0.45,51
3.45,0.6,47
3.45,0.75,41
3.45,0.9,39
3.45,1.05,38
3.45,1.2,33
3.45,1.35,33
3.45,1.5,33
3.6,-1.5,37
3.6,-1.35,34
3.6,-1.2,34
3.6,-1.05,26
3.6,-0.9,6
3.6,-0.75,25
3.6,-0.6,46
3.6,-0.45,47
3.6,-0.3,101
3.6,-0.15,58
3.6,0.0,68
3.6,0.15,44
3.6,0.3,53
3.6,0.45,52
3.6,0.6,52
3.6,0.75,48
3.6,0.9,46
3.6,1.05,41
3.6,1.2,40
3.6,1.35,39
3.6,1.5,35
3.75,-1.5,16
3.75,-1.35,26
3.75,-1.2,13
3.75,-1.05,3
3.75,-0.9,27
3.75,-0.75,48
3.75,-0.6,44
3.75,-0.45,1
3.75,-0.3,27
3.75,-0.15,62
3.75,0.0,80
3.75,0.15,62
3.75,0.3,54
3.75,0.45,53
3.75,0.6,52
3.75,0.75,52
3.75,0.9,52
3.75,1.05,47
3.75,1.2,46
3.75,1.35,41
3.75,1.5,41
3.9,-1.5,16
3.9,-1.35,28
3.9,-1.2,25
3.9,-1.05,18
3.9,-0.9,31
3.9,-0.75,58
3.9,-0.6,58
3.9,-0.45,127
3.9,-0.3,50
3.9,-0.15,61
3.9,0.0,42
3.9,0.15,63
3.9,0.3,52
3.9,0.45,49
3.9,0.6,52
3.9,0.75,52
3.9,0.9,48
3.9,1.05,47
3.9,1.2,47
3.9,1.35,46
3.9,1.5,46
4.05,-1.5,29
4.05,-1.35,40
4.05,-1.2,25
4.05,-1.05,28
4.05,-0.9,35
4.05,-0.75,33
4.05,-0.6,51
4.05,-0.45,8
4.05,-0.3,111
4.05,-0.15,82
4.05,0.0,103
4.05,0.15,54
4.05,0.3,51
4.05,0.45,41
4.05,0.6,42
4.05,0.75,46
4.05,0.9,46
4.05,1.05,46
4.05,1.2,41
4.05,1.35,41
4.05,1.5,51
4.2,-1.5,36
4.2,-1.35,44
4.2,-1.2,36
4.2,-1.05,25
4.2,-0.9,25
4.2,-0.75,32
4.2,-0.6,196
4.2,-0.45,104
4.2,-0.3,255
4.2,-0.15,107
4.2,0.0,93
4.2,0.15,30
4.2,0.3,54
4.2,0.45,54
4.2,0.6,27
4.2,0.75,30
4.2,0.9,30
4.2,1.05,30
4.2,1.2,49
4.2,1.35,51
4.2,1.5,51
4.35,-1.5,42
4.35,-1.35,50
4.35,-1.2,43
4.35,-1.05,25
4.35,-0.9,26
4.35,-0.75,29
4.35,-0.6,70
4.35,-0.45,96
4.35,-0.3,67
4.35,-0.15,74
4.35,0.0,48
4.35,0.15,53
4.35,0.3,29
4.35,0.45,39
4.35,0.6,43
4.35,0.75,45
4.35,0.9,46
4.35,1.05,39
4.35,1.2,48
4.35,1.35,51
4.35,1.5,51
4.5,-1.5,62
4.5,-1.35,65
4.5,-1.2,81
4.5,-1.05,88
4.5,-0.9,81
4.5,-0.75,73
4.5,-0.6,128
4.5,-0.45,64
4.5,-0.3,53
4.5,-0.15,175
4.5,0.0,101
4.5,0.15,0
4.5,0.3,32
4.5,0.45,39
4.5,0.6,43
4.5,0.75,45
4.5,0.9,66
4.5,1.05,49
4.5,1.2,53
4.5,1.35,56
4.5,1.5,57
4.65,-1.5,66
4.65,-1.35,72
4.65,-1.2,86
4.65,-1.05,129
4.65,-0.9,235
4.65,-0.75,57
4.65,-0.6,183
4.65,-0.45,66
4.65,-0.3,32
4.65,-0.15,37
4.65,0.0,197
4.65,0.15,53
4.65,0.3,43
4.65,0.45,43
4.65,0.6,42
4.65,0.75,38
4.65,0.9,47
4.65,1.05,54
4.65,1.2,62
4.65,1.35,63
4.65,1.5,63
4.8,-1.5,72
4.8,-1.35,76
4.8,-1.2,81
4.8,-1.05,98
4.8,-0.9,102
4.8,-0.75,66
4.8,-0.6,38
4.8,-0.45,32
4.8,-0.3,50
4.8,-0.15,77
4.8,0.0,137
4.8,0.15,58
4.8,0.3,37
4.8,0.45,19
4.8,0.6,32
4.8,0.75,53
4.8,0.9,67
4.8,1.05,74
4.8,1.2,75
4.8,1.35,69
4.8,1.5,66
4.95,-1.5,63
4.95,-1.35,62
4.95,-1.2,59
4.95,-1.05,56
4.95,-0.9,51
4.95,-0.75,26
4.95,-0.6,0
4.95,-0.45,67
4.95,-0.3,66
4.95,-0.15,32
4.95,0.0,101
4.95,0.15,94
4.95,0.3,33
4.95,0.45,40
4.95,0.6,43
4.95,0.75,66
4.95,0.9,92
4.95,1.05,98
4.95,1.2,101
4.95,1.35,83
4.95,1.5,93
5.1,-1.5,38
5.1,-1.35,38
5.1,-1.2,30
5.1,-1.05,11
5.1,-0.9,16
5.1,-0.75,27
5.1,-0.6,19
5.1,-0.45,51
5.1,-0.3,219
5.1,-0.15,98
5.1,0.0,255
5.1,0.15,103
5.1,0.3,24
5.1,0.45,31
5.1,0.6,65
5.1,0.75,125
5.1,0.9,162
5.1,1.05,150
5.1,1.2,120
5.1,1.35,120
5.1,1.5,113
5.25,-1.5,49
5.25,-1.35,44
5.25,-1.2,37
5.25,-1.05,15
5.25,-0.9,21
5.25,-0.75,52
5.25,-0.6,30
5.25,-0.45,29
5.25,-0.3,54
5.25,-0.15,4
5.25,0.0,81
5.25,0.15,32
5.25,0.3,50
5.25,0.45,48
5.25,0.6,80
5.25,0.75,185
5.25,0.9,234
5.25,1.05,175
5.25,1.2,153
5.25,1.35,138
5.25,1.5,130
5.4,-1.5,69
5.4,-1.35,54
5.4,-1.2,51
5.4,-1.05,47
5.4,-0.9,53
5.4,-0.75,49
5.4,-0.6,35
5.4,-0.45,49
5.4,-0.3,61
5.4,-0.15,54
5.4,0.0,55
5.4,0.15,22
5.4,0.3,18
5.4,0.45,73
5.4,0.6,103
5.4,0.75,160
5.4,0.9,191
5.4,1.05,169
5.4,1.2,149
5.4,1.35,138
5.4,1.5,131
5.55,-1.5,56
5.55,-1.35,57
5.55,-1.2,58
5.55,-1.05,66
5.55,-0.9,78
5.55,-0.75,95
5.55,-0.6,63
5.55,-0.45,84
5.55,-0.3,148
5.55,-0.15,193
5.55,0.0,231
5.55,0.15,180
5.55,0.3,122
5.55,0.45,135
5.55,0.6,143
5.55,0.75,150
5.55,0.9,149
5.55,1.05,149
5.55,1.2,144
5.55,1.35,125
5.55,1.5,124
5.7,-1.5,56
5.7,-1.35,57
5.7,-1.2,60
5.7,-1.05,75
5.7,-0.9,77
5.7,-0.75,102
5.7,-0.6,225
5.7,-0.45,76
5.7,-0.3,255
5.7,-0.15,95
5.7,0.0,105
5.7,0.15,194
5.7,0.3,173
5.7,0.45,204
5.7,0.6,124
5.7,0.75,121
5.7,0.9,115
5.7,1.05,118
5.7,1.2,119
5.7,1.35,117
5.7,1.5,104
5.85,-1.5,64
5.85,-1.35,64
5.85,-1.2,64
5.85,-1.05,64
5.85,-0.9,58
5.85,-0.75,51
5.85,-0.6,77
5.85,-0.45,35
5.85,-0.3,186
5.85,-0.15,55
5.85,0.0,37
5.85,0.15,53
5.85,0.3,112
5.85,0.45,137
5.85,0.6,61
5.85,0.75,88
5.85,0.9,102
5.85,1.05,109
5.85,1.2,97
5.85,1.35,98
5.85,1.5,98
6.0,-1.5,61
6.0,-1.35,58
6.0,-1.2,52
6.0,-1.05,48
6.0,-0.9,61
6.0,-0.75,53
6.0,-0.6,30
6.0,-0.45,54
6.0,-0.3,36
6.0,-0.15,62
6.0,0.0,93
6.0,0.15,29
6.0,0.3,22
6.0,0.45,38
6.0,0.6,65
6.0,0.75,72
6.0,0.9,80
6.0,1.05,96
6.0,1.2,89
6.0,1.35,91
6.0,1.5,108
6.15,-1.5,36
6.15,-1.35,33
6.15,-1.2,27
6.15,-1.05,9
6.15,-0.9,18
6.15,-0.75,18
6.15,-0.6,65
6.15,-0.45,17
6.15,-0.3,1
6.15,-0.15,66
6.15,0.0,30
6.15,0.15,55
6.15,0.3,18
6.15,0.45,24
6.15,0.6,51
6.15,0.75,61
6.15,0.9,65
6.15,1.05,83
6.15,1.2,87
6.15,1.35,90
6.15,1.5,96
6.3,-1.5,31
6.3,-1.35,35
6.3,-1.2,27
6.3,-1.05,23
6.3,-0.9,32
6.3,-0.75,53
6.3,-0.6,121
6.3,-0.45,14
6.3,-0.3,37
6.3,-0.15,44
6.3,0.0,56
6.3,0.15,48
6.3,0.3,39
6.3,0.45,29
6.3,0.6,41
6.3,0.75,46
6.3,0.9,62
6.3,1.05,65
6.3,1.2,83
6.3,1.35,83
6.3,1.5,84
6.45,-1.5,26
6.45,-1.35,35
6.45,-1.2,33
6.45,-1.05,32
6.45,-0.9,41
6.45,-0.75,35
6.45,-0.6,63
6.45,-0.45,196
6.45,-0.3,14
6.45,-0.15,62
6.45,0.0,22
6.45,0.15,49
6.45,0.3,70
6.45,0.45,70
6.45,0.6,69
6.45,0.75,64
6.45,0.9,63
6.45,1.05,73
6.45,1.2,87
6.45,1.35,88
6.45,1.5,103
6.6,-1.5,8
6.6,-1.35,8
6.6,-1.2,19
6.6,-1.05,17
6.6,-0.9,12
6.6,-0.75,34
6.6,-0.6,37
6.6,-0.45,17
6.6,-0.3,54
6.6,-0.15,35
6.6,0.0,103
6.6,0.15,97
6.6,0.3,108
6.6,0.45,96
6.6,0.6,76
6.6,0.75,68
6.6,0.9,69
6.6,1.05,67
6.6,1.2,79
6.6,1.35,79
6.6,1.5,88
6.75,-1.5,9
6.75,-1.35,9
6.75,-1.2,8
6.75,-1.05,4
6.75,-0.9,0
6.75,-0.75,21
6.75,-0.6,23
6.75,-0.45,62
6.75,-0.3,58
6.75,-0.15,57
6.75,0.0,60
6.75,0.15,255
6.75,0.3,105
6.75,0.45,92
6.75,0.6,87
6.75,0.75,75
6.75,0.9,72
6.75,1.05,70
6.75,1.2,73
6.75,1.35,73
6.75,1.5,73
6.9,-1.5,6
6.9,-1.35,6
6.9,-1.2,5
6.9,-1.05,6
6.9,-0.9,5
6.9,-0.75,0
6.9,-0.6,47
6.9,-0.45,112
6.9,-0.3,68
6.9,-0.15,68
6.9,0.0,47
6.9,0.15,47
6.9,0.3,41
6.9,0.45,86
6.9,0.6,88
6.9,0.75,88
6.9,0.9,88
6.9,1.05,88
6.9,1.2,88
6.9,1.35,78
6.9,1.5,88
7.05,-1.5,7
7.05,-1.35,10
7.05,-1.2,8
7.05,-1.05,5
7.05,-0.9,0
7.05,-0.75,3
7.05,-0.6,19
7.05,-0.45,42
7.05,-0.3,61
7.05,-0.15,68
7.05,0.0,66
7.05,0.15,71
7.05,0.3,68
7.05,0.45,85
7.05,0.6,88
7.05,0.75,88
7.05,0.9,88
7.05,1.05,88
7.05,1.2,88
7.05,1.35,88
7.05,1.5,88
7.2,-1.5,15
7.2,-1.35,14
7.2,-1.2,13
7.2,-1.05,5
7.2,-0.9,3
7.2,-0.75,5
7.2,-0.6,42
7.2,-0.45,32
7.2,-0.3,27
7.2,-0.15,67
7.2,0.0,68
7.2,0.15,112
7.2,0.3,79
7.2,0.45,71
7.2,0.6,71
7.2,0.75,87
7.2,0.9,88
7.2,1.05,88
7.2,1.2,88
7.2,1.35,88
7.2,1.5,88
7.35,-1.5,17
7.35,-1.35,17
7.35,-1.2,17
7.35,-1.05,17
7.35,-0.9,21
7.35,-0.75,23
7.35,-0.6,33
7.35,-0.45,3
7.35,-0.3,60
7.35,-0.15,137
7.35,0.0,57
7.35,0.15,75
7.35,0.3,57
7.35,0.45,70
7.35,0.6,76
7.35,0.75,76
7.35,0.9,75
7.35,1.05,75
7.35,1.2,75
7.35,1.35,58
7.35,1.5,58
7.5,-1.5,30
7.5,-1.35,30
7.5,-1.2,26
7.5,-1.05,25
7.5,-0.9,25
7.5,-0.75,45
7.5,-0.6,76
7.5,-0.45,84
7.5,-0.3,39
7.5,-0.15,88
7.5,0.0,7
7.5,0.15,31
7.5,0.3,83
7.5,0.45,84
7.5,0.6,72
7.5,0.75,68
7.5,0.9,75
7.5,1.05,59
7.5,1.2,59
7.5,1.35,58
7.5,1.5,58
7.65,-1.5,40
7.65,-1.35,40
7.65,-1.2,40
7.65,-1.05,38
7.65,-0.9,24
7.65,-0.75,2
7.65,-0.6,73
7.65,-0.45,58
7.65,-0.3,56
7.65,-0.15,51
7.65,0.0,58
7.65,0.15,56
7.65,0.3,56
7.65,0.45,67
7.65,0.6,60
7.65,0.75,53
7.65,0.9,51
7.65,1.05,50
7.65,1.2,50
7.65,1.35,57
7.65,1.5,57
7.8,-1.5,40
7.8,-1.35,40
7.8,-1.2,40
7.8,-1.05,40
7.8,-0.9,40
7.8,-0.75,28
7.8,-0.6,105
7.8,-0.45,47
7.8,-0.3,39
7.8,-0.15,180
7.8,0.0,112
7.8,0.15,79
7.8,0.3,43
7.8,0.45,51
7.8,0.6,51
7.8,0.75,51
7.8,0.9,50
7.8,1.05,53
7.8,1.2,53
7.8,1.35,53
7.8,1.5,52
7.95,-1.5,18
7.95,-1.35,33
7.95,-1.2,33
7.95,-1.05,35
7.95,-0.9,45
7.95,-0.75,53
7.95,-0.6,54
7.95,-0.45,36
7.95,-0.3,105
7.95,-0.15,133
7.95,0.0,128
7.95,0.15,29
7.95,0.3,64
7.95,0.45,50
7.95,0.6,51
7.95,0.75,48
7.95,0.9,48
7.95,1.05,52
7.95,1.2,52
7.95,1.35,52
7.95,1.5,52
8.1,-1.5,12
8.1,-1.35,12
8.1,-1.2,12
8.1,-1.05,12
8.1,-0.9,30
8.1,-0.75,39
8.1,-0.6,58
8.1,-0.45,95
8.1,-0.3,108
8.1,-0.15,199
8.1,0.0,14
8.1,0.15,17
8.1,0.3,33
8.1,0.45,38
8.1,0.6,40
8.1,0.75,40
8.1,0.9,46
8.1,1.05,47
8.1,1.2,51
8.1,1.35,51
8.1,1.5,51
8.25,-1.5,11
8.25,-1.35,10
8.25,-1.2,12
8.25,-1.05,7
8.25,-0.9,6
8.25,-0.75,11
8.25,-0.6,5
8.25,-0.45,12
8.25,-0.3,50
8.25,-0.15,48
8.25,0.0,133
8.25,0.15,26
8.25,0.3,44
8.25,0.45,49
8.25,0.6,43
8.25,0.75,43
8.25,0.9,43
8.25,1.05,43
8.25,1.2,43
8.25,1.35,43
8.25,1.5,51
8.4,-1.5,14
8.4,-1.35,9
8.4,-1.2,8
8.4,-1.05,4
8.4,-0.9,3
8.4,-0.75,22
8.4,-0.6,2
8.4,-0.45,54
8.4,-0.3,1
8.4,-0.15,32
8.4,0.0,8
8.4,0.15,10
8.4,0.3,56
8.4,0.45,49
8.4,0.6,44
8.4,0.75,43
8.4,0.9,43
8.4,1.05,43
8.4,1.2,43
8.4,1.35,43
8.4,1.5,43
8.55,-1.5,38
8.55,-1.35,34
8.55,-1.2,29
8.55,-1.05,21
8.55,-0.9,23
8.55,-0.75,37
8.55,-0.6,37
8.55,-0.45,72
8.55,-0.3,65
8.55,-0.15,57
8.55,0.0,56
8.55,0.15,84
8.55,0.3,60
8.55,0.45,47
8.55,0.6,43
8.55,0.75,43
8.55,0.9,47
8.55,1.05,56
8.55,1.2,56
8.55,1.35,56
8.55,1.5,56
8.7,-1.5,44
8.7,-1.35,43
8.7,-1.2,35
8.7,-1.05,15
8.7,-0.9,19
8.7,-0.75,69
8.7,-0.6,212
8.7,-0.45,64
8.7,-0.3,24
8.7,-0.15,7
8.7,0.0,103
8.7,0.15,58
8.7,0.3,53
8.7,0.45,53
8.7,0.6,55
8.7,0.75,56
8.7,0.9,56
8.7,1.05,52
8.7,1.2,52
8.7,1.35,52
8.7,1.5,52
8.85,-1.5,44
8.85,-1.35,37
8.85,-1.2,25
8.85,-1.05,13
8.85,-0.9,57
8.85,-0.75,111
8.85,-0.6,113
8.85,-0.45,0
8.85,-0.3,41
8.85,-0.15,0
8.85,0.0,46
8.85,0.15,55
8.85,0.3,45
8.85,0.45,58
8.85,0.6,61
8.85,0.75,57
8.85,0.9,57
8.85,1.05,57
8.85,1.2,56
8.85,1.35,56
8.85,1.5,70
9.0,-1.5,45
9.0,-1.35,41
9.0,-1.2,29
9.0,-1.05,17
9.0,-0.9,61
9.0,-0.75,68
9.0,-0.6,62
9.0,-0.45,62
9.0,-0.3,97
9.0,-0.15,48
9.0,0.0,49
9.0,0.15,61
9.0,0.3,81
9.0,0.45,62
9.0,0.6,58
9.0,0.75,57
9.0,0.9,57
9.0,1.05,69
9.0,1.2,70
9.0,1.35,71
9.0,1.5,71
9.15,-1.5,45
9.15,-1.35,45
9.15,-1.2,45
9.15,-1.05,50
9.15,-0.9,65
9.15,-0.75,60
9.15,-0.6,60
9.15,-0.45,76
9.15,-0.3,34
9.15,-0.15,38
9.15,0.0,57
9.15,0.15,60
9.15,0.3,63
9.15,0.45,61
9.15,0.6,68
9.15,0.75,70
9.15,0.9,71
9.15,1.05,85
9.15,1.2,86
9.15,1.35,86
9.15,1.5,79
9.3,-1.5,37
9.3,-1.35,41
9.3,-1.2,43
9.3,-1.05,54
9.3,-0.9,53
9.3,-0.75,61
9.3,-0.6,60
9.3,-0.45,70
9.3,-0.3,86
9.3,-0.15,32
9.3,0.0,48
9.3,0.15,63
9.3,0.3,32
9.3,0.45,58
9.3,0.6,84
9.3,0.75,91
9.3,0.9,90
9.3,1.05,91
9.3,1.2,86
9.3,1.35,86
9.3,1.5,85
9.45,-1.5,51
9.45,-1.35,57
9.45,-1.2,60
9.45,-1.05,62
9.45,-0.9,63
9.45,-0.75,64
9.45,-0.6,79
9.45,-0.45,98
9.45,-0.3,126
9.45,-0.15,25
9.45,0.0,6
9.45,0.15,62
9.45,0.3,53
9.45,0.45,89
9.45,0.6,99
9.45,0.75,108
9.45,0.9,107
9.45,1.05,106
9.45,1.2,106
9.45,1.35,105
9.45,1.5,105
9.6,-1.5,42
9.6,-1.35,42
9.6,-1.2,44
9.6,-1.05,47
9.6,-0.9,52
9.6,-0.75,56
9.6,-0.6,89
9.6,-0.45,65
9.6,-0.3,94
9.6,-0.15,126
9.6,0.0,75
9.6,0.15,87
9.6,0.3,194
9.6,0.45,179
9.6,0.6,148
9.6,0.75,137
9.6,0.9,131
9.6,1.05,129
9.6,1.2,128
9.6,1.35,128
9.6,1.5,128
9.75,-1.5,39
9.75,-1.35,39
9.75,-1.2,38
9.75,-1.05,35
9.75,-0.9,37
9.75,-0.75,35
9.75,-0.6,28
9.75,-0.45,7
9.75,-0.3,95
9.75,-0.15,45
9.75,0.0,198
9.75,0.15,106
9.75,0.3,211
9.75,0.45,202
9.75,0.6,170
9.75,0.75,154
9.75,0.9,147
9.75,1.05,145
9.75,1.2,145
9.75,1.35,131
9.75,1.5,131
9.9,-1.5,41
9.9,-1.35,41
9.9,-1.2,33
9.9,-1.05,26
9.9,-0.9,27
9.9,-0.75,21
9.9,-0.6,47
9.9,-0.45,68
9.9,-0.3,112
9.9,-0.15,134
9.9,0.0,255
9.9,0.15,232
9.9,0.3,213
9.9,0.45,194
9.9,0.6,160
9.9,0.75,152
9.9,0.9,147
9.9,1.05,140
9.9,1.2,139
9.9,1.35,138
9.9,1.5,137
10.05,-1.5,46
10.05,-1.35,43
10.05,-1.2,33
10.05,-1.05,7
10.05,-0.9,11
10.05,-0.75,47
10.05,-0.6,78
10.05,-0.45,91
10.05,-0.3,49
10.05,-0.15,122
10.05,0.0,194
10.05,0.15,209
10.05,0.3,241
10.05,0.45,122
10.05,0.6,90
10.05,0.75,129
10.05,0.9,146
10.05,1.05,151
10.05,1.2,153
10.05,1.35,154
10.05,1.5,154
10.2,-1.5,46
10.2,-1.35,43
10.2,-1.2,37
10.2,-1.05,27
10.2,-0.9,40
10.2,-0.75,73
10.2,-0.6,106
10.2,-0.45,38
10.2,-0.3,70
10.2,-0.15,28
10.2,0.0,114
10.2,0.15,208
10.2,0.3,255
10.2,0.45,89
10.2,0.6,69
10.2,0.75,128
10.2,0.9,150
10.2,1.05,159
10.2,1.2,163
10.2,1.35,165
10.2,1.5,167
10.35,-1.5,48
10.35,-1.35,47
10.35,-1.2,46
10.35,-1.05,48
10.35,-0.9,60
10.35,-0.75,67
10.35,-0.6,167
10.35,-0.45,116
10.35,-0.3,255
10.35,-0.15,90
10.35,0.0,61
10.35,0.15,50
10.35,0.3,236
10.35,0.45,179
10.35,0.6,143
10.35,0.75,151
10.35,0.9,163
10.35,1.05,171
10.35,1.2,195
10.35,1.35,185
10.35,1.5,188
10.5,-1.5,50
10.5,-1.35,49
10.5,-1.2,55
10.5,-1.05,54
10.5,-0.9,48
10.5,-0.75,52
10.5,-0.6,93
10.5,-0.45,82
10.5,-0.3,75
10.5,-0.15,86
10.5,0.0,83
10.5,0.15,86
10.5,0.3,152
10.5,0.45,171
10.5,0.6,175
10.5,0.75,183
10.5,0.9,188
10.5,1.05,184
10.5,1.2,200
10.5,1.35,203
10.5,1.5,206
10.65,-1.5,54
10.65,-1.35,54
10.65,-1.2,71
10.65,-1.05,68
10.65,-0.9,57
10.65,-0.75,20
10.65,-0.6,18
10.65,-0.45,62
10.65,-0.3,41
10.65,-0.15,105
10.65,0.0,118
10.65,0.15,157
10.65,0.3,172
10.65,0.45,179
10.65,0.6,179
10.65,0.75,176
10.65,0.9,194
10.65,1.05,202
10.65,1.2,203
10.65,1.35,208
10.65,1.5,209
10.8,-1.5,62
10.8,-1.35,61
10.8,-1.2,60
10.8,-1.05,71
10.8,-0.9,86
10.8,-0.75,83
10.8,-0.6,101
10.8,-0.45,215
10.8,-0.3,203
10.8,-0.15,174
10.8,0.0,179
10.8,0.15,217
10.8,0.3,222
10.8,0.45,202
10.8,0.6,190
10.8,0.75,191
10.8,0.9,186
10.8,1.05,191
10.8,1.2,190
10.8,1.35,189
10.8,1.5,189
10.95,-1.5,67
10.95,-1.35,63
10.95,-1.2,76
10.95,-1.05,93
10.95,-0.9,92
10.95,-0.75,90
10.95,-0.6,120
10.95,-0.45,242
10.95,-0.3,255
10.95,-0.15,199
10.95,0.0,216
10.95,0.15,242
10.95,0.3,243
10.95,0.45,230
10.95,0.6,217
10.95,0.75,206
10.95,0.9,186
10.95,1.05,187
10.95,1.2,187
10.95,1.35,193
10.95,1.5,191
11.1,-1.5,80
11.1,-1.35,78
11.1,-1.2,88
11.1,-1.05,96
11.1,-0.9,97
11.1,-0.75,105
11.1,-0.6,138
11.1,-0.45,179
11.1,-0.3,154
11.1,-0.15,171
11.1,0.0,201
11.1,0.15,237
11.1,0.3,252
11.1,0.45,247
11.1,0.6,229
11.1,0.75,224
11.1,0.9,205
11.1,1.05,207
11.1,1.2,199
11.1,1.35,196
11.1,1.5,193
11.25,-1.5,80
11.25,-1.35,78
11.25,-1.2,74
11.25,-1.05,80
11.25,-0.9,80
11.25,-0.75,45
11.25,-0.6,82
11.25,-0.45,63
11.25,-0.3,0
11.25,-0.15,104
11.25,0.0,157
11.25,0.15,255
11.25,0.3,255
11.25,0.45,255
11.25,0.6,241
11.25,0.75,219
11.25,0.9,207
11.25,1.05,194
11.25,1.2,187
11.25,1.35,183
11.25,1.5,178
11.4,-1.5,89
11.4,-1.35,86
11.4,-1.2,77
11.4,-1.05,69
11.4,-0.9,66
11.4,-0.75,53
11.4,-0.6,109
11.4,-0.45,109
11.4,-0.3,77
11.4,-0.15,89
11.4,0.0,35
11.4,0.15,206
11.4,0.3,255
11.4,0.45,255
11.4,0.6,233
11.4,0.75,205
11.4,0.9,191
11.4,1.05,182
11.4,1.2,176
11.4,1.35,170
11.4,1.5,164
11.55,-1.5,92
11.55,-1.35,90
11.55,-1.2,83
11.55,-1.05,83
11.55,-0.9,85
11.55,-0.75,98
11.55,-0.6,95
11.55,-0.45,225
11.55,-0.3,232
11.55,-0.15,127
11.55,0.0,102
11.55,0.15,242
11.55,0.3,220
11.55,0.45,220
11.55,0.6,203
11.55,0.75,194
11.55,0.9,186
11.55,1.05,180
11.55,1.2,170
11.55,1.35,164
11.55,1.5,159
11.7,-1.5,113
11.7,-1.35,105
11.7,-1.2,104
11.7,-1.05,103
11.7,-0.9,110
11.7,-0.75,144
11.7,-0.6,222
11.7,-0.45,242
11.7,-0.3,197
11.7,-0.15,155
11.7,0.0,157
11.7,0.15,192
11.7,0.3,196
11.7,0.45,195
11.7,0.6,192
11.7,0.75,188
11.7,0.9,175
11.7,1.05,171
11.7,1.2,165
11.7,1.35,160
11.7,1.5,135
11.85,-1.5,103
11.85,-1.35,104
11.85,-1.2,109
11.85,-1.05,110
11.85,-0.9,105
11.85,-0.75,94
11.85,-0.6,95
11.85,-0.45,143
11.85,-0.3,155
11.85,-0.15,142
11.85,0.0,162
11.85,0.15,151
11.85,0.3,158
11.85,0.45,181
11.85,0.6,178
11.85,0.75,166
11.85,0.9,163
11.85,1.05,159
11.85,1.2,154
11.85,1.35,149
11.85,1.5,145
12.0,-1.5,93
12.0,-1.35,106
12.0,-1.2,110
12.0,-1.05,110
12.0,-0.9,93
12.0,-0.75,57
12.0,-0.6,48
12.0,-0.45,85
12.0,-0.3,103
12.0,-0.15,110
12.0,0.0,108
12.0,0.15,128
12.0,0.3,146
12.0,0.45,152
12.0,0.6,165
12.0,0.75,164
12.0,0.9,152
12.0,1.05,149
12.0,1.2,145
12.0,1.35,141
12.0,1.5,137
12.15,-1.5,92
12.15,-1.35,96
12.15,-1.2,99
12.15,-1.05,106
12.15,-0.9,79
12.15,-0.75,58
12.15,-0.6,70
12.15,-0.45,57
12.15,-0.3,82
12.15,-0.15,82
12.15,0.0,65
12.15,0.15,111
12.15,0.3,160
12.15,0.45,161
12.15,0.6,143
12.15,0.75,140
12.15,0.9,138
12.15,1.05,135
12.15,1.2,132
12.15,1.35,127
12.15,1.5,123
12.3,-1.5,88
12.3,-1.35,93
12.3,-1.2,103
12.3,-1.05,95
12.3,-0.9,84
12.3,-0.75,80
12.3,-0.6,81
12.3,-0.45,77
12.3,-0.3,82
12.3,-0.15,79
12.3,0.0,74
12.3,0.15,120
12.3,0.3,222
12.3,0.45,180
12.3,0.6,126
12.3,0.75,119
12.3,0.9,123
12.3,1.05,122
12.3,1.2,117
12.3,1.35,111
12.3,1.5,105
12.45,-1.5,82
12.45,-1.35,93
12.45,-1.2,103
12.45,-1.05,114
12.45,-0.9,117
12.45,-0.75,102
12.45,-0.6,97
12.45,-0.45,84
12.45,-0.3,82
12.45,-0.15,70
12.45,0.0,77
12.45,0.15,107
12.45,0.3,115
12.45,0.45,30
12.45,0.6,80
12.45,0.75,100
12.45,0.9,105
12.45,1.05,108
12.45,1.2,100
12.45,1.35,91
12.45,1.5,83
12.6,-1.5,69
12.6,-1.35,84
12.6,-1.2,108
12.6,-1.05,143
12.6,-0.9,171
12.6,-0.75,140
12.6,-0.6,109
12.6,-0.45,91
12.6,-0.3,76
12.6,-0.15,60
12.6,0.0,69
12.6,0.15,86
12.6,0.3,58
12.6,0.45,26
12.6,0.6,60
12.6,0.75,88
12.6,0.9,94
12.6,1.05,89
12.6,1.2,81
12.6,1.35,65
12.6,1.5,55
12.75,-1.5,39
12.75,-1.35,60
12.75,-1.2,99
12.75,-1.05,143
12.75,-0.9,170
12.75,-0.75,148
12.75,-0.6,109
12.75,-0.45,97
12.75,-0.3,83
12.75,-0.15,78
12.75,0.0,78
12.75,0.15,83
12.75,0.3,71
12.75,0.45,62
12.75,0.6,67
12.75,0.75,78
12.75,0.9,87
12.75,1.05,76
12.75,1.2,55
12.75,1.35,33
12.75,1.5,23
12.9,-1.5,3
12.9,-1.35,26
12.9,-1.2,74
12.9,-1.05,115
12.9,-0.9,136
12.9,-0.75,123
12.9,-0.6,105
12.9,-0.45,91
12.9,-0.3,86
12.9,-0.15,84
12.9,0.0,86
12.9,0.15,80
12.9,0.3,78
12.9,0.45,75
12.9,0.6,68
12.9,0.75,82
12.9,0.9,77
12.9,1.05,65
12.9,1.2,38
12.9,1.35,10
12.9,1.5,0
13.05,-1.5,0
13.05,-1.35,15
13.05,-1.2,57
13.05,-1.05,91
13.05,-0.9,105
13.05,-0.75,105
13.05,-0.6,98
13.05,-0.45,91
13.05,-0.3,85
13.05,-0.15,86
13.05,0.0,85
13.05,0.15,83
13.05,0.3,81
13.05,0.45,79
13.05,0.6,77
13.05,0.75,68
13.05,0.9,68
13.05,1.05,56
13.05,1.2,30
13.05,1.35,6
13.05,1.5,0
