-3.0,-1.5,0
-3.0,-1.35,1
-3.0,-1.2,16
-3.0,-1.05,35
-3.0,-0.9,50
-3.0,-0.75,61
-3.0,-0.6,67
-3.0,-0.45,70
-3.0,-0.3,71
-3.0,-0.15,72
-3.0,0.0,75
-3.0,0.15,78
-3.0,0.3,82
-3.0,0.45,86
-3.0,0.6,85
-3.0,0.75,79
-3.0,0.9,66
-3.0,1.05,46
-3.0,1.2,22
-3.0,1.35,2
-3.0,1.5,0
-2.85,-1.5,1
-2.85,-1.35,8
-2.85,-1.2,26
-2.85,-1.05,40
-2.85,-0.9,54
-2.85,-0.75,63
-2.85,-0.6,68
-2.85,-0.45,69
-2.85,-0.3,68
-2.85,-0.15,67
-2.85,0.0,69
-2.85,0.15,74
-2.85,0.3,83
-2.85,0.45,91
-2.85,0.6,93
-2.85,0.75,87
-2.85,0.9,74
-2.85,1.05,60
-2.85,1.2,31
-2.85,1.35,10
-2.85,1.5,1
-2.7,-1.5,19
-2.7,-1.35,26
-2.7,-1.2,40
-2.7,-1.05,55
-2.7,-0.9,59
-2.7,-0.75,66
-2.7,-0.6,69
-2.7,-0.45,67
-2.7,-0.3,62
-2.7,-0.15,57
-2.7,0.0,59
-2.7,0.15,66
-2.7,0.3,80
-2.7,0.45,99
-2.7,0.6,104
-2.7,0.75,105
-2.7,0.9,92
-2.7,1.05,68
-2.7,1.2,47
-2.7,1.35,29
-2.7,1.5,20
-2.55,-1.5,40
-2.55,-1.35,46
-2.55,-1.2,55
-2.55,-1.05,65
-2.55,-0.9,65
-2.55,-0.75,70
-2.55,-0.6,70
-2.55,-0.45,66
-2.55,-0.3,55
-2.55,-0.15,35
-2.55,0.0,35
-2.55,0.15,55
-2.55,0.3,88
-2.55,0.45,125
-2.55,0.6,128
-2.55,0.75,118
-2.55,0.9,104
-2.55,1.05,81
-2.55,1.2,64
-2.55,1.35,49
-2.55,1.5,41
-2.4,-1.5,57
-2.4,-1.35,62
-2.4,-1.2,68
-2.4,-1.05,75
-2.4,-0.9,79
-2.4,-0.75,73
-2.4,-0.6,73
-2.4,-0.45,69
-2.4,-0.3,56
-2.4,-0.15,26
-2.4,0.0,5
-2.4,0.15,113
-2.4,0.3,191
-2.4,0.45,181
-2.4,0.6,153
-2.4,0.75,130
-2.4,0.9,107
-2.4,1.05,91
-2.4,1.2,77
-2.4,1.35,66
-2.4,1.5,58
-2.25,-1.5,70
-2.25,-1.35,74
-2.25,-1.2,78
-2.25,-1.05,82
-2.25,-0.9,85
-2.25,-0.75,86
-2.25,-0.6,78
-2.25,-0.45,75
-2.25,-0.3,69
-2.25,-0.15,68
-2.25,0.0,97
-2.25,0.15,255
-2.25,0.3,255
-2.25,0.45,232
-2.25,0.6,168
-2.25,0.75,136
-2.25,0.9,111
-2.25,1.05,97
-2.25,1.2,85
-2.25,1.35,76
-2.25,1.5,69
-2.1,-1.5,78
-2.1,-1.35,81
-2.1,-1.2,85
-2.1,-1.05,88
-2.1,-0.9,90
-2.1,-0.75,92
-2.1,-0.6,82
-2.1,-0.45,90
-2.1,-0.3,85
-2.1,-0.15,86
-2.1,0.0,114
-2.1,0.15,200
-2.1,0.3,253
-2.1,0.45,200
-2.1,0.6,155
-2.1,0.75,124
-2.1,0.9,108
-2.1,1.05,97
-2.1,1.2,89
-2.1,1.35,82
-2.1,1.5,77
-1.95,-1.5,83
-1.95,-1.35,86
-1.95,-1.2,88
-1.95,-1.05,91
-1.95,-0.9,94
-1.95,-0.75,97
-1.95,-0.6,100
-1.95,-0.45,95
-1.95,-0.3,84
-1.95,-0.15,67
-1.95,0.0,50
-1.95,0.15,81
-1.95,0.3,128
-1.95,0.45,134
-1.95,0.6,125
-1.95,0.75,109
-1.95,0.9,101
-1.95,1.05,95
-1.95,1.2,89
-1.95,1.35,85
-1.95,1.5,80
-1.8,-1.5,85
-1.8,-1.35,87
-1.8,-1.2,89
-1.8,-1.05,93
-1.8,-0.9,96
-1.8,-0.75,104
-1.8,-0.6,108
-1.8,-0.45,105
-1.8,-0.3,87
-1.8,-0.15,50
-1.8,0.0,0
-1.8,0.15,22
-1.8,0.3,67
-1.8,0.45,90
-1.8,0.6,100
-1.8,0.75,95
-1.8,0.9,94
-1.8,1.05,91
-1.8,1.2,88
-1.8,1.35,99
-1.8,1.5,97
-1.65,-1.5,73
-1.65,-1.35,85
-1.65,-1.2,87
-1.65,-1.05,90
-1.65,-0.9,94
-1.65,-0.75,100
-1.65,-0.6,117
-1.65,-0.45,126
-1.65,-0.3,104
-1.65,-0.15,66
-1.65,0.0,31
-1.65,0.15,26
-1.65,0.3,36
-1.65,0.45,68
-1.65,0.6,88
-1.65,0.75,96
-1.65,0.9,100
-1.65,1.05,100
-1.65,1.2,100
-1.65,1.35,88
-1.65,1.5,88
-1.5,-1.5,71
-1.5,-1.35,71
-1.5,-1.2,72
-1.5,-1.05,84
-1.5,-0.9,86
-1.5,-0.75,72
-1.5,-0.6,122
-1.5,-0.45,170
-1.5,-0.3,130
-1.5,-0.15,89
-1.5,0.0,51
-1.5,0.15,6
-1.5,0.3,11
-1.5,0.45,72
-1.5,0.6,96
-1.5,0.75,97
-1.5,0.9,100
-1.5,1.05,99
-1.5,1.2,88
-1.5,1.35,92
-1.5,1.5,91
-1.35,-1.5,69
-1.35,-1.35,64
-1.35,-1.2,59
-1.35,-1.05,63
-1.35,-0.9,74
-1.35,-0.75,63
-1.35,-0.6,83
-1.35,-0.45,179
-1.35,-0.3,148
-1.35,-0.15,107
-1.35,0.0,66
-1.35,0.15,38
-1.35,0.3,46
-1.35,0.45,100
-1.35,0.6,112
-1.35,0.75,102
-1.35,0.9,99
-1.35,1.05,100
-1.35,1.2,92
-1.35,1.35,91
-1.35,1.5,91
-1.2,-1.5,64
-1.2,-1.35,52
-1.2,-1.2,34
-1.2,-1.05,28
-1.2,-0.9,63
-1.2,-0.75,99
-1.2,-0.6,145
-1.2,-0.45,203
-1.2,-0.3,173
-1.2,-0.15,115
-1.2,0.0,58
-1.2,0.15,36
-1.2,0.3,56
-1.2,0.45,90
-1.2,0.6,103
-1.2,0.75,98
-1.2,0.9,98
-1.2,1.05,99
-1.2,1.2,91
-1.2,1.35,91
-1.2,1.5,91
-1.05,-1.5,63
-1.05,-1.35,46
-1.05,-1.2,18
-1.05,-1.05,0
-1.05,-0.9,44
-1.05,-0.75,116
-1.05,-0.6,178
-1.05,-0.45,227
-1.05,-0.3,192
-1.05,-0.15,126
-1.05,0.0,39
-1.05,0.15,0
-1.05,0.3,42
-1.05,0.45,75
-1.05,0.6,89
-1.05,0.75,93
-1.05,0.9,95
-1.05,1.05,96
-1.05,1.2,98
-1.05,1.35,94
-1.05,1.5,91
-0.9,-1.5,66
-0.9,-1.35,55
-0.9,-1.2,37
-0.9,-1.05,29
-0.9,-0.9,68
-0.9,-0.75,129
-0.9,-0.6,182
-0.9,-0.45,225
-0.9,-0.3,228
-0.9,-0.15,159
-0.9,0.0,78
-0.9,0.15,39
-0.9,0.3,53
-0.9,0.45,68
-0.9,0.6,76
-0.9,0.75,79
-0.9,0.9,85
-0.9,1.05,89
-0.9,1.2,91
-0.9,1.35,92
-0.9,1.5,94
-0.75,-1.5,72
-0.75,-1.35,66
-0.75,-1.2,64
-0.75,-1.05,70
-0.75,-0.9,96
-0.75,-0.75,138
-0.75,-0.6,197
-0.75,-0.45,255
-0.75,-0.3,255
-0.75,-0.15,197
-0.75,0.0,115
-0.75,0.15,80
-0.75,0.3,72
-0.75,0.45,67
-0.75,0.6,69
-0.75,0.75,73
-0.75,0.9,74
-0.75,1.05,84
-0.75,1.2,85
-0.75,1.35,87
-0.75,1.5,88
-0.6,-1.5,76
-0.6,-1.35,75
-0.6,-1.2,78
-0.6,-1.05,88
-0.6,-0.9,105
-0.6,-0.75,131
-0.6,-0.6,168
-0.6,-0.45,236
-0.6,-0.3,249
-0.6,-0.15,169
-0.6,0.0,105
-0.6,0.15,70
-0.6,0.3,69
-0.6,0.45,73
-0.6,0.6,72
-0.6,0.75,75
-0.6,0.9,86
-0.6,1.05,88
-0.6,1.2,88
-0.6,1.35,88
-0.6,1.5,88
-0.45,-1.5,76
-0.45,-1.35,76
-0.45,-1.2,78
-0.45,-1.05,84
-0.45,-0.9,86
-0.45,-0.75,97
-0.45,-0.6,112
-0.45,-0.45,109
-0.45,-0.3,120
-0.45,-0.15,105
-0.45,0.0,79
-0.45,0.15,60
-0.45,0.3,60
-0.45,0.45,68
-0.45,0.6,82
-0.45,0.75,85
-0.45,0.9,88
-0.45,1.05,74
-0.45,1.2,74
-0.45,1.35,74
-0.45,1.5,74
-0.3,-1.5,73
-0.3,-1.35,65
-0.3,-1.2,66
-0.3,-1.05,70
-0.3,-0.9,74
-0.3,-0.75,77
-0.3,-0.6,72
-0.3,-0.45,59
-0.3,-0.3,70
-0.3,-0.15,75
-0.3,0.0,62
-0.3,0.15,60
-0.3,0.3,61
-0.3,0.45,60
-0.3,0.6,68
-0.3,0.75,72
-0.3,0.9,74
-0.3,1.05,76
-0.3,1.2,74
-0.3,1.35,75
-0.3,1.5,75
-0.15,-1.5,70
-0.15,-1.35,54
-0.15,-1.2,54
-0.15,-1.05,60
-0.15,-0.9,62
-0.15,-0.75,64
-0.15,-0.6,62
-0.15,-0.45,59
-0.15,-0.3,61
-0.15,-0.15,65
-0.15,0.0,56
-0.15,0.15,56
-0.15,0.3,62
-0.15,0.45,66
-0.15,0.6,67
-0.15,0.75,69
-0.15,0.9,71
-0.15,1.05,79
-0.15,1.2,76
-0.15,1.35,76
-0.15,1.5,77
0.0,-1.5,60
0.0,-1.35,58
0.0,-1.2,53
0.0,-1.05,54
0.0,-0.9,49
0.0,-0.75,46
0.0,-0.6,44
0.0,-0.45,34
0.0,-0.3,38
0.0,-0.15,56
0.0,0.0,60
0.0,0.15,62
0.0,0.3,59
0.0,0.45,65
0.0,0.6,70
0.0,0.75,78
0.0,0.9,80
0.0,1.05,81
0.0,1.2,81
0.0,1.35,81
0.0,1.5,83
0.15,-1.5,50
0.15,-1.35,50
0.15,-1.2,54
0.15,-1.05,54
0.15,-0.9,47
0.15,-0.75,49
0.15,-0.6,48
0.15,-0.45,21
0.15,-0.3,15
0.15,-0.15,59
0.15,0.0,76
0.15,0.15,44
0.15,0.3,39
0.15,0.45,66
0.15,0.6,80
0.15,0.75,83
0.15,0.9,84
0.15,1.05,84
0.15,1.2,83
0.15,1.35,83
0.15,1.5,83
0.3,-1.5,51
0.3,-1.35,50
0.3,-1.2,50
0.3,-1.05,48
0.3,-0.9,44
0.3,-0.75,43
0.3,-0.6,36
0.3,-0.45,29
0.3,-0.3,45
0.3,-0.15,37
0.3,0.0,125
0.3,0.15,65
0.3,0.3,54
0.3,0.45,85
0.3,0.6,89
0.3,0.75,90
0.3,0.9,88
0.3,1.05,86
0.3,1.2,85
0.3,1.35,84
0.3,1.5,83
0.45,-1.5,50
0.45,-1.35,52
0.45,-1.2,51
0.45,-1.05,49
0.45,-0.9,50
0.45,-0.75,40
0.45,-0.6,15
0.45,-0.45,1
0.45,-0.3,45
0.45,-0.15,35
0.45,0.0,73
0.45,0.15,105
0.45,0.3,152
0.45,0.45,126
0.45,0.6,101
0.45,0.75,93
0.45,0.9,87
0.45,1.05,84
0.45,1.2,86
0.45,1.35,84
0.45,1.5,71
0.6,-1.5,52
0.6,-1.35,53
0.6,-1.2,54
0.6,-1.05,51
0.6,-0.9,50
0.6,-0.75,40
0.6,-0.6,28
0.6,-0.45,20
0.6,-0.3,28
0.6,-0.15,31
0.6,0.0,61
0.6,0.15,90
0.6,0.3,206
0.6,0.45,138
0.6,0.6,103
0.6,0.75,92
0.6,0.9,86
0.6,1.05,86
0.6,1.2,84
0.6,1.35,83
0.6,1.5,82
0.75,-1.5,65
0.75,-1.35,68
0.75,-1.2,72
0.75,-1.05,78
0.75,-0.9,72
0.75,-0.75,62
0.75,-0.6,43
0.75,-0.45,10
0.75,-0.3,35
0.75,-0.15,38
0.75,0.0,57
0.75,0.15,0
0.75,0.3,71
0.75,0.45,91
0.75,0.6,93
0.75,0.75,88
0.75,0.9,79
0.75,1.05,77
0.75,1.2,75
0.75,1.35,74
0.75,1.5,73
0.9,-1.5,73
0.9,-1.35,78
0.9,-1.2,86
0.9,-1.05,103
0.9,-0.9,131
0.9,-0.75,137
0.9,-0.6,75
0.9,-0.45,40
0.9,-0.3,41
0.9,-0.15,41
0.9,0.0,59
0.9,0.15,79
0.9,0.3,61
0.9,0.45,70
0.9,0.6,74
0.9,0.75,75
0.9,0.9,75
0.9,1.05,74
0.9,1.2,74
0.9,1.35,69
0.9,1.5,68
1.05,-1.5,73
1.05,-1.35,76
1.05,-1.2,87
1.05,-1.05,111
1.05,-0.9,168
1.05,-0.75,232
1.05,-0.6,115
1.05,-0.45,50
1.05,-0.3,43
1.05,-0.15,33
1.05,0.0,30
1.05,0.15,30
1.05,0.3,49
1.05,0.45,55
1.05,0.6,58
1.05,0.75,66
1.05,0.9,67
1.05,1.05,71
1.05,1.2,71
1.05,1.35,63
1.05,1.5,63
1.2,-1.5,73
1.2,-1.35,73
1.2,-1.2,80
1.2,-1.05,89
1.2,-0.9,115
1.2,-0.75,126
1.2,-0.6,65
1.2,-0.45,46
1.2,-0.3,30
1.2,-0.15,22
1.2,0.0,47
1.2,0.15,44
1.2,0.3,53
1.2,0.45,48
1.2,0.6,57
1.2,0.75,59
1.2,0.9,60
1.2,1.05,60
1.2,1.2,61
1.2,1.35,61
1.2,1.5,61
1.35,-1.5,84
1.35,-1.35,76
1.35,-1.2,67
1.35,-1.05,63
1.35,-0.9,47
1.35,-0.75,31
1.35,-0.6,6
1.35,-0.45,33
1.35,-0.3,35
1.35,-0.15,0
1.35,0.0,24
1.35,0.15,47
1.35,0.3,53
1.35,0.45,49
1.35,0.6,46
1.35,0.75,44
1.35,0.9,43
1.35,1.05,42
1.35,1.2,58
1.35,1.35,50
1.35,1.5,54
1.5,-1.5,84
1.5,-1.35,82
1.5,-1.2,76
1.5,-1.05,65
1.5,-0.9,27
1.5,-0.75,6
1.5,-0.6,77
1.5,-0.45,82
1.5,-0.3,38
1.5,-0.15,17
1.5,0.0,7
1.5,0.15,95
1.5,0.3,58
1.5,0.45,47
1.5,0.6,42
1.5,0.75,39
1.5,0.9,37
1.5,1.05,36
1.5,1.2,36
1.5,1.35,31
1.5,1.5,31
1.65,-1.5,102
1.65,-1.35,95
1.65,-1.2,90
1.65,-1.05,79
1.65,-0.9,62
1.65,-0.75,64
1.65,-0.6,116
1.65,-0.45,110
1.65,-0.3,47
1.65,-0.15,35
1.65,0.0,37
1.65,0.15,59
1.65,0.3,43
1.65,0.45,32
1.65,0.6,32
1.65,0.75,28
1.65,0.9,30
1.65,1.05,30
1.65,1.2,30
1.65,1.35,29
1.65,1.5,29
1.8,-1.5,102
1.8,-1.35,100
1.8,-1.2,99
1.8,-1.05,83
1.8,-0.9,82
1.8,-0.75,88
1.8,-0.6,78
1.8,-0.45,31
1.8,-0.3,3
1.8,-0.15,43
1.8,0.0,42
1.8,0.15,43
1.8,0.3,2
1.8,0.45,19
1.8,0.6,23
1.8,0.75,25
1.8,0.9,27
1.8,1.05,27
1.8,1.2,28
1.8,1.35,39
1.8,1.5,39
1.95,-1.5,112
1.95,-1.35,95
1.95,-1.2,95
1.95,-1.05,97
1.95,-0.9,98
1.95,-0.75,98
1.95,-0.6,107
1.95,-0.45,166
1.95,-0.3,39
1.95,-0.15,48
1.95,0.0,31
1.95,0.15,16
1.95,0.3,2
1.95,0.45,13
1.95,0.6,19
1.95,0.75,22
1.95,0.9,36
1.95,1.05,38
1.95,1.2,39
1.95,1.35,39
1.95,1.5,39
2.1,-1.5,133
2.1,-1.35,132
2.1,-1.2,131
2.1,-1.05,114
2.1,-0.9,114
2.1,-0.75,91
2.1,-0.6,97
2.1,-0.45,118
2.1,-0.3,9
2.1,-0.15,44
2.1,0.0,48
2.1,0.15,0
2.1,0.3,4
2.1,0.45,17
2.1,0.6,26
2.1,0.75,32
2.1,0.9,35
2.1,1.05,37
2.1,1.2,38
2.1,1.35,39
2.1,1.5,39
2.25,-1.5,125
2.25,-1.35,125
2.25,-1.2,124
2.25,-1.05,118
2.25,-0.9,112
2.25,-0.75,102
2.25,-0.6,88
2.25,-0.45,72
2.25,-0.3,67
2.25,-0.15,53
2.25,0.0,51
2.25,0.15,29
2.25,0.3,13
2.25,0.45,37
2.25,0.6,49
2.25,0.75,51
2.25,0.9,52
2.25,1.05,53
2.25,1.2,53
2.25,1.35,53
2.25,1.5,53
2.4,-1.5,145
2.4,-1.35,141
2.4,-1.2,127
2.4,-1.05,135
2.4,-0.9,123
2.4,-0.75,89
2.4,-0.6,71
2.4,-0.45,71
2.4,-0.3,48
2.4,-0.15,57
2.4,0.0,71
2.4,0.15,80
2.4,0.3,57
2.4,0.45,71
2.4,0.6,68
2.4,0.75,62
2.4,0.9,59
2.4,1.05,57
2.4,1.2,56
2.4,1.35,55
2.4,1.5,55
2.55,-1.5,145
2.55,-1.35,142
2.55,-1.2,142
2.55,-1.05,133
2.55,-0.9,127
2.55,-0.75,127
2.55,-0.6,112
2.55,-0.45,92
2.55,-0.3,28
2.55,-0.15,60
2.55,0.0,102
2.55,0.15,142
2.55,0.3,219
2.55,0.45,118
2.55,0.6,82
2.55,0.75,73
2.55,0.9,66
2.55,1.05,63
2.55,1.2,62
2.55,1.35,57
2.55,1.5,60
2.7,-1.5,144
2.7,-1.35,149
2.7,-1.2,151
2.7,-1.05,156
2.7,-0.9,170
2.7,-0.75,214
2.7,-0.6,179
2.7,-0.45,154
2.7,-0.3,65
2.7,-0.15,58
2.7,0.0,57
2.7,0.15,78
2.7,0.3,106
2.7,0.45,72
2.7,0.6,72
2.7,0.75,72
2.7,0.9,71
2.7,1.05,70
2.7,1.2,66
2.7,1.35,65
2.7,1.5,65
2.85,-1.5,144
2.85,-1.35,146
2.85,-1.2,150
2.85,-1.05,159
2.85,-0.9,170
2.85,-0.75,193
2.85,-0.6,134
2.85,-0.45,149
2.85,-0.3,166
2.85,-0.15,56
2.85,0.0,40
2.85,0.15,34
2.85,0.3,51
2.85,0.45,51
2.85,0.6,59
2.85,0.75,62
2.85,0.9,63
2.85,1.05,64
2.85,1.2,64
2.85,1.35,64
2.85,1.5,64
3.0,-1.5,131
3.0,-1.35,133
3.0,-1.2,136
3.0,-1.05,150
3.0,-0.9,163
3.0,-0.75,156
3.0,-0.6,99
3.0,-0.45,166
3.0,-0.3,146
3.0,-0.15,25
3.0,0.0,12
3.0,0.15,15
3.0,0.3,15
3.0,0.45,15
3.0,0.6,45
3.0,0.75,54
3.0,0.9,52
3.0,1.05,64
3.0,1.2,62
3.0,1.35,46
3.0,1.5,71
3.15,-1.5,129
3.15,-1.35,129
3.15,-1.2,143
3.15,-1.05,142
3.15,-0.9,140
3.15,-0.75,145
3.15,-0.6,178
3.15,-0.45,173
3.15,-0.3,95
3.15,-0.15,66
3.15,0.0,0
3.15,0.15,58
3.15,0.3,52
3.15,0.45,45
3.15,0.6,44
3.15,0.75,49
3.15,0.9,74
3.15,1.05,78
3.15,1.2,78
3.15,1.35,78
3.15,1.5,71
3.3,-1.5,130
3.3,-1.35,130
3.3,-1.2,129
3.3,-1.05,142
3.3,-0.9,119
3.3,-0.75,108
3.3,-0.6,135
3.3,-0.45,135
3.3,-0.3,132
3.3,-0.15,69
3.3,0.0,97
3.3,0.15,76
3.3,0.3,45
3.3,0.45,53
3.3,0.6,62
3.3,0.75,76
3.3,0.9,78
3.3,1.05,75
3.3,1.2,77
3.3,1.35,77
3.3,1.5,78
3.45,-1.5,97
3.45,-1.35,96
3.45,-1.2,96
3.45,-1.05,96
3.45,-0.9,94
3.45,-0.75,54
3.45,-0.6,81
3.45,-0.45,203
3.45,-0.3,195
3.45,-0.15,224
3.45,0.0,5
3.45,0.15,70
3.45,0.3,48
3.45,0.45,77
3.45,0.6,78
3.45,0.75,78
3.45,0.9,67
3.45,1.05,67
3.45,1.2,63
3.45,1.35,59
3.45,1.5,59
3.6,-1.5,54
3.6,-1.35,69
3.6,-1.2,86
3.6,-1.05,88
3.6,-0.9,97
3.6,-0.75,108
3.6,-0.6,97
3.6,-0.45,155
3.6,-0.3,171
3.6,-0.15,94
3.6,0.0,48
3.6,0.15,95
3.6,0.3,119
3.6,0.45,86
3.6,0.6,65
3.6,0.75,62
3.6,0.9,61
3.6,1.05,53
3.6,1.2,56
3.6,1.35,59
3.6,1.5,59
3.75,-1.5,60
3.75,-1.35,43
3.75,-1.2,40
3.75,-1.05,40
3.75,-0.9,65
3.75,-0.75,80
3.75,-0.6,120
3.75,-0.45,185
3.75,-0.3,176
3.75,-0.15,114
3.75,0.0,89
3.75,0.15,107
3.75,0.3,85
3.75,0.45,70
3.75,0.6,59
3.75,0.75,62
3.75,0.9,62
3.75,1.05,62
3.75,1.2,62
3.75,1.35,62
3.75,1.5,62
3.9,-1.5,30
3.9,-1.35,30
3.9,-1.2,30
3.9,-1.05,15
3.9,-0.9,42
3.9,-0.75,54
3.9,-0.6,101
3.9,-0.45,152
3.9,-0.3,114
3.9,-0.15,149
3.9,0.0,167
3.9,0.15,38
3.9,0.3,57
3.9,0.45,60
3.9,0.6,52
3.9,0.75,50
3.9,0.9,50
3.9,1.05,50
3.9,1.2,50
3.9,1.35,62
3.9,1.5,62
4.05,-1.5,33
4.05,-1.35,29
4.05,-1.2,21
4.05,-1.05,5
4.05,-0.9,22
4.05,-0.75,4
4.05,-0.6,44
4.05,-0.45,181
4.05,-0.3,163
4.05,-0.15,149
4.05,0.0,128
4.05,0.15,64
4.05,0.3,46
4.05,0.45,34
4.05,0.6,36
4.05,0.75,59
4.05,0.9,58
4.05,1.05,59
4.05,1.2,60
4.05,1.35,61
4.05,1.5,61
4.2,-1.5,37
4.2,-1.35,34
4.2,-1.2,31
4.2,-1.05,28
4.2,-0.9,41
4.2,-0.75,60
4.2,-0.6,90
4.2,-0.45,117
4.2,-0.3,240
4.2,-0.15,198
4.2,0.0,49
4.2,0.15,43
4.2,0.3,34
4.2,0.45,21
4.2,0.6,53
4.2,0.75,60
4.2,0.9,63
4.2,1.05,77
4.2,1.2,79
4.2,1.35,80
4.2,1.5,81
4.35,-1.5,51
4.35,-1.35,63
4.35,-1.2,81
4.35,-1.05,75
4.35,-0.9,80
4.35,-0.75,91
4.35,-0.6,115
4.35,-0.45,144
4.35,-0.3,95
4.35,-0.15,207
4.35,0.0,56
4.35,0.15,65
4.35,0.3,51
4.35,0.45,79
4.35,0.6,86
4.35,0.75,90
4.35,0.9,92
4.35,1.05,92
4.35,1.2,92
4.35,1.35,93
4.35,1.5,107
4.5,-1.5,69
4.5,-1.35,67
4.5,-1.2,88
4.5,-1.05,93
4.5,-0.9,114
4.5,-0.75,153
4.5,-0.6,205
4.5,-0.45,255
4.5,-0.3,251
4.5,-0.15,131
4.5,0.0,8
4.5,0.15,33
4.5,0.3,108
4.5,0.45,111
4.5,0.6,101
4.5,0.75,96
4.5,0.9,94
4.5,1.05,114
4.5,1.2,114
4.5,1.35,114
4.5,1.5,115
4.65,-1.5,79
4.65,-1.35,78
4.65,-1.2,79
4.65,-1.05,89
4.65,-0.9,46
4.65,-0.75,61
4.65,-0.6,179
4.65,-0.45,131
4.65,-0.3,181
4.65,-0.15,48
4.65,0.0,109
4.65,0.15,185
4.65,0.3,231
4.65,0.45,123
4.65,0.6,107
4.65,0.75,120
4.65,0.9,119
4.65,1.05,119
4.65,1.2,119
4.65,1.35,118
4.65,1.5,118
4.8,-1.5,108
4.8,-1.35,108
4.8,-1.2,108
4.8,-1.05,98
4.8,-0.9,79
4.8,-0.75,90
4.8,-0.6,156
4.8,-0.45,94
4.8,-0.3,38
4.8,-0.15,99
4.8,0.0,127
4.8,0.15,37
4.8,0.3,68
4.8,0.45,75
4.8,0.6,96
4.8,0.75,128
4.8,0.9,130
4.8,1.05,129
4.8,1.2,128
4.8,1.35,123
4.8,1.5,122
4.95,-1.5,104
4.95,-1.35,114
4.95,-1.2,114
4.95,-1.05,103
4.95,-0.9,120
4.95,-0.75,85
4.95,-0.6,19
4.95,-0.45,178
4.95,-0.3,41
4.95,-0.15,14
4.95,0.0,39
4.95,0.15,20
4.95,0.3,74
4.95,0.45,118
4.95,0.6,133
4.95,0.75,133
4.95,0.9,153
4.95,1.05,147
4.95,1.2,145
4.95,1.35,144
4.95,1.5,143
5.1,-1.5,104
5.1,-1.35,104
5.1,-1.2,86
5.1,-1.05,103
5.1,-0.9,138
5.1,-0.75,225
5.1,-0.6,165
5.1,-0.45,137
5.1,-0.3,69
5.1,-0.15,14
5.1,0.0,10
5.1,0.15,230
5.1,0.3,142
5.1,0.45,163
5.1,0.6,178
5.1,0.75,159
5.1,0.9,159
5.1,1.05,158
5.1,1.2,152
5.1,1.35,132
5.1,1.5,130
5.25,-1.5,111
5.25,-1.35,112
5.25,-1.2,102
5.25,-1.05,118
5.25,-0.9,127
5.25,-0.75,123
5.25,-0.6,111
5.25,-0.45,230
5.25,-0.3,96
5.25,-0.15,85
5.25,0.0,38
5.25,0.15,47
5.25,0.3,150
5.25,0.45,174
5.25,0.6,189
5.25,0.75,158
5.25,0.9,145
5.25,1.05,139
5.25,1.2,135
5.25,1.35,149
5.25,1.5,130
5.4,-1.5,79
5.4,-1.35,78
5.4,-1.2,62
5.4,-1.05,86
5.4,-0.9,68
5.4,-0.75,35
5.4,-0.6,96
5.4,-0.45,119
5.4,-0.3,70
5.4,-0.15,89
5.4,0.0,56
5.4,0.15,54
5.4,0.3,120
5.4,0.45,125
5.4,0.6,157
5.4,0.75,155
5.4,0.9,136
5.4,1.05,132
5.4,1.2,128
5.4,1.35,109
5.4,1.5,106
5.55,-1.5,102
5.55,-1.35,91
5.55,-1.2,71
5.55,-1.05,41
5.55,-0.9,58
5.55,-0.75,93
5.55,-0.6,94
5.55,-0.45,62
5.55,-0.3,122
5.55,-0.15,44
5.55,0.0,37
5.55,0.15,65
5.55,0.3,108
5.55,0.45,105
5.55,0.6,116
5.55,0.75,111
5.55,0.9,109
5.55,1.05,106
5.55,1.2,103
5.55,1.35,84
5.55,1.5,83
5.7,-1.5,91
5.7,-1.35,90
5.7,-1.2,87
5.7,-1.05,82
5.7,-0.9,67
5.7,-0.75,46
5.7,-0.6,43
5.7,-0.45,68
5.7,-0.3,227
5.7,-0.15,89
5.7,0.0,72
5.7,0.15,72
5.7,0.3,102
5.7,0.45,104
5.7,0.6,110
5.7,0.75,111
5.7,0.9,109
5.7,1.05,124
5.7,1.2,124
5.7,1.35,121
5.7,1.5,122
5.85,-1.5,75
5.85,-1.35,75
5.85,-1.2,75
5.85,-1.05,73
5.85,-0.9,73
5.85,-0.75,59
5.85,-0.6,20
5.85,-0.45,96
5.85,-0.3,85
5.85,-0.15,38
5.85,0.0,54
5.85,0.15,151
5.85,0.3,61
5.85,0.45,64
5.85,0.6,72
5.85,0.75,92
5.85,0.9,113
5.85,1.05,118
5.85,1.2,122
5.85,1.35,124
5.85,1.5,143
6.0,-1.5,77
6.0,-1.35,79
6.0,-1.2,82
6.0,-1.05,85
6.0,-0.9,104
6.0,-0.75,193
6.0,-0.6,101
6.0,-0.45,124
6.0,-0.3,75
6.0,-0.15,38
6.0,0.0,61
6.0,0.15,65
6.0,0.3,37
6.0,0.45,39
6.0,0.6,62
6.0,0.75,73
6.0,0.9,78
6.0,1.05,82
6.0,1.2,101
6.0,1.35,78
6.0,1.5,79
6.15,-1.5,85
6.15,-1.35,85
6.15,-1.2,82
6.15,-1.05,82
6.15,-0.9,80
6.15,-0.75,54
6.15,-0.6,40
6.15,-0.45,40
6.15,-0.3,56
6.15,-0.15,30
6.15,0.0,21
6.15,0.15,161
6.15,0.3,45
6.15,0.45,37
6.15,0.6,47
6.15,0.75,52
6.15,0.9,55
6.15,1.05,57
6.15,1.2,57
6.15,1.35,58
6.15,1.5,58
6.3,-1.5,85
6.3,-1.35,85
6.3,-1.2,84
6.3,-1.05,94
6.3,-0.9,76
6.3,-0.75,34
6.3,-0.6,54
6.3,-0.45,31
6.3,-0.3,6
6.3,-0.15,9
6.3,0.0,74
6.3,0.15,2
6.3,0.3,54
6.3,0.45,41
6.3,0.6,37
6.3,0.75,29
6.3,0.9,29
6.3,1.05,29
6.3,1.2,30
6.3,1.35,30
6.3,1.5,13
6.45,-1.5,94
6.45,-1.35,94
6.45,-1.2,94
6.45,-1.05,95
6.45,-0.9,96
6.45,-0.75,188
6.45,-0.6,34
6.45,-0.45,87
6.45,-0.3,116
6.45,-0.15,44
6.45,0.0,99
6.45,0.15,64
6.45,0.3,42
6.45,0.45,23
6.45,0.6,7
6.45,0.75,19
6.45,0.9,11
6.45,1.05,12
6.45,1.2,12
6.45,1.35,13
6.45,1.5,13
6.6,-1.5,94
6.6,-1.35,94
6.6,-1.2,94
6.6,-1.05,94
6.6,-0.9,96
6.6,-0.75,127
6.6,-0.6,96
6.6,-0.45,27
6.6,-0.3,40
6.6,-0.15,91
6.6,0.0,101
6.6,0.15,9
6.6,0.3,10
6.6,0.45,24
6.6,0.6,20
6.6,0.75,21
6.6,0.9,18
6.6,1.05,18
6.6,1.2,18
6.6,1.35,18
6.6,1.5,18
6.75,-1.5,99
6.75,-1.35,99
6.75,-1.2,112
6.75,-1.05,112
6.75,-0.9,107
6.75,-0.75,101
6.75,-0.6,93
6.75,-0.45,11
6.75,-0.3,91
6.75,-0.15,68
6.75,0.0,145
6.75,0.15,55
6.75,0.3,55
6.75,0.45,18
6.75,0.6,23
6.75,0.75,27
6.75,0.9,30
6.75,1.05,31
6.75,1.2,32
6.75,1.35,32
6.75,1.5,28
6.9,-1.5,121
6.9,-1.35,119
6.9,-1.2,104
6.9,-1.05,99
6.9,-0.9,80
6.9,-0.75,71
6.9,-0.6,220
6.9,-0.45,35
6.9,-0.3,21
6.9,-0.15,54
6.9,0.0,129
6.9,0.15,68
6.9,0.3,137
6.9,0.45,20
6.9,0.6,21
6.9,0.75,27
6.9,0.9,30
6.9,1.05,31
6.9,1.2,32
6.9,1.35,33
6.9,1.5,33
7.05,-1.5,104
7.05,-1.35,107
7.05,-1.2,85
7.05,-1.05,67
7.05,-0.9,58
7.05,-0.75,33
7.05,-0.6,25
7.05,-0.45,31
7.05,-0.3,44
7.05,-0.15,77
7.05,0.0,114
7.05,0.15,22
7.05,0.3,39
7.05,0.45,11
7.05,0.6,27
7.05,0.75,31
7.05,0.9,43
7.05,1.05,46
7.05,1.2,47
7.05,1.35,49
7.05,1.5,49
7.2,-1.5,71
7.2,-1.35,58
7.2,-1.2,62
7.2,-1.05,76
7.2,-0.9,81
7.2,-0.75,26
7.2,-0.6,7
7.2,-0.45,9
7.2,-0.3,46
7.2,-0.15,57
7.2,0.0,57
7.2,0.15,39
7.2,0.3,47
7.2,0.45,30
7.2,0.6,42
7.2,0.75,44
7.2,0.9,46
7.2,1.05,48
7.2,1.2,49
7.2,1.35,49
7.2,1.5,50
7.35,-1.5,65
7.35,-1.35,72
7.35,-1.2,74
7.35,-1.05,89
7.35,-0.9,142
7.35,-0.75,118
7.35,-0.6,36
7.35,-0.45,23
7.35,-0.3,38
7.35,-0.15,113
7.35,0.0,31
7.35,0.15,65
7.35,0.3,61
7.35,0.45,48
7.35,0.6,39
7.35,0.75,36
7.35,0.9,35
7.35,1.05,35
7.35,1.2,35
7.35,1.35,35
7.35,1.5,36
7.5,-1.5,71
7.5,-1.35,74
7.5,-1.2,68
7.5,-1.05,73
7.5,-0.9,95
7.5,-0.75,111
7.5,-0.6,30
7.5,-0.45,16
7.5,-0.3,0
7.5,-0.15,46
7.5,0.0,11
7.5,0.15,56
7.5,0.3,57
7.5,0.45,61
7.5,0.6,51
7.5,0.75,45
7.5,0.9,31
7.5,1.05,31
7.5,1.2,31
7.5,1.35,31
7.5,1.5,13
7.65,-1.5,73
7.65,-1.35,74
7.65,-1.2,74
7.65,-1.05,68
7.65,-0.9,58
7.65,-0.75,31
7.65,-0.6,57
7.65,-0.45,57
7.65,-0.3,6
7.65,-0.15,11
7.65,0.0,11
7.65,0.15,57
7.65,0.3,26
7.65,0.45,33
7.65,0.6,33
7.65,0.75,34
7.65,0.9,34
7.65,1.05,13
7.65,1.2,9
7.65,1.35,8
7.65,1.5,8
7.8,-1.5,102
7.8,-1.35,99
7.8,-1.2,92
7.8,-1.05,58
7.8,-0.9,39
7.8,-0.75,36
7.8,-0.6,47
7.8,-0.45,42
7.8,-0.3,12
7.8,-0.15,28
7.8,0.0,53
7.8,0.15,20
7.8,0.3,18
7.8,0.45,9
7.8,0.6,8
7.8,0.75,8
7.8,0.9,8
7.8,1.05,8
7.8,1.2,8
7.8,1.35,8
7.8,1.5,8
7.95,-1.5,53
7.95,-1.35,53
7.95,-1.2,61
7.95,-1.05,61
7.95,-0.9,68
7.95,-0.75,48
7.95,-0.6,67
7.95,-0.45,162
7.95,-0.3,30
7.95,-0.15,50
7.95,0.0,70
7.95,0.15,30
7.95,0.3,6
7.95,0.45,2
7.95,0.6,2
7.95,0.75,6
7.95,0.9,7
7.95,1.05,3
7.95,1.2,0
7.95,1.35,3
7.95,1.5,4
8.1,-1.5,65
8.1,-1.35,50
8.1,-1.2,49
8.1,-1.05,49
8.1,-0.9,58
8.1,-0.75,105
8.1,-0.6,38
8.1,-0.45,64
8.1,-0.3,22
8.1,-0.15,93
8.1,0.0,14
8.1,0.15,1
8.1,0.3,0
8.1,0.45,0
8.1,0.6,0
8.1,0.75,0
8.1,0.9,0
8.1,1.05,0
8.1,1.2,0
8.1,1.35,0
8.1,1.5,0
8.25,-1.5,70
8.25,-1.35,68
8.25,-1.2,63
8.25,-1.05,44
8.25,-0.9,10
8.25,-0.75,71
8.25,-0.6,18
8.25,-0.45,254
8.25,-0.3,155
8.25,-0.15,67
8.25,0.0,87
8.25,0.15,0
8.25,0.3,0
8.25,0.45,0
8.25,0.6,0
8.25,0.75,0
8.25,0.9,3
8.25,1.05,4
8.25,1.2,17
8.25,1.35,18
8.25,1.5,19
8.4,-1.5,71
8.4,-1.35,69
8.4,-1.2,66
8.4,-1.05,60
8.4,-0.9,57
8.4,-0.75,14
8.4,-0.6,105
8.4,-0.45,52
8.4,-0.3,53
8.4,-0.15,35
8.4,0.0,49
8.4,0.15,13
8.4,0.3,1
8.4,0.45,1
8.4,0.6,17
8.4,0.75,22
8.4,0.9,24
8.4,1.05,25
8.4,1.2,25
8.4,1.35,26
8.4,1.5,26
8.55,-1.5,76
8.55,-1.35,62
8.55,-1.2,63
8.55,-1.05,58
8.55,-0.9,57
8.55,-0.75,53
8.55,-0.6,57
8.55,-0.45,151
8.55,-0.3,81
8.55,-0.15,20
8.55,0.0,41
8.55,0.15,35
8.55,0.3,49
8.55,0.45,44
8.55,0.6,38
8.55,0.75,37
8.55,0.9,36
8.55,1.05,31
8.55,1.2,29
8.55,1.35,28
8.55,1.5,28
8.7,-1.5,58
8.7,-1.35,58
8.7,-1.2,64
8.7,-1.05,77
8.7,-0.9,156
8.7,-0.75,73
8.7,-0.6,36
8.7,-0.45,47
8.7,-0.3,63
8.7,-0.15,9
8.7,0.0,171
8.7,0.15,84
8.7,0.3,77
8.7,0.45,78
8.7,0.6,56
8.7,0.75,50
8.7,0.9,42
8.7,1.05,39
8.7,1.2,36
8.7,1.35,35
8.7,1.5,34
8.85,-1.5,60
8.85,-1.35,62
8.85,-1.2,55
8.85,-1.05,58
8.85,-0.9,20
8.85,-0.75,50
8.85,-0.6,51
8.85,-0.45,18
8.85,-0.3,166
8.85,-0.15,24
8.85,0.0,127
8.85,0.15,58
8.85,0.3,102
8.85,0.45,77
8.85,0.6,57
8.85,0.75,56
8.85,0.9,54
8.85,1.05,53
8.85,1.2,71
8.85,1.35,61
8.85,1.5,62
9.0,-1.5,78
9.0,-1.35,77
9.0,-1.2,75
9.0,-1.05,55
9.0,-0.9,41
9.0,-0.75,33
9.0,-0.6,72
9.0,-0.45,138
9.0,-0.3,101
9.0,-0.15,24
9.0,0.0,65
9.0,0.15,94
9.0,0.3,58
9.0,0.45,48
9.0,0.6,50
9.0,0.75,50
9.0,0.9,69
9.0,1.05,71
9.0,1.2,71
9.0,1.35,71
9.0,1.5,65
9.15,-1.5,111
9.15,-1.35,98
9.15,-1.2,95
9.15,-1.05,87
9.15,-0.9,69
9.15,-0.75,19
9.15,-0.6,50
9.15,-0.45,13
9.15,-0.3,34
9.15,-0.15,34
9.15,0.0,25
9.15,0.15,58
9.15,0.3,0
9.15,0.45,38
9.15,0.6,61
9.15,0.75,77
9.15,0.9,68
9.15,1.05,70
9.15,1.2,71
9.15,1.35,71
9.15,1.5,71
9.3,-1.5,115
9.3,-1.35,115
9.3,-1.2,105
9.3,-1.05,112
9.3,-0.9,117
9.3,-0.75,134
9.3,-0.6,41
9.3,-0.45,167
9.3,-0.3,81
9.3,-0.15,90
9.3,0.0,51
9.3,0.15,49
9.3,0.3,25
9.3,0.45,54
9.3,0.6,60
9.3,0.75,78
9.3,0.9,76
9.3,1.05,76
9.3,1.2,74
9.3,1.35,73
9.3,1.5,73
9.45,-1.5,111
9.45,-1.35,109
9.45,-1.2,118
9.45,-1.05,126
9.45,-0.9,147
9.45,-0.75,219
9.45,-0.6,64
9.45,-0.45,184
9.45,-0.3,91
9.45,-0.15,59
9.45,0.0,53
9.45,0.15,43
9.45,0.3,49
9.45,0.45,74
9.45,0.6,92
9.45,0.75,86
9.45,0.9,72
9.45,1.05,68
9.45,1.2,63
9.45,1.35,74
9.45,1.5,74
9.6,-1.5,158
9.6,-1.35,158
9.6,-1.2,157
9.6,-1.05,113
9.6,-0.9,108
9.6,-0.75,113
9.6,-0.6,20
9.6,-0.45,40
9.6,-0.3,66
9.6,-0.15,93
9.6,0.0,21
9.6,0.15,12
9.6,0.3,54
9.6,0.45,153
9.6,0.6,173
9.6,0.75,107
9.6,0.9,82
9.6,1.05,70
9.6,1.2,63
9.6,1.35,58
9.6,1.5,55
9.75,-1.5,158
9.75,-1.35,157
9.75,-1.2,152
9.75,-1.05,147
9.75,-0.9,127
9.75,-0.75,87
9.75,-0.6,7
9.75,-0.45,37
9.75,-0.3,140
9.75,-0.15,63
9.75,0.0,33
9.75,0.15,0
9.75,0.3,27
9.75,0.45,13
9.75,0.6,158
9.75,0.75,117
9.75,0.9,101
9.75,1.05,80
9.75,1.2,88
9.75,1.35,74
9.75,1.5,80
9.9,-1.5,154
9.9,-1.35,153
9.9,-1.2,136
9.9,-1.05,110
9.9,-0.9,116
9.9,-0.75,91
9.9,-0.6,178
9.9,-0.45,38
9.9,-0.3,58
9.9,-0.15,53
9.9,0.0,28
9.9,0.15,26
9.9,0.3,47
9.9,0.45,55
9.9,0.6,89
9.9,0.75,97
9.9,0.9,112
9.9,1.05,111
9.9,1.2,111
9.9,1.35,111
9.9,1.5,110
10.05,-1.5,124
10.05,-1.35,125
10.05,-1.2,110
10.05,-1.05,113
10.05,-0.9,116
10.05,-0.75,137
10.05,-0.6,146
10.05,-0.45,202
10.05,-0.3,131
10.05,-0.15,30
10.05,0.0,12
10.05,0.15,230
10.05,0.3,106
10.05,0.45,77
10.05,0.6,98
10.05,0.75,109
10.05,0.9,112
10.05,1.05,113
10.05,1.2,113
10.05,1.35,113
10.05,1.5,112
10.2,-1.5,118
10.2,-1.35,118
10.2,-1.2,109
10.2,-1.05,108
10.2,-0.9,118
10.2,-0.75,110
10.2,-0.6,107
10.2,-0.45,255
10.2,-0.3,127
10.2,-0.15,38
10.2,0.0,65
10.2,0.15,186
10.2,0.3,103
10.2,0.45,101
10.2,0.6,108
10.2,0.75,114
10.2,0.9,114
10.2,1.05,116
10.2,1.2,115
10.2,1.35,114
10.2,1.5,138
10.35,-1.5,96
10.35,-1.35,95
10.35,-1.2,93
10.35,-1.05,90
10.35,-0.9,93
10.35,-0.75,76
10.35,-0.6,20
10.35,-0.45,83
10.35,-0.3,109
10.35,-0.15,133
10.35,0.0,102
10.35,0.15,93
10.35,0.3,0
10.35,0.45,104
10.35,0.6,131
10.35,0.75,124
10.35,0.9,140
10.35,1.05,139
10.35,1.2,138
10.35,1.35,142
10.35,1.5,142
10.5,-1.5,66
10.5,-1.35,57
10.5,-1.2,58
10.5,-1.05,57
10.5,-0.9,66
10.5,-0.75,111
10.5,-0.6,98
10.5,-0.45,10
10.5,-0.3,235
10.5,-0.15,218
10.5,0.0,128
10.5,0.15,108
10.5,0.3,183
10.5,0.45,255
10.5,0.6,172
10.5,0.75,154
10.5,0.9,146
10.5,1.05,142
10.5,1.2,140
10.5,1.35,139
10.5,1.5,142
10.65,-1.5,58
10.65,-1.35,58
10.65,-1.2,57
10.65,-1.05,57
10.65,-0.9,57
10.65,-0.75,39
10.65,-0.6,39
10.65,-0.45,27
10.65,-0.3,44
10.65,-0.15,16
10.65,0.0,75
10.65,0.15,91
10.65,0.3,128
10.65,0.45,214
10.65,0.6,173
10.65,0.75,152
10.65,0.9,144
10.65,1.05,146
10.65,1.2,143
10.65,1.35,156
10.65,1.5,155
10.8,-1.5,57
10.8,-1.35,57
10.8,-1.2,60
10.8,-1.05,61
10.8,-0.9,64
10.8,-0.75,64
10.8,-0.6,67
10.8,-0.45,40
10.8,-0.3,42
10.8,-0.15,45
10.8,0.0,1
10.8,0.15,44
10.8,0.3,17
10.8,0.45,91
10.8,0.6,161
10.8,0.75,165
10.8,0.9,167
10.8,1.05,165
10.8,1.2,162
10.8,1.35,167
10.8,1.5,166
10.95,-1.5,58
10.95,-1.35,64
10.95,-1.2,60
10.95,-1.05,61
10.95,-0.9,61
10.95,-0.75,69
10.95,-0.6,112
10.95,-0.45,67
10.95,-0.3,21
10.95,-0.15,21
10.95,0.0,21
10.95,0.15,51
10.95,0.3,91
10.95,0.45,150
10.95,0.6,188
10.95,0.75,196
10.95,0.9,179
10.95,1.05,173
10.95,1.2,169
10.95,1.35,165
10.95,1.5,167
11.1,-1.5,72
11.1,-1.35,73
11.1,-1.2,74
11.1,-1.05,75
11.1,-0.9,75
11.1,-0.75,67
11.1,-0.6,56
11.1,-0.45,35
11.1,-0.3,30
11.1,-0.15,40
11.1,0.0,38
11.1,0.15,42
11.1,0.3,108
11.1,0.45,255
11.1,0.6,255
11.1,0.75,203
11.1,0.9,175
11.1,1.05,170
11.1,1.2,172
11.1,1.35,167
11.1,1.5,164
11.25,-1.5,69
11.25,-1.35,70
11.25,-1.2,72
11.25,-1.05,75
11.25,-0.9,75
11.25,-0.75,75
11.25,-0.6,55
11.25,-0.45,14
11.25,-0.3,28
11.25,-0.15,44
11.25,0.0,98
11.25,0.15,86
11.25,0.3,121
11.25,0.45,255
11.25,0.6,255
11.25,0.75,219
11.25,0.9,188
11.25,1.05,172
11.25,1.2,162
11.25,1.35,155
11.25,1.5,151
11.4,-1.5,64
11.4,-1.35,65
11.4,-1.2,67
11.4,-1.05,59
11.4,-0.9,65
11.4,-0.75,71
11.4,-0.6,80
11.4,-0.45,7
11.4,-0.3,44
11.4,-0.15,39
11.4,0.0,132
11.4,0.15,202
11.4,0.3,181
11.4,0.45,210
11.4,0.6,221
11.4,0.75,200
11.4,0.9,182
11.4,1.05,169
11.4,1.2,160
11.4,1.35,154
11.4,1.5,148
11.55,-1.5,59
11.55,-1.35,57
11.55,-1.2,44
11.55,-1.05,49
11.55,-0.9,58
11.55,-0.75,67
11.55,-0.6,78
11.55,-0.45,233
11.55,-0.3,58
11.55,-0.15,15
11.55,0.0,95
11.55,0.15,193
11.55,0.3,255
11.55,0.45,225
11.55,0.6,186
11.55,0.75,166
11.55,0.9,168
11.55,1.05,160
11.55,1.2,155
11.55,1.35,149
11.55,1.5,144
11.7,-1.5,54
11.7,-1.35,47
11.7,-1.2,40
11.7,-1.05,42
11.7,-0.9,49
11.7,-0.75,57
11.7,-0.6,52
11.7,-0.45,56
11.7,-0.3,28
11.7,-0.15,42
11.7,0.0,110
11.7,0.15,190
11.7,0.3,255
11.7,0.45,204
11.7,0.6,159
11.7,0.75,144
11.7,0.9,138
11.7,1.05,149
11.7,1.2,145
11.7,1.35,141
11.7,1.5,137
11.85,-1.5,54
11.85,-1.35,44
11.85,-1.2,19
11.85,-1.05,5
11.85,-0.9,34
11.85,-0.75,41
11.85,-0.6,21
11.85,-0.45,17
11.85,-0.3,6
11.85,-0.15,58
11.85,0.0,186
11.85,0.15,136
11.85,0.3,89
11.85,0.45,85
11.85,0.6,110
11.85,0.75,118
11.85,0.9,121
11.85,1.05,120
11.85,1.2,116
11.85,1.35,130
11.85,1.5,127
12.0,-1.5,33
12.0,-1.35,27
12.0,-1.2,15
12.0,-1.05,11
12.0,-0.9,38
12.0,-0.75,45
12.0,-0.6,30
12.0,-0.45,18
12.0,-0.3,6
12.0,-0.15,60
12.0,0.0,169
12.0,0.15,94
12.0,0.3,14
12.0,0.45,30
12.0,0.6,75
12.0,0.75,95
12.0,0.9,104
12.0,1.05,106
12.0,1.2,104
12.0,1.35,101
12.0,1.5,98
12.15,-1.5,48
12.15,-1.35,39
12.15,-1.2,39
12.15,-1.05,47
12.15,-0.9,56
12.15,-0.75,69
12.15,-0.6,72
12.15,-0.45,45
12.15,-0.3,10
12.15,-0.15,51
12.15,0.0,67
12.15,0.15,32
12.15,0.3,11
12.15,0.45,36
12.15,0.6,73
12.15,0.75,81
12.15,0.9,90
12.15,1.05,93
12.15,1.2,92
12.15,1.35,89
12.15,1.5,86
12.3,-1.5,53
12.3,-1.35,56
12.3,-1.2,60
12.3,-1.05,78
12.3,-0.9,85
12.3,-0.75,188
12.3,-0.6,111
12.3,-0.45,69
12.3,-0.3,59
12.3,-0.15,62
12.3,0.0,49
12.3,0.15,23
12.3,0.3,18
12.3,0.45,37
12.3,0.6,50
12.3,0.75,58
12.3,0.9,88
12.3,1.05,91
12.3,1.2,78
12.3,1.35,75
12.3,1.5,72
12.45,-1.5,60
12.45,-1.35,67
12.45,-1.2,76
12.45,-1.05,86
12.45,-0.9,98
12.45,-0.75,110
12.45,-0.6,107
12.45,-0.45,98
12.45,-0.3,176
12.45,-0.15,62
12.45,0.0,41
12.45,0.15,29
12.45,0.3,23
12.45,0.45,39
12.45,0.6,46
12.45,0.75,48
12.45,0.9,50
12.45,1.05,67
12.45,1.2,64
12.45,1.35,58
12.45,1.5,55
12.6,-1.5,64
12.6,-1.35,75
12.6,-1.2,89
12.6,-1.05,101
12.6,-0.9,107
12.6,-0.75,109
12.6,-0.6,113
12.6,-0.45,77
12.6,-0.3,34
12.6,-0.15,46
12.6,0.0,33
12.6,0.15,22
12.6,0.3,16
12.6,0.45,20
12.6,0.6,21
12.6,0.75,29
12.6,0.9,31
12.6,1.05,30
12.6,1.2,25
12.6,1.35,32
12.6,1.5,28
12.75,-1.5,31
12.75,-1.35,45
12.75,-1.2,66
12.75,-1.05,81
12.75,-0.9,101
12.75,-0.75,102
12.75,-0.6,128
12.75,-0.45,29
12.75,-0.3,3
12.75,-0.15,20
12.75,0.0,25
12.75,0.15,0
12.75,0.3,7
12.75,0.45,18
12.75,0.6,18
12.75,0.75,20
12.75,0.9,19
12.75,1.05,23
12.75,1.2,16
12.75,1.35,9
12.75,1.5,5
12.9,-1.5,2
12.9,-1.35,22
12.9,-1.2,55
12.9,-1.05,76
12.9,-0.9,85
12.9,-0.75,91
12.9,-0.6,49
12.9,-0.45,219
12.9,-0.3,20
12.9,-0.15,13
12.9,0.0,13
12.9,0.15,11
12.9,0.3,11
12.9,0.45,20
12.9,0.6,23
12.9,0.75,23
12.9,0.9,23
12.9,1.05,13
12.9,1.2,10
12.9,1.35,0
12.9,1.5,0
13.05,-1.5,0
13.05,-1.35,15
13.05,-1.2,50
13.05,-1.05,72
13.05,-0.9,82
13.05,-0.75,86
13.05,-0.6,93
13.05,-0.45,140
13.05,-0.3,92
13.05,-0.15,32
13.05,0.0,22
13.05,0.15,22
13.05,0.3,22
13.05,0.45,23
13.05,0.6,23
13.05,0.75,23
13.05,0.9,23
13.05,1.05,18
13.05,1.2,8
13.05,1.35,0
13.05,1.5,0
