-3.0,-1.5,0
-3.0,-1.35,12
-3.0,-1.2,51
-3.0,-1.05,94
-3.0,-0.9,127
-3.0,-0.75,150
-3.0,-0.6,156
-3.0,-0.45,162
-3.0,-0.3,160
-3.0,-0.15,157
-3.0,0.0,152
-3.0,0.15,146
-3.0,0.3,133
-3.0,0.45,135
-3.0,0.6,121
-3.0,0.75,109
-3.0,0.9,91
-3.0,1.05,65
-3.0,1.2,30
-3.0,1.35,6
-3.0,1.5,0
-2.85,-1.5,12
-2.85,-1.35,29
-2.85,-1.2,69
-2.85,-1.05,110
-2.85,-0.9,142
-2.85,-0.75,162
-2.85,-0.6,167
-2.85,-0.45,172
-2.85,-0.3,172
-2.85,-0.15,164
-2.85,0.0,155
-2.85,0.15,148
-2.85,0.3,141
-2.85,0.45,131
-2.85,0.6,125
-2.85,0.75,114
-2.85,0.9,97
-2.85,1.05,67
-2.85,1.2,39
-2.85,1.35,15
-2.85,1.5,5
-2.7,-1.5,54
-2.7,-1.35,71
-2.7,-1.2,103
-2.7,-1.05,135
-2.7,-0.9,160
-2.7,-0.75,178
-2.7,-0.6,182
-2.7,-0.45,186
-2.7,-0.3,183
-2.7,-0.15,174
-2.7,0.0,160
-2.7,0.15,145
-2.7,0.3,136
-2.7,0.45,131
-2.7,0.6,128
-2.7,0.75,119
-2.7,0.9,105
-2.7,1.05,79
-2.7,1.2,57
-2.7,1.35,37
-2.7,1.5,27
-2.55,-1.5,102
-2.55,-1.35,118
-2.55,-1.2,141
-2.55,-1.05,162
-2.55,-0.9,180
-2.55,-0.75,194
-2.55,-0.6,204
-2.55,-0.45,205
-2.55,-0.3,201
-2.55,-0.15,185
-2.55,0.0,165
-2.55,0.15,143
-2.55,0.3,131
-2.55,0.45,131
-2.55,0.6,129
-2.55,0.75,122
-2.55,0.9,104
-2.55,1.05,89
-2.55,1.2,74
-2.55,1.35,59
-2.55,1.5,51
-2.4,-1.5,143
-2.4,-1.35,157
-2.4,-1.2,173
-2.4,-1.05,186
-2.4,-0.9,197
-2.4,-0.75,208
-2.4,-0.6,221
-2.4,-0.45,231
-2.4,-0.3,227
-2.4,-0.15,202
-2.4,0.0,173
-2.4,0.15,149
-2.4,0.3,133
-2.4,0.45,131
-2.4,0.6,128
-2.4,0.75,123
-2.4,0.9,106
-2.4,1.05,96
-2.4,1.2,86
-2.4,1.35,76
-2.4,1.5,69
-2.25,-1.5,174
-2.25,-1.35,186
-2.25,-1.2,199
-2.25,-1.05,208
-2.25,-0.9,212
-2.25,-0.75,217
-2.25,-0.6,232
-2.25,-0.45,255
-2.25,-0.3,253
-2.25,-0.15,213
-2.25,0.0,180
-2.25,0.15,156
-2.25,0.3,142
-2.25,0.45,131
-2.25,0.6,125
-2.25,0.75,112
-2.25,0.9,106
-2.25,1.05,99
-2.25,1.2,92
-2.25,1.35,86
-2.25,1.5,80
-2.1,-1.5,194
-2.1,-1.35,209
-2.1,-1.2,224
-2.1,-1.05,231
-2.1,-0.9,227
-2.1,-0.75,222
-2.1,-0.6,230
-2.1,-0.45,246
-2.1,-0.3,240
-2.1,-0.15,210
-2.1,0.0,182
-2.1,0.15,157
-2.1,0.3,136
-2.1,0.45,124
-2.1,0.6,118
-2.1,0.75,106
-2.1,0.9,103
-2.1,1.05,99
-2.1,1.2,95
-2.1,1.35,91
-2.1,1.5,90
-1.95,-1.5,204
-1.95,-1.35,222
-1.95,-1.2,242
-1.95,-1.05,255
-1.95,-0.9,244
-1.95,-0.75,225
-1.95,-0.6,219
-1.95,-0.45,222
-1.95,-0.3,221
-1.95,-0.15,215
-1.95,0.0,186
-1.95,0.15,151
-1.95,0.3,126
-1.95,0.45,110
-1.95,0.6,103
-1.95,0.75,105
-1.95,0.9,98
-1.95,1.05,97
-1.95,1.2,87
-1.95,1.35,87
-1.95,1.5,87
-1.8,-1.5,206
-1.8,-1.35,223
-1.8,-1.2,246
-1.8,-1.05,255
-1.8,-0.9,248
-1.8,-0.75,220
-1.8,-0.6,207
-1.8,-0.45,209
-1.8,-0.3,235
-1.8,-0.15,253
-1.8,0.0,193
-1.8,0.15,152
-1.8,0.3,122
-1.8,0.45,95
-1.8,0.6,80
-1.8,0.75,88
-1.8,0.9,90
-1.8,1.05,86
-1.8,1.2,92
-1.8,1.35,90
-1.8,1.5,89
-1.65,-1.5,203
-1.65,-1.35,216
-1.65,-1.2,231
-1.65,-1.05,239
-1.65,-0.9,228
-1.65,-0.75,209
-1.65,-0.6,196
-1.65,-0.45,193
-1.65,-0.3,202
-1.65,-0.15,198
-1.65,0.0,187
-1.65,0.15,192
-1.65,0.3,110
-1.65,0.45,0
-1.65,0.6,58
-1.65,0.75,79
-1.65,0.9,86
-1.65,1.05,89
-1.65,1.2,90
-1.65,1.35,89
-1.65,1.5,89
-1.5,-1.5,197
-1.5,-1.35,205
-1.5,-1.2,213
-1.5,-1.05,213
-1.5,-0.9,205
-1.5,-0.75,194
-1.5,-0.6,186
-1.5,-0.45,180
-1.5,-0.3,160
-1.5,-0.15,133
-1.5,0.0,171
-1.5,0.15,245
-1.5,0.3,132
-1.5,0.45,77
-1.5,0.6,76
-1.5,0.75,80
-1.5,0.9,84
-1.5,1.05,86
-1.5,1.2,87
-1.5,1.35,88
-1.5,1.5,88
-1.35,-1.5,190
-1.35,-1.35,196
-1.35,-1.2,200
-1.35,-1.05,199
-1.35,-0.9,195
-1.35,-0.75,188
-1.35,-0.6,184
-1.35,-0.45,185
-1.35,-0.3,182
-1.35,-0.15,108
-1.35,0.0,132
-1.35,0.15,124
-1.35,0.3,100
-1.35,0.45,92
-1.35,0.6,86
-1.35,0.75,84
-1.35,0.9,85
-1.35,1.05,81
-1.35,1.2,83
-1.35,1.35,85
-1.35,1.5,73
-1.2,-1.5,184
-1.2,-1.35,179
-1.2,-1.2,186
-1.2,-1.05,189
-1.2,-0.9,189
-1.2,-0.75,186
-1.2,-0.6,192
-1.2,-0.45,191
-1.2,-0.3,175
-1.2,-0.15,62
-1.2,0.0,102
-1.2,0.15,75
-1.2,0.3,70
-1.2,0.45,82
-1.2,0.6,80
-1.2,0.75,76
-1.2,0.9,77
-1.2,1.05,81
-1.2,1.2,84
-1.2,1.35,81
-1.2,1.5,84
-1.05,-1.5,177
-1.05,-1.35,170
-1.05,-1.2,171
-1.05,-1.05,166
-1.05,-0.9,171
-1.05,-0.75,194
-1.05,-0.6,225
-1.05,-0.45,227
-1.05,-0.3,152
-1.05,-0.15,113
-1.05,0.0,93
-1.05,0.15,73
-1.05,0.3,73
-1.05,0.45,70
-1.05,0.6,55
-1.05,0.75,52
-1.05,0.9,59
-1.05,1.05,66
-1.05,1.2,64
-1.05,1.35,67
-1.05,1.5,69
-0.9,-1.5,177
-0.9,-1.35,171
-0.9,-1.2,166
-0.9,-1.05,166
-0.9,-0.9,171
-0.9,-0.75,180
-0.9,-0.6,216
-0.9,-0.45,219
-0.9,-0.3,144
-0.9,-0.15,109
-0.9,0.0,91
-0.9,0.15,86
-0.9,0.3,78
-0.9,0.45,55
-0.9,0.6,12
-0.9,0.75,20
-0.9,0.9,41
-0.9,1.05,53
-0.9,1.2,60
-0.9,1.35,68
-0.9,1.5,69
-0.75,-1.5,169
-0.75,-1.35,168
-0.75,-1.2,167
-0.75,-1.05,166
-0.75,-0.9,160
-0.75,-0.75,156
-0.75,-0.6,154
-0.75,-0.45,123
-0.75,-0.3,105
-0.75,-0.15,98
-0.75,0.0,98
-0.75,0.15,108
-0.75,0.3,83
-0.75,0.45,45
-0.75,0.6,5
-0.75,0.75,15
-0.75,0.9,36
-0.75,1.05,49
-0.75,1.2,56
-0.75,1.35,60
-0.75,1.5,69
-0.6,-1.5,157
-0.6,-1.35,157
-0.6,-1.2,163
-0.6,-1.05,151
-0.6,-0.9,149
-0.6,-0.75,143
-0.6,-0.6,124
-0.6,-0.45,78
-0.6,-0.3,74
-0.6,-0.15,92
-0.6,0.0,91
-0.6,0.15,92
-0.6,0.3,80
-0.6,0.45,61
-0.6,0.6,36
-0.6,0.75,34
-0.6,0.9,45
-0.6,1.05,54
-0.6,1.2,56
-0.6,1.35,60
-0.6,1.5,62
-0.45,-1.5,153
-0.45,-1.35,139
-0.45,-1.2,143
-0.45,-1.05,146
-0.45,-0.9,148
-0.45,-0.75,134
-0.45,-0.6,122
-0.45,-0.45,102
-0.45,-0.3,92
-0.45,-0.15,82
-0.45,0.0,86
-0.45,0.15,84
-0.45,0.3,74
-0.45,0.45,65
-0.45,0.6,56
-0.45,0.75,51
-0.45,0.9,39
-0.45,1.05,51
-0.45,1.2,54
-0.45,1.35,56
-0.45,1.5,46
-0.3,-1.5,148
-0.3,-1.35,139
-0.3,-1.2,131
-0.3,-1.05,131
-0.3,-0.9,140
-0.3,-0.75,135
-0.3,-0.6,135
-0.3,-0.45,131
-0.3,-0.3,107
-0.3,-0.15,70
-0.3,0.0,82
-0.3,0.15,86
-0.3,0.3,87
-0.3,0.45,69
-0.3,0.6,64
-0.3,0.75,70
-0.3,0.9,60
-0.3,1.05,60
-0.3,1.2,61
-0.3,1.35,62
-0.3,1.5,63
-0.15,-1.5,135
-0.15,-1.35,136
-0.15,-1.2,137
-0.15,-1.05,138
-0.15,-0.9,128
-0.15,-0.75,127
-0.15,-0.6,133
-0.15,-0.45,170
-0.15,-0.3,156
-0.15,-0.15,107
-0.15,0.0,70
-0.15,0.15,82
-0.15,0.3,87
-0.15,0.45,81
-0.15,0.6,79
-0.15,0.75,77
-0.15,0.9,65
-0.15,1.05,64
-0.15,1.2,64
-0.15,1.35,64
-0.15,1.5,65
0.0,-1.5,131
0.0,-1.35,132
0.0,-1.2,134
0.0,-1.05,129
0.0,-0.9,129
0.0,-0.75,108
0.0,-0.6,84
0.0,-0.45,222
0.0,-0.3,237
0.0,-0.15,132
0.0,0.0,65
0.0,0.15,84
0.0,0.3,100
0.0,0.45,83
0.0,0.6,82
0.0,0.75,69
0.0,0.9,67
0.0,1.05,66
0.0,1.2,66
0.0,1.35,66
0.0,1.5,66
0.15,-1.5,123
0.15,-1.35,116
0.15,-1.2,119
0.15,-1.05,126
0.15,-0.9,133
0.15,-0.75,143
0.15,-0.6,189
0.15,-0.45,239
0.15,-0.3,149
0.15,-0.15,129
0.15,0.0,110
0.15,0.15,108
0.15,0.3,103
0.15,0.45,91
0.15,0.6,76
0.15,0.75,73
0.15,0.9,64
0.15,1.05,67
0.15,1.2,66
0.15,1.35,63
0.15,1.5,63
0.3,-1.5,104
0.3,-1.35,105
0.3,-1.2,106
0.3,-1.05,112
0.3,-0.9,121
0.3,-0.75,142
0.3,-0.6,179
0.3,-0.45,213
0.3,-0.3,129
0.3,-0.15,129
0.3,0.0,131
0.3,0.15,116
0.3,0.3,106
0.3,0.45,89
0.3,0.6,82
0.3,0.75,69
0.3,0.9,56
0.3,1.05,55
0.3,1.2,55
0.3,1.35,55
0.3,1.5,54
0.45,-1.5,93
0.45,-1.35,94
0.45,-1.2,90
0.45,-1.05,85
0.45,-0.9,83
0.45,-0.75,98
0.45,-0.6,139
0.45,-0.45,171
0.45,-0.3,181
0.45,-0.15,144
0.45,0.0,135
0.45,0.15,137
0.45,0.3,101
0.45,0.45,75
0.45,0.6,62
0.45,0.75,60
0.45,0.9,62
0.45,1.05,53
0.45,1.2,54
0.45,1.35,54
0.45,1.5,54
0.6,-1.5,85
0.6,-1.35,80
0.6,-1.2,71
0.6,-1.05,57
0.6,-0.9,31
0.6,-0.75,34
0.6,-0.6,71
0.6,-0.45,162
0.6,-0.3,255
0.6,-0.15,116
0.6,0.0,98
0.6,0.15,255
0.6,0.3,29
0.6,0.45,43
0.6,0.6,38
0.6,0.75,45
0.6,0.9,55
0.6,1.05,60
0.6,1.2,52
0.6,1.35,53
0.6,1.5,54
0.75,-1.5,71
0.75,-1.35,62
0.75,-1.2,54
0.75,-1.05,38
0.75,-0.9,10
0.75,-0.75,10
0.75,-0.6,0
0.75,-0.45,88
0.75,-0.3,113
0.75,-0.15,35
0.75,0.0,94
0.75,0.15,65
0.75,0.3,68
0.75,0.45,29
0.75,0.6,2
0.75,0.75,32
0.75,0.9,41
0.75,1.05,44
0.75,1.2,47
0.75,1.35,48
0.75,1.5,49
0.9,-1.5,66
0.9,-1.35,61
0.9,-1.2,42
0.9,-1.05,41
0.9,-0.9,26
0.9,-0.75,25
0.9,-0.6,30
0.9,-0.45,58
0.9,-0.3,62
0.9,-0.15,33
0.9,0.0,71
0.9,0.15,89
0.9,0.3,75
0.9,0.45,43
0.9,0.6,21
0.9,0.75,31
0.9,0.9,39
0.9,1.05,43
0.9,1.2,45
0.9,1.35,44
0.9,1.5,47
1.05,-1.5,50
1.05,-1.35,47
1.05,-1.2,43
1.05,-1.05,39
1.05,-0.9,30
1.05,-0.75,31
1.05,-0.6,36
1.05,-0.45,45
1.05,-0.3,63
1.05,-0.15,66
1.05,0.0,68
1.05,0.15,66
1.05,0.3,58
1.05,0.45,45
1.05,0.6,38
1.05,0.75,38
1.05,0.9,40
1.05,1.05,42
1.05,1.2,44
1.05,1.35,45
1.05,1.5,45
1.2,-1.5,40
1.2,-1.35,38
1.2,-1.2,36
1.2,-1.05,34
1.2,-0.9,31
1.2,-0.75,27
1.2,-0.6,29
1.2,-0.45,45
1.2,-0.3,55
1.2,-0.15,55
1.2,0.0,63
1.2,0.15,52
1.2,0.3,38
1.2,0.45,34
1.2,0.6,36
1.2,0.75,38
1.2,0.9,40
1.2,1.05,41
1.2,1.2,42
1.2,1.35,43
1.2,1.5,44
1.35,-1.5,40
1.35,-1.35,39
1.35,-1.2,30
1.35,-1.05,29
1.35,-0.9,29
1.35,-0.75,19
1.35,-0.6,21
1.35,-0.45,48
1.35,-0.3,60
1.35,-0.15,51
1.35,0.0,50
1.35,0.15,37
1.35,0.3,12
1.35,0.45,17
1.35,0.6,22
1.35,0.75,24
1.35,0.9,24
1.35,1.05,39
1.35,1.2,40
1.35,1.35,41
1.35,1.5,42
1.5,-1.5,32
1.5,-1.35,32
1.5,-1.2,32
1.5,-1.05,32
1.5,-0.9,30
1.5,-0.75,28
1.5,-0.6,10
1.5,-0.45,48
1.5,-0.3,58
1.5,-0.15,60
1.5,0.0,52
1.5,0.15,38
1.5,0.3,30
1.5,0.45,27
1.5,0.6,30
1.5,0.75,31
1.5,0.9,25
1.5,1.05,25
1.5,1.2,25
1.5,1.35,25
1.5,1.5,25
1.65,-1.5,34
1.65,-1.35,34
1.65,-1.2,34
1.65,-1.05,39
1.65,-0.9,38
1.65,-0.75,35
1.65,-0.6,41
1.65,-0.45,59
1.65,-0.3,62
1.65,-0.15,62
1.65,0.0,59
1.65,0.15,18
1.65,0.3,38
1.65,0.45,38
1.65,0.6,36
1.65,0.75,35
1.65,0.9,29
1.65,1.05,26
1.65,1.2,26
1.65,1.35,26
1.65,1.5,25
1.8,-1.5,38
1.8,-1.35,38
1.8,-1.2,38
1.8,-1.05,38
1.8,-0.9,39
1.8,-0.75,44
1.8,-0.6,51
1.8,-0.45,61
1.8,-0.3,67
1.8,-0.15,72
1.8,0.0,63
1.8,0.15,17
1.8,0.3,26
1.8,0.45,36
1.8,0.6,35
1.8,0.75,35
1.8,0.9,29
1.8,1.05,29
1.8,1.2,26
1.8,1.35,26
1.8,1.5,27
1.95,-1.5,53
1.95,-1.35,51
1.95,-1.2,35
1.95,-1.05,39
1.95,-0.9,37
1.95,-0.75,44
1.95,-0.6,49
1.95,-0.45,62
1.95,-0.3,64
1.95,-0.15,71
1.95,0.0,78
1.95,0.15,60
1.95,0.3,48
1.95,0.45,36
1.95,0.6,24
1.95,0.75,25
1.95,0.9,27
1.95,1.05,28
1.95,1.2,47
1.95,1.35,49
1.95,1.5,27
2.1,-1.5,70
2.1,-1.35,54
2.1,-1.2,51
2.1,-1.05,34
2.1,-0.9,34
2.1,-0.75,40
2.1,-0.6,54
2.1,-0.45,52
2.1,-0.3,58
2.1,-0.15,63
2.1,0.0,65
2.1,0.15,62
2.1,0.3,52
2.1,0.45,25
2.1,0.6,5
2.1,0.75,28
2.1,0.9,40
2.1,1.05,46
2.1,1.2,45
2.1,1.35,47
2.1,1.5,49
2.25,-1.5,83
2.25,-1.35,77
2.25,-1.2,66
2.25,-1.05,47
2.25,-0.9,35
2.25,-0.75,12
2.25,-0.6,38
2.25,-0.45,31
2.25,-0.3,60
2.25,-0.15,12
2.25,0.0,55
2.25,0.15,58
2.25,0.3,60
2.25,0.45,37
2.25,0.6,13
2.25,0.75,31
2.25,0.9,46
2.25,1.05,48
2.25,1.2,47
2.25,1.35,49
2.25,1.5,47
2.4,-1.5,83
2.4,-1.35,81
2.4,-1.2,76
2.4,-1.05,66
2.4,-0.9,49
2.4,-0.75,21
2.4,-0.6,20
2.4,-0.45,0
2.4,-0.3,10
2.4,-0.15,33
2.4,0.0,50
2.4,0.15,62
2.4,0.3,63
2.4,0.45,54
2.4,0.6,42
2.4,0.75,43
2.4,0.9,47
2.4,1.05,50
2.4,1.2,53
2.4,1.35,53
2.4,1.5,53
2.55,-1.5,125
2.55,-1.35,123
2.55,-1.2,102
2.55,-1.05,96
2.55,-0.9,74
2.55,-0.75,64
2.55,-0.6,47
2.55,-0.45,25
2.55,-0.3,13
2.55,-0.15,19
2.55,0.0,25
2.55,0.15,105
2.55,0.3,77
2.55,0.45,7
2.55,0.6,40
2.55,0.75,46
2.55,0.9,51
2.55,1.05,53
2.55,1.2,53
2.55,1.35,51
2.55,1.5,52
2.7,-1.5,145
2.7,-1.35,133
2.7,-1.2,135
2.7,-1.05,135
2.7,-0.9,122
2.7,-0.75,80
2.7,-0.6,84
2.7,-0.45,71
2.7,-0.3,73
2.7,-0.15,40
2.7,0.0,85
2.7,0.15,239
2.7,0.3,85
2.7,0.45,50
2.7,0.6,57
2.7,0.75,63
2.7,0.9,63
2.7,1.05,50
2.7,1.2,50
2.7,1.35,50
2.7,1.5,50
2.85,-1.5,159
2.85,-1.35,159
2.85,-1.2,154
2.85,-1.05,163
2.85,-0.9,197
2.85,-0.75,155
2.85,-0.6,161
2.85,-0.45,149
2.85,-0.3,130
2.85,-0.15,87
2.85,0.0,226
2.85,0.15,74
2.85,0.3,20
2.85,0.45,58
2.85,0.6,63
2.85,0.75,63
2.85,0.9,63
2.85,1.05,50
2.85,1.2,50
2.85,1.35,51
2.85,1.5,51
3.0,-1.5,162
3.0,-1.35,162
3.0,-1.2,173
3.0,-1.05,173
3.0,-0.9,212
3.0,-0.75,100
3.0,-0.6,228
3.0,-0.45,193
3.0,-0.3,121
3.0,-0.15,98
3.0,0.0,69
3.0,0.15,69
3.0,0.3,63
3.0,0.45,63
3.0,0.6,63
3.0,0.75,53
3.0,0.9,54
3.0,1.05,50
3.0,1.2,54
3.0,1.35,54
3.0,1.5,69
3.15,-1.5,162
3.15,-1.35,162
3.15,-1.2,156
3.15,-1.05,140
3.15,-0.9,87
3.15,-0.75,168
3.15,-0.6,255
3.15,-0.45,255
3.15,-0.3,107
3.15,-0.15,78
3.15,0.0,96
3.15,0.15,84
3.15,0.3,57
3.15,0.45,42
3.15,0.6,37
3.15,0.75,37
3.15,0.9,32
3.15,1.05,49
3.15,1.2,50
3.15,1.35,56
3.15,1.5,54
3.3,-1.5,162
3.3,-1.35,161
3.3,-1.2,169
3.3,-1.05,160
3.3,-0.9,163
3.3,-0.75,211
3.3,-0.6,255
3.3,-0.45,88
3.3,-0.3,112
3.3,-0.15,125
3.3,0.0,88
3.3,0.15,64
3.3,0.3,69
3.3,0.45,52
3.3,0.6,43
3.3,0.75,45
3.3,0.9,59
3.3,1.05,57
3.3,1.2,59
3.3,1.35,60
3.3,1.5,61
3.45,-1.5,162
3.45,-1.35,168
3.45,-1.2,167
3.45,-1.05,169
3.45,-0.9,180
3.45,-0.75,209
3.45,-0.6,226
3.45,-0.45,196
3.45,-0.3,244
3.45,-0.15,187
3.45,0.0,64
3.45,0.15,64
3.45,0.3,67
3.45,0.45,50
3.45,0.6,44
3.45,0.75,59
3.45,0.9,66
3.45,1.05,70
3.45,1.2,69
3.45,1.35,71
3.45,1.5,68
3.6,-1.5,159
3.6,-1.35,165
3.6,-1.2,164
3.6,-1.05,156
3.6,-0.9,174
3.6,-0.75,220
3.6,-0.6,149
3.6,-0.45,221
3.6,-0.3,142
3.6,-0.15,100
3.6,0.0,111
3.6,0.15,85
3.6,0.3,107
3.6,0.45,29
3.6,0.6,32
3.6,0.75,61
3.6,0.9,68
3.6,1.05,73
3.6,1.2,77
3.6,1.35,80
3.6,1.5,81
3.75,-1.5,157
3.75,-1.35,157
3.75,-1.2,157
3.75,-1.05,160
3.75,-0.9,136
3.75,-0.75,124
3.75,-0.6,149
3.75,-0.45,121
3.75,-0.3,86
3.75,-0.15,60
3.75,0.0,98
3.75,0.15,68
3.75,0.3,95
3.75,0.45,90
3.75,0.6,76
3.75,0.75,57
3.75,0.9,65
3.75,1.05,76
3.75,1.2,81
3.75,1.35,84
3.75,1.5,86
3.9,-1.5,167
3.9,-1.35,162
3.9,-1.2,157
3.9,-1.05,147
3.9,-0.9,122
3.9,-0.75,98
3.9,-0.6,185
3.9,-0.45,255
3.9,-0.3,92
3.9,-0.15,68
3.9,0.0,65
3.9,0.15,73
3.9,0.3,102
3.9,0.45,125
3.9,0.6,121
3.9,0.75,0
3.9,0.9,58
3.9,1.05,94
3.9,1.2,104
3.9,1.35,109
3.9,1.5,112
4.05,-1.5,191
4.05,-1.35,191
4.05,-1.2,178
4.05,-1.05,175
4.05,-0.9,144
4.05,-0.75,101
4.05,-0.6,83
4.05,-0.45,83
4.05,-0.3,111
4.05,-0.15,85
4.05,0.0,115
4.05,0.15,92
4.05,0.3,126
4.05,0.45,170
4.05,0.6,241
4.05,0.75,108
4.05,0.9,96
4.05,1.05,114
4.05,1.2,121
4.05,1.35,125
4.05,1.5,124
4.2,-1.5,181
4.2,-1.35,181
4.2,-1.2,192
4.2,-1.05,210
4.2,-0.9,235
4.2,-0.75,187
4.2,-0.6,180
4.2,-0.45,92
4.2,-0.3,83
4.2,-0.15,79
4.2,0.0,122
4.2,0.15,158
4.2,0.3,198
4.2,0.45,192
4.2,0.6,188
4.2,0.75,164
4.2,0.9,146
4.2,1.05,143
4.2,1.2,126
4.2,1.35,127
4.2,1.5,127
4.35,-1.5,182
4.35,-1.35,188
4.35,-1.2,197
4.35,-1.05,216
4.35,-0.9,243
4.35,-0.75,255
4.35,-0.6,148
4.35,-0.45,200
4.35,-0.3,28
4.35,-0.15,109
4.35,0.0,92
4.35,0.15,174
4.35,0.3,219
4.35,0.45,204
4.35,0.6,186
4.35,0.75,171
4.35,0.9,161
4.35,1.05,152
4.35,1.2,149
4.35,1.35,126
4.35,1.5,126
4.5,-1.5,168
4.5,-1.35,177
4.5,-1.2,190
4.5,-1.05,198
4.5,-0.9,210
4.5,-0.75,255
4.5,-0.6,147
4.5,-0.45,54
4.5,-0.3,28
4.5,-0.15,88
4.5,0.0,13
4.5,0.15,103
4.5,0.3,210
4.5,0.45,152
4.5,0.6,153
4.5,0.75,150
4.5,0.9,141
4.5,1.05,137
4.5,1.2,134
4.5,1.35,132
4.5,1.5,126
4.65,-1.5,147
4.65,-1.35,149
4.65,-1.2,152
4.65,-1.05,146
4.65,-0.9,139
4.65,-0.75,75
4.65,-0.6,56
4.65,-0.45,8
4.65,-0.3,46
4.65,-0.15,18
4.65,0.0,65
4.65,0.15,78
4.65,0.3,108
4.65,0.45,121
4.65,0.6,107
4.65,0.75,123
4.65,0.9,120
4.65,1.05,127
4.65,1.2,126
4.65,1.35,130
4.65,1.5,130
4.8,-1.5,175
4.8,-1.35,147
4.8,-1.2,143
4.8,-1.05,123
4.8,-0.9,119
4.8,-0.75,114
4.8,-0.6,75
4.8,-0.45,68
4.8,-0.3,24
4.8,-0.15,29
4.8,0.0,60
4.8,0.15,47
4.8,0.3,72
4.8,0.45,86
4.8,0.6,94
4.8,0.75,73
4.8,0.9,88
4.8,1.05,85
4.8,1.2,112
4.8,1.35,85
4.8,1.5,84
4.95,-1.5,134
4.95,-1.35,139
4.95,-1.2,122
4.95,-1.05,103
4.95,-0.9,100
4.95,-0.75,119
4.95,-0.6,127
4.95,-0.45,147
4.95,-0.3,68
4.95,-0.15,149
4.95,0.0,23
4.95,0.15,71
4.95,0.3,86
4.95,0.45,61
4.95,0.6,58
4.95,0.75,60
4.95,0.9,61
4.95,1.05,61
4.95,1.2,78
4.95,1.35,74
4.95,1.5,75
5.1,-1.5,111
5.1,-1.35,111
5.1,-1.2,111
5.1,-1.05,95
5.1,-0.9,72
5.1,-0.75,49
5.1,-0.6,161
5.1,-0.45,47
5.1,-0.3,22
5.1,-0.15,37
5.1,0.0,15
5.1,0.15,25
5.1,0.3,51
5.1,0.45,31
5.1,0.6,32
5.1,0.75,39
5.1,0.9,41
5.1,1.05,33
5.1,1.2,33
5.1,1.35,38
5.1,1.5,38
5.25,-1.5,129
5.25,-1.35,140
5.25,-1.2,140
5.25,-1.05,134
5.25,-0.9,112
5.25,-0.75,131
5.25,-0.6,87
5.25,-0.45,6
5.25,-0.3,63
5.25,-0.15,46
5.25,0.0,61
5.25,0.15,13
5.25,0.3,31
5.25,0.45,2
5.25,0.6,12
5.25,0.75,19
5.25,0.9,30
5.25,1.05,32
5.25,1.2,34
5.25,1.35,38
5.25,1.5,38
5.4,-1.5,140
5.4,-1.35,140
5.4,-1.2,140
5.4,-1.05,126
5.4,-0.9,148
5.4,-0.75,255
5.4,-0.6,160
5.4,-0.45,53
5.4,-0.3,23
5.4,-0.15,120
5.4,0.0,32
5.4,0.15,0
5.4,0.3,32
5.4,0.45,17
5.4,0.6,17
5.4,0.75,18
5.4,0.9,18
5.4,1.05,19
5.4,1.2,20
5.4,1.35,21
5.4,1.5,26
5.55,-1.5,140
5.55,-1.35,133
5.55,-1.2,124
5.55,-1.05,109
5.55,-0.9,85
5.55,-0.75,107
5.55,-0.6,86
5.55,-0.45,38
5.55,-0.3,14
5.55,-0.15,61
5.55,0.0,48
5.55,0.15,48
5.55,0.3,12
5.55,0.45,12
5.55,0.6,11
5.55,0.75,18
5.55,0.9,21
5.55,1.05,23
5.55,1.2,25
5.55,1.35,26
5.55,1.5,26
5.7,-1.5,152
5.7,-1.35,148
5.7,-1.2,142
5.7,-1.05,112
5.7,-0.9,85
5.7,-0.75,97
5.7,-0.6,64
5.7,-0.45,66
5.7,-0.3,65
5.7,-0.15,84
5.7,0.0,49
5.7,0.15,26
5.7,0.3,29
5.7,0.45,4
5.7,0.6,8
5.7,0.75,22
5.7,0.9,27
5.7,1.05,29
5.7,1.2,30
5.7,1.35,27
5.7,1.5,27
5.85,-1.5,159
5.85,-1.35,156
5.85,-1.2,128
5.85,-1.05,116
5.85,-0.9,85
5.85,-0.75,2
5.85,-0.6,95
5.85,-0.45,49
5.85,-0.3,1
5.85,-0.15,61
5.85,0.0,30
5.85,0.15,95
5.85,0.3,63
5.85,0.45,52
5.85,0.6,31
5.85,0.75,30
5.85,0.9,31
5.85,1.05,31
5.85,1.2,32
5.85,1.35,32
5.85,1.5,32
6.0,-1.5,142
6.0,-1.35,145
6.0,-1.2,134
6.0,-1.05,140
6.0,-0.9,116
6.0,-0.75,148
6.0,-0.6,219
6.0,-0.45,61
6.0,-0.3,20
6.0,-0.15,51
6.0,0.0,63
6.0,0.15,72
6.0,0.3,84
6.0,0.45,68
6.0,0.6,61
6.0,0.75,58
6.0,0.9,59
6.0,1.05,45
6.0,1.2,31
6.0,1.35,33
6.0,1.5,33
6.15,-1.5,138
6.15,-1.35,140
6.15,-1.2,160
6.15,-1.05,172
6.15,-0.9,96
6.15,-0.75,96
6.15,-0.6,65
6.15,-0.45,64
6.15,-0.3,45
6.15,-0.15,41
6.15,0.0,57
6.15,0.15,97
6.15,0.3,86
6.15,0.45,86
6.15,0.6,74
6.15,0.75,71
6.15,0.9,69
6.15,1.05,69
6.15,1.2,57
6.15,1.35,57
6.15,1.5,39
6.3,-1.5,138
6.3,-1.35,150
6.3,-1.2,181
6.3,-1.05,253
6.3,-0.9,96
6.3,-0.75,69
6.3,-0.6,65
6.3,-0.45,90
6.3,-0.3,153
6.3,-0.15,153
6.3,0.0,62
6.3,0.15,60
6.3,0.3,74
6.3,0.45,83
6.3,0.6,83
6.3,0.75,63
6.3,0.9,61
6.3,1.05,59
6.3,1.2,50
6.3,1.35,49
6.3,1.5,40
6.45,-1.5,110
6.45,-1.35,120
6.45,-1.2,135
6.45,-1.05,143
6.45,-0.9,108
6.45,-0.75,76
6.45,-0.6,104
6.45,-0.45,160
6.45,-0.3,11
6.45,-0.15,47
6.45,0.0,46
6.45,0.15,65
6.45,0.3,73
6.45,0.45,72
6.45,0.6,66
6.45,0.75,49
6.45,0.9,44
6.45,1.05,40
6.45,1.2,40
6.45,1.35,40
6.45,1.5,40
6.6,-1.5,109
6.6,-1.35,111
6.6,-1.2,110
6.6,-1.05,102
6.6,-0.9,90
6.6,-0.75,89
6.6,-0.6,96
6.6,-0.45,43
6.6,-0.3,39
6.6,-0.15,46
6.6,0.0,65
6.6,0.15,70
6.6,0.3,78
6.6,0.45,78
6.6,0.6,71
6.6,0.75,69
6.6,0.9,42
6.6,1.05,41
6.6,1.2,41
6.6,1.35,41
6.6,1.5,40
6.75,-1.5,83
6.75,-1.35,82
6.75,-1.2,89
6.75,-1.05,81
6.75,-0.9,62
6.75,-0.75,60
6.75,-0.6,30
6.75,-0.45,108
6.75,-0.3,77
6.75,-0.15,116
6.75,0.0,133
6.75,0.15,81
6.75,0.3,66
6.75,0.45,57
6.75,0.6,53
6.75,0.75,42
6.75,0.9,52
6.75,1.05,53
6.75,1.2,54
6.75,1.35,55
6.75,1.5,60
6.9,-1.5,54
6.9,-1.35,52
6.9,-1.2,49
6.9,-1.05,48
6.9,-0.9,50
6.9,-0.75,45
6.9,-0.6,18
6.9,-0.45,59
6.9,-0.3,64
6.9,-0.15,47
6.9,0.0,65
6.9,0.15,43
6.9,0.3,44
6.9,0.45,57
6.9,0.6,51
6.9,0.75,52
6.9,0.9,55
6.9,1.05,57
6.9,1.2,58
6.9,1.35,59
6.9,1.5,60
7.05,-1.5,53
7.05,-1.35,32
7.05,-1.2,34
7.05,-1.05,48
7.05,-0.9,46
7.05,-0.75,35
7.05,-0.6,32
7.05,-0.45,50
7.05,-0.3,34
7.05,-0.15,68
7.05,0.0,23
7.05,0.15,42
7.05,0.3,34
7.05,0.45,33
7.05,0.6,39
7.05,0.75,48
7.05,0.9,54
7.05,1.05,57
7.05,1.2,59
7.05,1.35,60
7.05,1.5,69
7.2,-1.5,41
7.2,-1.35,41
7.2,-1.2,56
7.2,-1.05,55
7.2,-0.9,55
7.2,-0.75,40
7.2,-0.6,55
7.2,-0.45,64
7.2,-0.3,38
7.2,-0.15,102
7.2,0.0,19
7.2,0.15,62
7.2,0.3,83
7.2,0.45,53
7.2,0.6,18
7.2,0.75,49
7.2,0.9,62
7.2,1.05,66
7.2,1.2,69
7.2,1.35,70
7.2,1.5,70
7.35,-1.5,60
7.35,-1.35,60
7.35,-1.2,59
7.35,-1.05,63
7.35,-0.9,54
7.35,-0.75,36
7.35,-0.6,24
7.35,-0.45,56
7.35,-0.3,56
7.35,-0.15,94
7.35,0.0,207
7.35,0.15,64
7.35,0.3,192
7.35,0.45,79
7.35,0.6,63
7.35,0.75,65
7.35,0.9,69
7.35,1.05,71
7.35,1.2,72
7.35,1.35,69
7.35,1.5,69
7.5,-1.5,63
7.5,-1.35,61
7.5,-1.2,63
7.5,-1.05,62
7.5,-0.9,62
7.5,-0.75,54
7.5,-0.6,125
7.5,-0.45,34
7.5,-0.3,32
7.5,-0.15,45
7.5,0.0,5
7.5,0.15,34
7.5,0.3,82
7.5,0.45,89
7.5,0.6,78
7.5,0.75,74
7.5,0.9,72
7.5,1.05,72
7.5,1.2,71
7.5,1.35,71
7.5,1.5,71
7.65,-1.5,80
7.65,-1.35,82
7.65,-1.2,90
7.65,-1.05,99
7.65,-0.9,95
7.65,-0.75,87
7.65,-0.6,62
7.65,-0.45,17
7.65,-0.3,102
7.65,-0.15,178
7.65,0.0,60
7.65,0.15,49
7.65,0.3,102
7.65,0.45,123
7.65,0.6,107
7.65,0.75,87
7.65,0.9,79
7.65,1.05,76
7.65,1.2,74
7.65,1.35,73
7.65,1.5,72
7.8,-1.5,85
7.8,-1.35,88
7.8,-1.2,98
7.8,-1.05,115
7.8,-0.9,112
7.8,-0.75,64
7.8,-0.6,91
7.8,-0.45,55
7.8,-0.3,39
7.8,-0.15,38
7.8,0.0,18
7.8,0.15,46
7.8,0.3,136
7.8,0.45,146
7.8,0.6,104
7.8,0.75,96
7.8,0.9,90
7.8,1.05,87
7.8,1.2,81
7.8,1.35,79
7.8,1.5,78
7.95,-1.5,85
7.95,-1.35,84
7.95,-1.2,86
7.95,-1.05,92
7.95,-0.9,87
7.95,-0.75,26
7.95,-0.6,76
7.95,-0.45,111
7.95,-0.3,41
7.95,-0.15,62
7.95,0.0,42
7.95,0.15,62
7.95,0.3,70
7.95,0.45,91
7.95,0.6,88
7.95,0.75,93
7.95,0.9,85
7.95,1.05,87
7.95,1.2,85
7.95,1.35,84
7.95,1.5,83
8.1,-1.5,84
8.1,-1.35,85
8.1,-1.2,84
8.1,-1.05,90
8.1,-0.9,80
8.1,-0.75,68
8.1,-0.6,92
8.1,-0.45,54
8.1,-0.3,6
8.1,-0.15,32
8.1,0.0,96
8.1,0.15,66
8.1,0.3,79
8.1,0.45,88
8.1,0.6,94
8.1,0.75,109
8.1,0.9,109
8.1,1.05,85
8.1,1.2,84
8.1,1.35,83
8.1,1.5,97
8.25,-1.5,83
8.25,-1.35,84
8.25,-1.2,92
8.25,-1.05,92
8.25,-0.9,101
8.25,-0.75,93
8.25,-0.6,42
8.25,-0.45,42
8.25,-0.3,34
8.25,-0.15,139
8.25,0.0,255
8.25,0.15,91
8.25,0.3,82
8.25,0.45,94
8.25,0.6,98
8.25,0.75,101
8.25,0.9,84
8.25,1.05,84
8.25,1.2,84
8.25,1.35,84
8.25,1.5,83
8.4,-1.5,74
8.4,-1.35,75
8.4,-1.2,75
8.4,-1.05,86
8.4,-0.9,105
8.4,-0.75,147
8.4,-0.6,114
8.4,-0.45,73
8.4,-0.3,53
8.4,-0.15,64
8.4,0.0,65
8.4,0.15,0
8.4,0.3,124
8.4,0.45,87
8.4,0.6,87
8.4,0.75,98
8.4,0.9,84
8.4,1.05,84
8.4,1.2,84
8.4,1.35,97
8.4,1.5,98
8.55,-1.5,72
8.55,-1.35,85
8.55,-1.2,86
8.55,-1.05,88
8.55,-0.9,94
8.55,-0.75,103
8.55,-0.6,92
8.55,-0.45,49
8.55,-0.3,1
8.55,-0.15,44
8.55,0.0,33
8.55,0.15,46
8.55,0.3,64
8.55,0.45,77
8.55,0.6,77
8.55,0.75,88
8.55,0.9,88
8.55,1.05,88
8.55,1.2,97
8.55,1.35,98
8.55,1.5,98
8.7,-1.5,64
8.7,-1.35,60
8.7,-1.2,64
8.7,-1.05,63
8.7,-0.9,60
8.7,-0.75,46
8.7,-0.6,2
8.7,-0.45,65
8.7,-0.3,86
8.7,-0.15,63
8.7,0.0,51
8.7,0.15,70
8.7,0.3,164
8.7,0.45,95
8.7,0.6,91
8.7,0.75,89
8.7,0.9,88
8.7,1.05,88
8.7,1.2,88
8.7,1.35,90
8.7,1.5,90
8.85,-1.5,62
8.85,-1.35,61
8.85,-1.2,53
8.85,-1.05,53
8.85,-0.9,56
8.85,-0.75,55
8.85,-0.6,45
8.85,-0.45,68
8.85,-0.3,85
8.85,-0.15,42
8.85,0.0,16
8.85,0.15,44
8.85,0.3,90
8.85,0.45,91
8.85,0.6,94
8.85,0.75,92
8.85,0.9,95
8.85,1.05,111
8.85,1.2,111
8.85,1.35,110
8.85,1.5,110
9.0,-1.5,53
9.0,-1.35,53
9.0,-1.2,53
9.0,-1.05,53
9.0,-0.9,53
9.0,-0.75,50
9.0,-0.6,4
9.0,-0.45,68
9.0,-0.3,61
9.0,-0.15,35
9.0,0.0,10
9.0,0.15,45
9.0,0.3,100
9.0,0.45,119
9.0,0.6,121
9.0,0.75,119
9.0,0.9,118
9.0,1.05,125
9.0,1.2,125
9.0,1.35,125
9.0,1.5,125
9.15,-1.5,59
9.15,-1.35,60
9.15,-1.2,57
9.15,-1.05,58
9.15,-0.9,69
9.15,-0.75,79
9.15,-0.6,66
9.15,-0.45,44
9.15,-0.3,56
9.15,-0.15,42
9.15,0.0,145
9.15,0.15,51
9.15,0.3,247
9.15,0.45,138
9.15,0.6,125
9.15,0.75,125
9.15,0.9,125
9.15,1.05,125
9.15,1.2,125
9.15,1.35,125
9.15,1.5,124
9.3,-1.5,60
9.3,-1.35,61
9.3,-1.2,62
9.3,-1.05,65
9.3,-0.9,71
9.3,-0.75,92
9.3,-0.6,66
9.3,-0.45,63
9.3,-0.3,72
9.3,-0.15,106
9.3,0.0,116
9.3,0.15,145
9.3,0.3,150
9.3,0.45,130
9.3,0.6,127
9.3,0.75,115
9.3,0.9,124
9.3,1.05,124
9.3,1.2,124
9.3,1.35,124
9.3,1.5,124
9.45,-1.5,110
9.45,-1.35,85
9.45,-1.2,80
9.45,-1.05,66
9.45,-0.9,63
9.45,-0.75,63
9.45,-0.6,58
9.45,-0.45,49
9.45,-0.3,217
9.45,-0.15,172
9.45,0.0,129
9.45,0.15,169
9.45,0.3,115
9.45,0.45,98
9.45,0.6,115
9.45,0.75,119
9.45,0.9,121
9.45,1.05,124
9.45,1.2,124
9.45,1.35,124
9.45,1.5,124
9.6,-1.5,124
9.6,-1.35,104
9.6,-1.2,102
9.6,-1.05,104
9.6,-0.9,91
9.6,-0.75,70
9.6,-0.6,28
9.6,-0.45,211
9.6,-0.3,72
9.6,-0.15,15
9.6,0.0,213
9.6,0.15,108
9.6,0.3,98
9.6,0.45,103
9.6,0.6,116
9.6,0.75,111
9.6,0.9,114
9.6,1.05,115
9.6,1.2,121
9.6,1.35,121
9.6,1.5,122
9.75,-1.5,112
9.75,-1.35,115
9.75,-1.2,126
9.75,-1.05,127
9.75,-0.9,127
9.75,-0.75,107
9.75,-0.6,73
9.75,-0.45,64
9.75,-0.3,106
9.75,-0.15,67
9.75,0.0,112
9.75,0.15,117
9.75,0.3,91
9.75,0.45,89
9.75,0.6,103
9.75,0.75,113
9.75,0.9,118
9.75,1.05,121
9.75,1.2,118
9.75,1.35,120
9.75,1.5,139
9.9,-1.5,130
9.9,-1.35,132
9.9,-1.2,126
9.9,-1.05,138
9.9,-0.9,161
9.9,-0.75,220
9.9,-0.6,100
9.9,-0.45,65
9.9,-0.3,60
9.9,-0.15,74
9.9,0.0,4
9.9,0.15,86
9.9,0.3,88
9.9,0.45,88
9.9,0.6,101
9.9,0.75,107
9.9,0.9,126
9.9,1.05,129
9.9,1.2,150
9.9,1.35,147
9.9,1.5,129
10.05,-1.5,129
10.05,-1.35,138
10.05,-1.2,148
10.05,-1.05,157
10.05,-0.9,173
10.05,-0.75,222
10.05,-0.6,151
10.05,-0.45,88
10.05,-0.3,23
10.05,-0.15,101
10.05,0.0,132
10.05,0.15,155
10.05,0.3,120
10.05,0.45,116
10.05,0.6,117
10.05,0.75,118
10.05,0.9,119
10.05,1.05,119
10.05,1.2,119
10.05,1.35,138
10.05,1.5,139
10.2,-1.5,129
10.2,-1.35,133
10.2,-1.2,123
10.2,-1.05,123
10.2,-0.9,143
10.2,-0.75,134
10.2,-0.6,162
10.2,-0.45,121
10.2,-0.3,97
10.2,-0.15,61
10.2,0.0,95
10.2,0.15,145
10.2,0.3,130
10.2,0.45,137
10.2,0.6,136
10.2,0.75,134
10.2,0.9,132
10.2,1.05,119
10.2,1.2,119
10.2,1.35,119
10.2,1.5,119
10.35,-1.5,118
10.35,-1.35,119
10.35,-1.2,86
10.35,-1.05,33
10.35,-0.9,90
10.35,-0.75,76
10.35,-0.6,103
10.35,-0.45,21
10.35,-0.3,97
10.35,-0.15,175
10.35,0.0,114
10.35,0.15,158
10.35,0.3,149
10.35,0.45,149
10.35,0.6,140
10.35,0.75,136
10.35,0.9,134
10.35,1.05,133
10.35,1.2,128
10.35,1.35,127
10.35,1.5,122
10.5,-1.5,87
10.5,-1.35,87
10.5,-1.2,81
10.5,-1.05,78
10.5,-0.9,121
10.5,-0.75,76
10.5,-0.6,76
10.5,-0.45,108
10.5,-0.3,135
10.5,-0.15,222
10.5,0.0,180
10.5,0.15,195
10.5,0.3,144
10.5,0.45,132
10.5,0.6,128
10.5,0.75,123
10.5,0.9,122
10.5,1.05,121
10.5,1.2,120
10.5,1.35,120
10.5,1.5,120
10.65,-1.5,88
10.65,-1.35,94
10.65,-1.2,107
10.65,-1.05,181
10.65,-0.9,159
10.65,-0.75,77
10.65,-0.6,97
10.65,-0.45,63
10.65,-0.3,170
10.65,-0.15,156
10.65,0.0,102
10.65,0.15,151
10.65,0.3,96
10.65,0.45,96
10.65,0.6,97
10.65,0.75,102
10.65,0.9,99
10.65,1.05,99
10.65,1.2,99
10.65,1.35,99
10.65,1.5,99
10.8,-1.5,93
10.8,-1.35,98
10.8,-1.2,108
10.8,-1.05,119
10.8,-0.9,100
10.8,-0.75,71
10.8,-0.6,61
10.8,-0.45,88
10.8,-0.3,251
10.8,-0.15,108
10.8,0.0,77
10.8,0.15,60
10.8,0.3,59
10.8,0.45,66
10.8,0.6,84
10.8,0.75,90
10.8,0.9,94
10.8,1.05,97
10.8,1.2,94
10.8,1.35,95
10.8,1.5,96
10.95,-1.5,92
10.95,-1.35,92
10.95,-1.2,92
10.95,-1.05,83
10.95,-0.9,79
10.95,-0.75,78
10.95,-0.6,95
10.95,-0.45,117
10.95,-0.3,123
10.95,-0.15,115
10.95,0.0,71
10.95,0.15,41
10.95,0.3,34
10.95,0.45,47
10.95,0.6,59
10.95,0.75,63
10.95,0.9,55
10.95,1.05,65
10.95,1.2,66
10.95,1.35,90
10.95,1.5,92
11.1,-1.5,101
11.1,-1.35,98
11.1,-1.2,86
11.1,-1.05,59
11.1,-0.9,26
11.1,-0.75,102
11.1,-0.6,132
11.1,-0.45,80
11.1,-0.3,112
11.1,-0.15,99
11.1,0.0,74
11.1,0.15,16
11.1,0.3,16
11.1,0.45,31
11.1,0.6,46
11.1,0.75,51
11.1,0.9,55
11.1,1.05,58
11.1,1.2,59
11.1,1.35,70
11.1,1.5,71
11.25,-1.5,122
11.25,-1.35,120
11.25,-1.2,108
11.25,-1.05,74
11.25,-0.9,41
11.25,-0.75,86
11.25,-0.6,70
11.25,-0.45,104
11.25,-0.3,79
11.25,-0.15,84
11.25,0.0,60
11.25,0.15,32
11.25,0.3,10
11.25,0.45,33
11.25,0.6,45
11.25,0.75,52
11.25,0.9,56
11.25,1.05,59
11.25,1.2,61
11.25,1.35,71
11.25,1.5,71
11.4,-1.5,122
11.4,-1.35,112
11.4,-1.2,110
11.4,-1.05,104
11.4,-0.9,95
11.4,-0.75,75
11.4,-0.6,67
11.4,-0.45,104
11.4,-0.3,79
11.4,-0.15,85
11.4,0.0,85
11.4,0.15,30
11.4,0.3,33
11.4,0.45,44
11.4,0.6,54
11.4,0.75,58
11.4,0.9,61
11.4,1.05,63
11.4,1.2,64
11.4,1.35,65
11.4,1.5,62
11.55,-1.5,119
11.55,-1.35,122
11.55,-1.2,126
11.55,-1.05,132
11.55,-0.9,123
11.55,-0.75,78
11.55,-0.6,10
11.55,-0.45,20
11.55,-0.3,79
11.55,-0.15,83
11.55,0.0,111
11.55,0.15,54
11.55,0.3,56
11.55,0.45,66
11.55,0.6,68
11.55,0.75,68
11.55,0.9,68
11.55,1.05,68
11.55,1.2,67
11.55,1.35,63
11.55,1.5,62
11.7,-1.5,106
11.7,-1.35,113
11.7,-1.2,131
11.7,-1.05,138
11.7,-0.9,231
11.7,-0.75,102
11.7,-0.6,37
11.7,-0.45,53
11.7,-0.3,77
11.7,-0.15,88
11.7,0.0,110
11.7,0.15,143
11.7,0.3,132
11.7,0.45,105
11.7,0.6,87
11.7,0.75,79
11.7,0.9,75
11.7,1.05,73
11.7,1.2,66
11.7,1.35,64
11.7,1.5,62
11.85,-1.5,106
11.85,-1.35,121
11.85,-1.2,137
11.85,-1.05,107
11.85,-0.9,200
11.85,-0.75,239
11.85,-0.6,137
11.85,-0.45,255
11.85,-0.3,101
11.85,-0.15,111
11.85,0.0,154
11.85,0.15,255
11.85,0.3,195
11.85,0.45,129
11.85,0.6,105
11.85,0.75,89
11.85,0.9,78
11.85,1.05,69
11.85,1.2,68
11.85,1.35,65
11.85,1.5,62
12.0,-1.5,104
12.0,-1.35,124
12.0,-1.2,127
12.0,-1.05,143
12.0,-0.9,162
12.0,-0.75,133
12.0,-0.6,63
12.0,-0.45,112
12.0,-0.3,66
12.0,-0.15,100
12.0,0.0,144
12.0,0.15,184
12.0,0.3,174
12.0,0.45,129
12.0,0.6,101
12.0,0.75,89
12.0,0.9,80
12.0,1.05,70
12.0,1.2,64
12.0,1.35,60
12.0,1.5,56
12.15,-1.5,95
12.15,-1.35,100
12.15,-1.2,100
12.15,-1.05,95
12.15,-0.9,109
12.15,-0.75,92
12.15,-0.6,69
12.15,-0.45,37
12.15,-0.3,74
12.15,-0.15,91
12.15,0.0,112
12.15,0.15,122
12.15,0.3,111
12.15,0.45,104
12.15,0.6,96
12.15,0.75,89
12.15,0.9,78
12.15,1.05,72
12.15,1.2,66
12.15,1.35,57
12.15,1.5,53
12.3,-1.5,80
12.3,-1.35,78
12.3,-1.2,74
12.3,-1.05,54
12.3,-0.9,42
12.3,-0.75,72
12.3,-0.6,76
12.3,-0.45,51
12.3,-0.3,62
12.3,-0.15,69
12.3,0.0,85
12.3,0.15,90
12.3,0.3,80
12.3,0.45,85
12.3,0.6,85
12.3,0.75,82
12.3,0.9,77
12.3,1.05,71
12.3,1.2,64
12.3,1.35,55
12.3,1.5,50
12.45,-1.5,65
12.45,-1.35,62
12.45,-1.2,42
12.45,-1.05,25
12.45,-0.9,0
12.45,-0.75,50
12.45,-0.6,76
12.45,-0.45,61
12.45,-0.3,62
12.45,-0.15,61
12.45,0.0,67
12.45,0.15,68
12.45,0.3,69
12.45,0.45,74
12.45,0.6,76
12.45,0.75,75
12.45,0.9,71
12.45,1.05,64
12.45,1.2,56
12.45,1.35,48
12.45,1.5,43
12.6,-1.5,50
12.6,-1.35,40
12.6,-1.2,27
12.6,-1.05,23
12.6,-0.9,21
12.6,-0.75,12
12.6,-0.6,25
12.6,-0.45,53
12.6,-0.3,61
12.6,-0.15,63
12.6,0.0,65
12.6,0.15,65
12.6,0.3,65
12.6,0.45,70
12.6,0.6,68
12.6,0.75,67
12.6,0.9,65
12.6,1.05,57
12.6,1.2,46
12.6,1.35,35
12.6,1.5,28
12.75,-1.5,23
12.75,-1.35,21
12.75,-1.2,26
12.75,-1.05,27
12.75,-0.9,21
12.75,-0.75,37
12.75,-0.6,37
12.75,-0.45,52
12.75,-0.3,62
12.75,-0.15,62
12.75,0.0,61
12.75,0.15,66
12.75,0.3,67
12.75,0.45,69
12.75,0.6,70
12.75,0.75,63
12.75,0.9,57
12.75,1.05,48
12.75,1.2,33
12.75,1.35,19
12.75,1.5,12
12.9,-1.5,1
12.9,-1.35,11
12.9,-1.2,26
12.9,-1.05,32
12.9,-0.9,37
12.9,-0.75,40
12.9,-0.6,43
12.9,-0.45,53
12.9,-0.3,62
12.9,-0.15,62
12.9,0.0,60
12.9,0.15,61
12.9,0.3,67
12.9,0.45,64
12.9,0.6,63
12.9,0.75,60
12.9,0.9,52
12.9,1.05,39
12.9,1.2,23
12.9,1.35,6
12.9,1.5,0
13.05,-1.5,0
13.05,-1.35,8
13.05,-1.2,24
13.05,-1.05,33
13.05,-0.9,37
13.05,-0.75,41
13.05,-0.6,45
13.05,-0.45,52
13.05,-0.3,59
13.05,-0.15,60
13.05,0.0,60
13.05,0.15,60
13.05,0.3,60
13.05,0.45,62
13.05,0.6,61
13.05,0.75,57
13.05,0.9,49
13.05,1.05,36
13.05,1.2,19
13.05,1.35,3
13.05,1.5,0
