-3.0,-1.5,0
-3.0,-1.35,0
-3.0,-1.2,5
-3.0,-1.05,16
-3.0,-0.9,29
-3.0,-0.75,40
-3.0,-0.6,51
-3.0,-0.45,59
-3.0,-0.3,66
-3.0,-0.15,71
-3.0,0.0,75
-3.0,0.15,77
-3.0,0.3,78
-3.0,0.45,77
-3.0,0.6,73
-3.0,0.75,66
-3.0,0.9,54
-3.0,1.05,38
-3.0,1.2,18
-3.0,1.35,2
-3.0,1.5,0
-2.85,-1.5,0
-2.85,-1.35,1
-2.85,-1.2,8
-2.85,-1.05,19
-2.85,-0.9,32
-2.85,-0.75,44
-2.85,-0.6,54
-2.85,-0.45,62
-2.85,-0.3,69
-2.85,-0.15,75
-2.85,0.0,79
-2.85,0.15,82
-2.85,0.3,83
-2.85,0.45,83
-2.85,0.6,81
-2.85,0.75,75
-2.85,0.9,64
-2.85,1.05,48
-2.85,1.2,28
-2.85,1.35,10
-2.85,1.5,3
-2.7,-1.5,5
-2.7,-1.35,8
-2.7,-1.2,15
-2.7,-1.05,26
-2.7,-0.9,37
-2.7,-0.75,48
-2.7,-0.6,58
-2.7,-0.45,66
-2.7,-0.3,73
-2.7,-0.15,78
-2.7,0.0,83
-2.7,0.15,86
-2.7,0.3,89
-2.7,0.45,90
-2.7,0.6,90
-2.7,0.75,86
-2.7,0.9,78
-2.7,1.05,65
-2.7,1.2,48
-2.7,1.35,32
-2.7,1.5,24
-2.55,-1.5,16
-2.55,-1.35,19
-2.55,-1.2,26
-2.55,-1.05,35
-2.55,-0.9,45
-2.55,-0.75,54
-2.55,-0.6,63
-2.55,-0.45,70
-2.55,-0.3,76
-2.55,-0.15,82
-2.55,0.0,87
-2.55,0.15,91
-2.55,0.3,95
-2.55,0.45,98
-2.55,0.6,100
-2.55,0.75,100
-2.55,0.9,96
-2.55,1.05,88
-2.55,1.2,75
-2.55,1.35,63
-2.55,1.5,54
-2.4,-1.5,27
-2.4,-1.35,31
-2.4,-1.2,36
-2.4,-1.05,44
-2.4,-0.9,52
-2.4,-0.75,60
-2.4,-0.6,67
-2.4,-0.45,74
-2.4,-0.3,80
-2.4,-0.15,85
-2.4,0.0,90
-2.4,0.15,95
-2.4,0.3,100
-2.4,0.45,106
-2.4,0.6,110
-2.4,0.75,114
-2.4,0.9,115
-2.4,1.05,111
-2.4,1.2,103
-2.4,1.35,92
-2.4,1.5,83
-2.25,-1.5,39
-2.25,-1.35,42
-2.25,-1.2,46
-2.25,-1.05,52
-2.25,-0.9,59
-2.25,-0.75,65
-2.25,-0.6,71
-2.25,-0.45,77
-2.25,-0.3,82
-2.25,-0.15,87
-2.25,0.0,93
-2.25,0.15,98
-2.25,0.3,105
-2.25,0.45,112
-2.25,0.6,120
-2.25,0.75,129
-2.25,0.9,135
-2.25,1.05,136
-2.25,1.2,128
-2.25,1.35,117
-2.25,1.5,105
-2.1,-1.5,51
-2.1,-1.35,54
-2.1,-1.2,55
-2.1,-1.05,60
-2.1,-0.9,65
-2.1,-0.75,70
-2.1,-0.6,74
-2.1,-0.45,79
-2.1,-0.3,84
-2.1,-0.15,89
-2.1,0.0,94
-2.1,0.15,100
-2.1,0.3,107
-2.1,0.45,115
-2.1,0.6,127
-2.1,0.75,142
-2.1,0.9,158
-2.1,1.05,163
-2.1,1.2,153
-2.1,1.35,136
-2.1,1.5,121
-1.95,-1.5,59
-1.95,-1.35,61
-1.95,-1.2,64
-1.95,-1.05,68
-1.95,-0.9,72
-1.95,-0.75,73
-1.95,-0.6,77
-1.95,-0.45,81
-1.95,-0.3,85
-1.95,-0.15,90
-1.95,0.0,95
-1.95,0.15,100
-1.95,0.3,107
-1.95,0.45,114
-1.95,0.6,126
-1.95,0.75,150
-1.95,0.9,188
-1.95,1.05,202
-1.95,1.2,176
-1.95,1.35,149
-1.95,1.5,130
-1.8,-1.5,65
-1.8,-1.35,67
-1.8,-1.2,69
-1.8,-1.05,72
-1.8,-0.9,75
-1.8,-0.75,78
-1.8,-0.6,81
-1.8,-0.45,81
-1.8,-0.3,85
-1.8,-0.15,89
-1.8,0.0,94
-1.8,0.15,99
-1.8,0.3,104
-1.8,0.45,109
-1.8,0.6,113
-1.8,0.75,133
-1.8,0.9,222
-1.8,1.05,255
-1.8,1.2,186
-1.8,1.35,149
-1.8,1.5,130
-1.65,-1.5,70
-1.65,-1.35,71
-1.65,-1.2,73
-1.65,-1.05,74
-1.65,-0.9,76
-1.65,-0.75,78
-1.65,-0.6,80
-1.65,-0.45,83
-1.65,-0.3,86
-1.65,-0.15,97
-1.65,0.0,92
-1.65,0.15,103
-1.65,0.3,101
-1.65,0.45,102
-1.65,0.6,94
-1.65,0.75,74
-1.65,0.9,145
-1.65,1.05,180
-1.65,1.2,141
-1.65,1.35,131
-1.65,1.5,123
-1.5,-1.5,73
-1.5,-1.35,74
-1.5,-1.2,75
-1.5,-1.05,76
-1.5,-0.9,77
-1.5,-0.75,78
-1.5,-0.6,79
-1.5,-0.45,81
-1.5,-0.3,83
-1.5,-0.15,96
-1.5,0.0,99
-1.5,0.15,100
-1.5,0.3,99
-1.5,0.45,99
-1.5,0.6,92
-1.5,0.75,81
-1.5,0.9,96
-1.5,1.05,66
-1.5,1.2,91
-1.5,1.35,110
-1.5,1.5,113
-1.35,-1.5,96
-1.35,-1.35,77
-1.35,-1.2,77
-1.35,-1.05,77
-1.35,-0.9,77
-1.35,-0.75,77
-1.35,-0.6,77
-1.35,-0.45,78
-1.35,-0.3,89
-1.35,-0.15,91
-1.35,0.0,94
-1.35,0.15,98
-1.35,0.3,103
-1.35,0.45,107
-1.35,0.6,102
-1.35,0.75,98
-1.35,0.9,95
-1.35,1.05,86
-1.35,1.2,92
-1.35,1.35,102
-1.35,1.5,106
-1.2,-1.5,84
-1.2,-1.35,83
-1.2,-1.2,75
-1.2,-1.05,78
-1.2,-0.9,77
-1.2,-0.75,76
-1.2,-0.6,74
-1.2,-0.45,73
-1.2,-0.3,83
-1.2,-0.15,85
-1.2,0.0,88
-1.2,0.15,94
-1.2,0.3,105
-1.2,0.45,117
-1.2,0.6,117
-1.2,0.75,107
-1.2,0.9,100
-1.2,1.05,96
-1.2,1.2,97
-1.2,1.35,101
-1.2,1.5,101
-1.05,-1.5,88
-1.05,-1.35,87
-1.05,-1.2,86
-1.05,-1.05,64
-1.05,-0.9,77
-1.05,-0.75,74
-1.05,-0.6,71
-1.05,-0.45,68
-1.05,-0.3,76
-1.05,-0.15,76
-1.05,0.0,79
-1.05,0.15,88
-1.05,0.3,104
-1.05,0.45,128
-1.05,0.6,132
-1.05,0.75,111
-1.05,0.9,99
-1.05,1.05,96
-1.05,1.2,96
-1.05,1.35,97
-1.05,1.5,98
-0.9,-1.5,93
-0.9,-1.35,91
-0.9,-1.2,93
-0.9,-1.05,90
-0.9,-0.9,85
-0.9,-0.75,73
-0.9,-0.6,68
-0.9,-0.45,63
-0.9,-0.3,58
-0.9,-0.15,64
-0.9,0.0,66
-0.9,0.15,74
-0.9,0.3,88
-0.9,0.45,110
-0.9,0.6,114
-0.9,0.75,100
-0.9,0.9,92
-0.9,1.05,90
-0.9,1.2,91
-0.9,1.35,92
-0.9,1.5,93
-0.75,-1.5,97
-0.75,-1.35,112
-0.75,-1.2,109
-0.75,-1.05,105
-0.75,-0.9,99
-0.75,-0.75,92
-0.75,-0.6,68
-0.75,-0.45,60
-0.75,-0.3,56
-0.75,-0.15,47
-0.75,0.0,47
-0.75,0.15,54
-0.75,0.3,61
-0.75,0.45,67
-0.75,0.6,71
-0.75,0.75,76
-0.75,0.9,80
-0.75,1.05,83
-0.75,1.2,85
-0.75,1.35,88
-0.75,1.5,92
-0.6,-1.5,118
-0.6,-1.35,116
-0.6,-1.2,114
-0.6,-1.05,110
-0.6,-0.9,104
-0.6,-0.75,96
-0.6,-0.6,85
-0.6,-0.45,61
-0.6,-0.3,49
-0.6,-0.15,29
-0.6,0.0,22
-0.6,0.15,37
-0.6,0.3,36
-0.6,0.45,21
-0.6,0.6,33
-0.6,0.75,50
-0.6,0.9,61
-0.6,1.05,67
-0.6,1.2,85
-0.6,1.35,87
-0.6,1.5,89
-0.45,-1.5,122
-0.45,-1.35,122
-0.45,-1.2,120
-0.45,-1.05,117
-0.45,-0.9,112
-0.45,-0.75,105
-0.45,-0.6,93
-0.45,-0.45,75
-0.45,-0.3,45
-0.45,-0.15,19
-0.45,0.0,0
-0.45,0.15,44
-0.45,0.3,37
-0.45,0.45,0
-0.45,0.6,21
-0.45,0.75,54
-0.45,0.9,69
-0.45,1.05,77
-0.45,1.2,81
-0.45,1.35,86
-0.45,1.5,87
-0.3,-1.5,136
-0.3,-1.35,136
-0.3,-1.2,124
-0.3,-1.05,134
-0.3,-0.9,124
-0.3,-0.75,119
-0.3,-0.6,108
-0.3,-0.45,90
-0.3,-0.3,59
-0.3,-0.15,39
-0.3,0.0,41
-0.3,0.15,63
-0.3,0.3,53
-0.3,0.45,41
-0.3,0.6,50
-0.3,0.75,67
-0.3,0.9,79
-0.3,1.05,85
-0.3,1.2,91
-0.3,1.35,92
-0.3,1.5,92
-0.15,-1.5,141
-0.15,-1.35,143
-0.15,-1.2,144
-0.15,-1.05,146
-0.15,-0.9,147
-0.15,-0.75,139
-0.15,-0.6,132
-0.15,-0.45,116
-0.15,-0.3,94
-0.15,-0.15,74
-0.15,0.0,63
-0.15,0.15,59
-0.15,0.3,60
-0.15,0.45,63
-0.15,0.6,68
-0.15,0.75,78
-0.15,0.9,90
-0.15,1.05,93
-0.15,1.2,93
-0.15,1.35,92
-0.15,1.5,94
0.0,-1.5,154
0.0,-1.35,157
0.0,-1.2,160
0.0,-1.05,165
0.0,-0.9,171
0.0,-0.75,177
0.0,-0.6,175
0.0,-0.45,153
0.0,-0.3,125
0.0,-0.15,100
0.0,0.0,80
0.0,0.15,68
0.0,0.3,65
0.0,0.45,69
0.0,0.6,68
0.0,0.75,98
0.0,0.9,107
0.0,1.05,105
0.0,1.2,101
0.0,1.35,100
0.0,1.5,99
0.15,-1.5,158
0.15,-1.35,162
0.15,-1.2,167
0.15,-1.05,175
0.15,-0.9,187
0.15,-0.75,204
0.15,-0.6,222
0.15,-0.45,212
0.15,-0.3,168
0.15,-0.15,131
0.15,0.0,109
0.15,0.15,74
0.15,0.3,62
0.15,0.45,31
0.15,0.6,100
0.15,0.75,179
0.15,0.9,133
0.15,1.05,109
0.15,1.2,103
0.15,1.35,101
0.15,1.5,100
0.3,-1.5,160
0.3,-1.35,165
0.3,-1.2,172
0.3,-1.05,182
0.3,-0.9,197
0.3,-0.75,224
0.3,-0.6,255
0.3,-0.45,255
0.3,-0.3,190
0.3,-0.15,144
0.3,0.0,114
0.3,0.15,105
0.3,0.3,90
0.3,0.45,58
0.3,0.6,112
0.3,0.75,162
0.3,0.9,92
0.3,1.05,98
0.3,1.2,100
0.3,1.35,108
0.3,1.5,110
0.45,-1.5,149
0.45,-1.35,154
0.45,-1.2,162
0.45,-1.05,183
0.45,-0.9,203
0.45,-0.75,223
0.45,-0.6,248
0.45,-0.45,246
0.45,-0.3,199
0.45,-0.15,150
0.45,0.0,86
0.45,0.15,80
0.45,0.3,118
0.45,0.45,230
0.45,0.6,103
0.45,0.75,66
0.45,0.9,73
0.45,1.05,95
0.45,1.2,112
0.45,1.35,119
0.45,1.5,123
0.6,-1.5,146
0.6,-1.35,152
0.6,-1.2,159
0.6,-1.05,168
0.6,-0.9,191
0.6,-0.75,205
0.6,-0.6,222
0.6,-0.45,219
0.6,-0.3,212
0.6,-0.15,199
0.6,0.0,129
0.6,0.15,73
0.6,0.3,89
0.6,0.45,147
0.6,0.6,119
0.6,0.75,89
0.6,0.9,95
0.6,1.05,107
0.6,1.2,117
0.6,1.35,123
0.6,1.5,119
0.75,-1.5,141
0.75,-1.35,145
0.75,-1.2,151
0.75,-1.05,161
0.75,-0.9,165
0.75,-0.75,172
0.75,-0.6,179
0.75,-0.45,198
0.75,-0.3,247
0.75,-0.15,255
0.75,0.0,246
0.75,0.15,171
0.75,0.3,196
0.75,0.45,201
0.75,0.6,160
0.75,0.75,130
0.75,0.9,122
0.75,1.05,123
0.75,1.2,126
0.75,1.35,119
0.75,1.5,120
0.9,-1.5,138
0.9,-1.35,141
0.9,-1.2,145
0.9,-1.05,150
0.9,-0.9,155
0.9,-0.75,155
0.9,-0.6,161
0.9,-0.45,173
0.9,-0.3,205
0.9,-0.15,255
0.9,0.0,215
0.9,0.15,213
0.9,0.3,229
0.9,0.45,249
0.9,0.6,184
0.9,0.75,162
0.9,0.9,146
0.9,1.05,139
0.9,1.2,136
0.9,1.35,135
0.9,1.5,152
1.05,-1.5,118
1.05,-1.35,119
1.05,-1.2,121
1.05,-1.05,123
1.05,-0.9,139
1.05,-0.75,142
1.05,-0.6,144
1.05,-0.45,146
1.05,-0.3,136
1.05,-0.15,114
1.05,0.0,90
1.05,0.15,135
1.05,0.3,153
1.05,0.45,173
1.05,0.6,197
1.05,0.75,183
1.05,0.9,149
1.05,1.05,164
1.05,1.2,159
1.05,1.35,140
1.05,1.5,138
1.2,-1.5,100
1.2,-1.35,101
1.2,-1.2,106
1.2,-1.05,106
1.2,-0.9,102
1.2,-0.75,101
1.2,-0.6,101
1.2,-0.45,101
1.2,-0.3,97
1.2,-0.15,90
1.2,0.0,110
1.2,0.15,88
1.2,0.3,76
1.2,0.45,171
1.2,0.6,255
1.2,0.75,189
1.2,0.9,154
1.2,1.05,140
1.2,1.2,128
1.2,1.35,138
1.2,1.5,134
1.35,-1.5,92
1.35,-1.35,91
1.35,-1.2,89
1.35,-1.05,88
1.35,-0.9,69
1.35,-0.75,73
1.35,-0.6,72
1.35,-0.45,70
1.35,-0.3,67
1.35,-0.15,49
1.35,0.0,54
1.35,0.15,34
1.35,0.3,0
1.35,0.45,97
1.35,0.6,166
1.35,0.75,151
1.35,0.9,146
1.35,1.05,138
1.35,1.2,132
1.35,1.35,125
1.35,1.5,120
1.5,-1.5,80
1.5,-1.35,77
1.5,-1.2,66
1.5,-1.05,38
1.5,-0.9,38
1.5,-0.75,38
1.5,-0.6,39
1.5,-0.45,43
1.5,-0.3,39
1.5,-0.15,23
1.5,0.0,50
1.5,0.15,44
1.5,0.3,62
1.5,0.45,119
1.5,0.6,97
1.5,0.75,120
1.5,0.9,129
1.5,1.05,119
1.5,1.2,109
1.5,1.35,116
1.5,1.5,112
1.65,-1.5,34
1.65,-1.35,34
1.65,-1.2,33
1.65,-1.05,32
1.65,-0.9,28
1.65,-0.75,32
1.65,-0.6,33
1.65,-0.45,32
1.65,-0.3,33
1.65,-0.15,32
1.65,0.0,46
1.65,0.15,44
1.65,0.3,73
1.65,0.45,173
1.65,0.6,147
1.65,0.75,143
1.65,0.9,129
1.65,1.05,112
1.65,1.2,98
1.65,1.35,93
1.65,1.5,91
1.8,-1.5,34
1.8,-1.35,32
1.8,-1.2,32
1.8,-1.05,31
1.8,-0.9,30
1.8,-0.75,28
1.8,-0.6,28
1.8,-0.45,36
1.8,-0.3,45
1.8,-0.15,37
1.8,0.0,50
1.8,0.15,58
1.8,0.3,68
1.8,0.45,101
1.8,0.6,255
1.8,0.75,180
1.8,0.9,125
1.8,1.05,97
1.8,1.2,78
1.8,1.35,71
1.8,1.5,86
1.95,-1.5,34
1.95,-1.35,34
1.95,-1.2,33
1.95,-1.05,31
1.95,-0.9,28
1.95,-0.75,21
1.95,-0.6,12
1.95,-0.45,19
1.95,-0.3,57
1.95,-0.15,25
1.95,0.0,7
1.95,0.15,57
1.95,0.3,43
1.95,0.45,68
1.95,0.6,121
1.95,0.75,123
1.95,0.9,90
1.95,1.05,64
1.95,1.2,41
1.95,1.35,53
1.95,1.5,70
2.1,-1.5,36
2.1,-1.35,35
2.1,-1.2,34
2.1,-1.05,33
2.1,-0.9,30
2.1,-0.75,25
2.1,-0.6,13
2.1,-0.45,15
2.1,-0.3,34
2.1,-0.15,7
2.1,0.0,4
2.1,0.15,26
2.1,0.3,16
2.1,0.45,62
2.1,0.6,77
2.1,0.75,64
2.1,0.9,55
2.1,1.05,25
2.1,1.2,0
2.1,1.35,28
2.1,1.5,51
2.25,-1.5,46
2.25,-1.35,41
2.25,-1.2,40
2.25,-1.05,39
2.25,-0.9,38
2.25,-0.75,36
2.25,-0.6,32
2.25,-0.45,42
2.25,-0.3,64
2.25,-0.15,49
2.25,0.0,23
2.25,0.15,14
2.25,0.3,22
2.25,0.45,55
2.25,0.6,54
2.25,0.75,3
2.25,0.9,26
2.25,1.05,35
2.25,1.2,20
2.25,1.35,38
2.25,1.5,56
2.4,-1.5,52
2.4,-1.35,51
2.4,-1.2,51
2.4,-1.05,50
2.4,-0.9,50
2.4,-0.75,47
2.4,-0.6,49
2.4,-0.45,51
2.4,-0.3,53
2.4,-0.15,43
2.4,0.0,23
2.4,0.15,4
2.4,0.3,30
2.4,0.45,51
2.4,0.6,63
2.4,0.75,52
2.4,0.9,46
2.4,1.05,48
2.4,1.2,44
2.4,1.35,47
2.4,1.5,61
2.55,-1.5,63
2.55,-1.35,63
2.55,-1.2,58
2.55,-1.05,58
2.55,-0.9,59
2.55,-0.75,60
2.55,-0.6,63
2.55,-0.45,68
2.55,-0.3,71
2.55,-0.15,43
2.55,0.0,39
2.55,0.15,33
2.55,0.3,38
2.55,0.45,30
2.55,0.6,103
2.55,0.75,81
2.55,0.9,70
2.55,1.05,66
2.55,1.2,60
2.55,1.35,60
2.55,1.5,61
2.7,-1.5,65
2.7,-1.35,65
2.7,-1.2,65
2.7,-1.05,66
2.7,-0.9,62
2.7,-0.75,64
2.7,-0.6,70
2.7,-0.45,75
2.7,-0.3,87
2.7,-0.15,75
2.7,0.0,60
2.7,0.15,49
2.7,0.3,30
2.7,0.45,60
2.7,0.6,235
2.7,0.75,120
2.7,0.9,84
2.7,1.05,69
2.7,1.2,70
2.7,1.35,67
2.7,1.5,79
2.85,-1.5,65
2.85,-1.35,65
2.85,-1.2,65
2.85,-1.05,69
2.85,-0.9,74
2.85,-0.75,74
2.85,-0.6,74
2.85,-0.45,72
2.85,-0.3,74
2.85,-0.15,67
2.85,0.0,64
2.85,0.15,50
2.85,0.3,37
2.85,0.45,65
2.85,0.6,92
2.85,0.75,99
2.85,0.9,95
2.85,1.05,88
2.85,1.2,82
2.85,1.35,78
2.85,1.5,83
3.0,-1.5,67
3.0,-1.35,67
3.0,-1.2,68
3.0,-1.05,69
3.0,-0.9,69
3.0,-0.75,70
3.0,-0.6,74
3.0,-0.45,71
3.0,-0.3,66
3.0,-0.15,64
3.0,0.0,79
3.0,0.15,90
3.0,0.3,67
3.0,0.45,60
3.0,0.6,81
3.0,0.75,97
3.0,0.9,103
3.0,1.05,99
3.0,1.2,96
3.0,1.35,92
3.0,1.5,89
3.15,-1.5,61
3.15,-1.35,62
3.15,-1.2,62
3.15,-1.05,63
3.15,-0.9,64
3.15,-0.75,65
3.15,-0.6,67
3.15,-0.45,67
3.15,-0.3,65
3.15,-0.15,62
3.15,0.0,74
3.15,0.15,115
3.15,0.3,65
3.15,0.45,77
3.15,0.6,102
3.15,0.75,115
3.15,0.9,128
3.15,1.05,118
3.15,1.2,123
3.15,1.35,123
3.15,1.5,107
3.3,-1.5,60
3.3,-1.35,60
3.3,-1.2,60
3.3,-1.05,61
3.3,-0.9,58
3.3,-0.75,60
3.3,-0.6,67
3.3,-0.45,76
3.3,-0.3,68
3.3,-0.15,49
3.3,0.0,73
3.3,0.15,255
3.3,0.3,33
3.3,0.45,104
3.3,0.6,103
3.3,0.75,109
3.3,0.9,113
3.3,1.05,113
3.3,1.2,129
3.3,1.35,130
3.3,1.5,135
3.45,-1.5,50
3.45,-1.35,50
3.45,-1.2,50
3.45,-1.05,55
3.45,-0.9,56
3.45,-0.75,58
3.45,-0.6,61
3.45,-0.45,95
3.45,-0.3,92
3.45,-0.15,61
3.45,0.0,41
3.45,0.15,31
3.45,0.3,109
3.45,0.45,162
3.45,0.6,130
3.45,0.75,118
3.45,0.9,121
3.45,1.05,123
3.45,1.2,130
3.45,1.35,126
3.45,1.5,126
3.6,-1.5,49
3.6,-1.35,49
3.6,-1.2,49
3.6,-1.05,49
3.6,-0.9,49
3.6,-0.75,49
3.6,-0.6,51
3.6,-0.45,28
3.6,-0.3,33
3.6,-0.15,40
3.6,0.0,61
3.6,0.15,57
3.6,0.3,75
3.6,0.45,138
3.6,0.6,146
3.6,0.75,117
3.6,0.9,114
3.6,1.05,122
3.6,1.2,126
3.6,1.35,128
3.6,1.5,128
3.75,-1.5,43
3.75,-1.35,43
3.75,-1.2,48
3.75,-1.05,47
3.75,-0.9,46
3.75,-0.75,48
3.75,-0.6,43
3.75,-0.45,31
3.75,-0.3,38
3.75,-0.15,54
3.75,0.0,65
3.75,0.15,36
3.75,0.3,185
3.75,0.45,174
3.75,0.6,150
3.75,0.75,42
3.75,0.9,98
3.75,1.05,120
3.75,1.2,125
3.75,1.35,127
3.75,1.5,128
3.9,-1.5,37
3.9,-1.35,37
3.9,-1.2,42
3.9,-1.05,42
3.9,-0.9,41
3.9,-0.75,41
3.9,-0.6,45
3.9,-0.45,52
3.9,-0.3,44
3.9,-0.15,57
3.9,0.0,70
3.9,0.15,39
3.9,0.3,95
3.9,0.45,122
3.9,0.6,129
3.9,0.75,112
3.9,0.9,116
3.9,1.05,113
3.9,1.2,113
3.9,1.35,113
3.9,1.5,113
4.05,-1.5,36
4.05,-1.35,36
4.05,-1.2,36
4.05,-1.05,36
4.05,-0.9,53
4.05,-0.75,53
4.05,-0.6,50
4.05,-0.45,53
4.05,-0.3,59
4.05,-0.15,4
4.05,0.0,48
4.05,0.15,75
4.05,0.3,132
4.05,0.45,137
4.05,0.6,130
4.05,0.75,124
4.05,0.9,118
4.05,1.05,109
4.05,1.2,113
4.05,1.35,110
4.05,1.5,96
4.2,-1.5,41
4.2,-1.35,41
4.2,-1.2,31
4.2,-1.05,31
4.2,-0.9,50
4.2,-0.75,50
4.2,-0.6,63
4.2,-0.45,63
4.2,-0.3,65
4.2,-0.15,78
4.2,0.0,78
4.2,0.15,128
4.2,0.3,150
4.2,0.45,154
4.2,0.6,138
4.2,0.75,126
4.2,0.9,105
4.2,1.05,96
4.2,1.2,112
4.2,1.35,111
4.2,1.5,111
4.35,-1.5,41
4.35,-1.35,41
4.35,-1.2,36
4.35,-1.05,41
4.35,-0.9,41
4.35,-0.75,41
4.35,-0.6,41
4.35,-0.45,41
4.35,-0.3,51
4.35,-0.15,48
4.35,0.0,37
4.35,0.15,6
4.35,0.3,109
4.35,0.45,118
4.35,0.6,144
4.35,0.75,137
4.35,0.9,137
4.35,1.05,127
4.35,1.2,109
4.35,1.35,111
4.35,1.5,111
4.5,-1.5,62
4.5,-1.35,46
4.5,-1.2,46
4.5,-1.05,46
4.5,-0.9,45
4.5,-0.75,41
4.5,-0.6,49
4.5,-0.45,48
4.5,-0.3,42
4.5,-0.15,59
4.5,0.0,27
4.5,0.15,64
4.5,0.3,109
4.5,0.45,132
4.5,0.6,144
4.5,0.75,114
4.5,0.9,86
4.5,1.05,84
4.5,1.2,102
4.5,1.35,106
4.5,1.5,111
4.65,-1.5,80
4.65,-1.35,79
4.65,-1.2,77
4.65,-1.05,56
4.65,-0.9,55
4.65,-0.75,41
4.65,-0.6,49
4.65,-0.45,38
4.65,-0.3,33
4.65,-0.15,93
4.65,0.0,80
4.65,0.15,66
4.65,0.3,65
4.65,0.45,130
4.65,0.6,151
4.65,0.75,104
4.65,0.9,30
4.65,1.05,54
4.65,1.2,84
4.65,1.35,95
4.65,1.5,106
4.8,-1.5,93
4.8,-1.35,82
4.8,-1.2,81
4.8,-1.05,80
4.8,-0.9,74
4.8,-0.75,72
4.8,-0.6,66
4.8,-0.45,65
4.8,-0.3,47
4.8,-0.15,79
4.8,0.0,209
4.8,0.15,51
4.8,0.3,60
4.8,0.45,135
4.8,0.6,169
4.8,0.75,89
4.8,0.9,28
4.8,1.05,54
4.8,1.2,84
4.8,1.35,88
4.8,1.5,94
4.95,-1.5,101
4.95,-1.35,117
4.95,-1.2,111
4.95,-1.05,111
4.95,-0.9,125
4.95,-0.75,123
4.95,-0.6,96
4.95,-0.45,96
4.95,-0.3,68
4.95,-0.15,22
4.95,0.0,23
4.95,0.15,46
4.95,0.3,71
4.95,0.45,151
4.95,0.6,156
4.95,0.75,93
4.95,0.9,86
4.95,1.05,73
4.95,1.2,75
4.95,1.35,81
4.95,1.5,79
5.1,-1.5,157
5.1,-1.35,183
5.1,-1.2,178
5.1,-1.05,147
5.1,-0.9,143
5.1,-0.75,145
5.1,-0.6,147
5.1,-0.45,147
5.1,-0.3,202
5.1,-0.15,79
5.1,0.0,57
5.1,0.15,32
5.1,0.3,82
5.1,0.45,138
5.1,0.6,169
5.1,0.75,145
5.1,0.9,99
5.1,1.05,85
5.1,1.2,77
5.1,1.35,75
5.1,1.5,75
5.25,-1.5,183
5.25,-1.35,183
5.25,-1.2,183
5.25,-1.05,183
5.25,-0.9,194
5.25,-0.75,190
5.25,-0.6,183
5.25,-0.45,183
5.25,-0.3,168
5.25,-0.15,89
5.25,0.0,56
5.25,0.15,39
5.25,0.3,110
5.25,0.45,35
5.25,0.6,79
5.25,0.75,71
5.25,0.9,68
5.25,1.05,65
5.25,1.2,78
5.25,1.35,77
5.25,1.5,77
5.4,-1.5,156
5.4,-1.35,156
5.4,-1.2,157
5.4,-1.05,158
5.4,-0.9,159
5.4,-0.75,160
5.4,-0.6,162
5.4,-0.45,157
5.4,-0.3,203
5.4,-0.15,74
5.4,0.0,146
5.4,0.15,41
5.4,0.3,40
5.4,0.45,36
5.4,0.6,19
5.4,0.75,13
5.4,0.9,49
5.4,1.05,55
5.4,1.2,61
5.4,1.35,62
5.4,1.5,57
5.55,-1.5,147
5.55,-1.35,148
5.55,-1.2,132
5.55,-1.05,154
5.55,-0.9,135
5.55,-0.75,137
5.55,-0.6,145
5.55,-0.45,153
5.55,-0.3,148
5.55,-0.15,52
5.55,0.0,240
5.55,0.15,96
5.55,0.3,124
5.55,0.45,59
5.55,0.6,38
5.55,0.75,20
5.55,0.9,36
5.55,1.05,41
5.55,1.2,44
5.55,1.35,44
5.55,1.5,46
5.7,-1.5,73
5.7,-1.35,73
5.7,-1.2,68
5.7,-1.05,69
5.7,-0.9,70
5.7,-0.75,77
5.7,-0.6,85
5.7,-0.45,95
5.7,-0.3,78
5.7,-0.15,86
5.7,0.0,52
5.7,0.15,54
5.7,0.3,69
5.7,0.45,55
5.7,0.6,46
5.7,0.75,49
5.7,0.9,49
5.7,1.05,50
5.7,1.2,65
5.7,1.35,69
5.7,1.5,82
5.85,-1.5,80
5.85,-1.35,64
5.85,-1.2,58
5.85,-1.05,57
5.85,-0.9,56
5.85,-0.75,54
5.85,-0.6,48
5.85,-0.45,32
5.85,-0.3,3
5.85,-0.15,108
5.85,0.0,52
5.85,0.15,0
5.85,0.3,2
5.85,0.45,68
5.85,0.6,61
5.85,0.75,51
5.85,0.9,52
5.85,1.05,67
5.85,1.2,71
5.85,1.35,74
5.85,1.5,71
6.0,-1.5,106
6.0,-1.35,79
6.0,-1.2,57
6.0,-1.05,75
6.0,-0.9,72
6.0,-0.75,41
6.0,-0.6,36
6.0,-0.45,28
6.0,-0.3,18
6.0,-0.15,87
6.0,0.0,5
6.0,0.15,80
6.0,0.3,106
6.0,0.45,185
6.0,0.6,17
6.0,0.75,38
6.0,0.9,64
6.0,1.05,71
6.0,1.2,75
6.0,1.35,76
6.0,1.5,76
6.15,-1.5,76
6.15,-1.35,76
6.15,-1.2,76
6.15,-1.05,76
6.15,-0.9,81
6.15,-0.75,76
6.15,-0.6,77
6.15,-0.45,63
6.15,-0.3,72
6.15,-0.15,68
6.15,0.0,80
6.15,0.15,50
6.15,0.3,55
6.15,0.45,54
6.15,0.6,60
6.15,0.75,51
6.15,0.9,75
6.15,1.05,84
6.15,1.2,84
6.15,1.35,93
6.15,1.5,92
6.3,-1.5,76
6.3,-1.35,82
6.3,-1.2,83
6.3,-1.05,85
6.3,-0.9,93
6.3,-0.75,100
6.3,-0.6,106
6.3,-0.45,122
6.3,-0.3,255
6.3,-0.15,58
6.3,0.0,36
6.3,0.15,84
6.3,0.3,98
6.3,0.45,82
6.3,0.6,55
6.3,0.75,99
6.3,0.9,133
6.3,1.05,106
6.3,1.2,93
6.3,1.35,87
6.3,1.5,87
6.45,-1.5,90
6.45,-1.35,90
6.45,-1.2,91
6.45,-1.05,91
6.45,-0.9,89
6.45,-0.75,94
6.45,-0.6,110
6.45,-0.45,116
6.45,-0.3,84
6.45,-0.15,74
6.45,0.0,255
6.45,0.15,117
6.45,0.3,96
6.45,0.45,83
6.45,0.6,33
6.45,0.75,173
6.45,0.9,216
6.45,1.05,128
6.45,1.2,113
6.45,1.35,107
6.45,1.5,90
6.6,-1.5,78
6.6,-1.35,77
6.6,-1.2,76
6.6,-1.05,75
6.6,-0.9,79
6.6,-0.75,79
6.6,-0.6,105
6.6,-0.45,110
6.6,-0.3,117
6.6,-0.15,150
6.6,0.0,81
6.6,0.15,71
6.6,0.3,223
6.6,0.45,66
6.6,0.6,57
6.6,0.75,74
6.6,0.9,122
6.6,1.05,120
6.6,1.2,121
6.6,1.35,128
6.6,1.5,113
6.75,-1.5,78
6.75,-1.35,77
6.75,-1.2,75
6.75,-1.05,74
6.75,-0.9,71
6.75,-0.75,67
6.75,-0.6,80
6.75,-0.45,96
6.75,-0.3,78
6.75,-0.15,66
6.75,0.0,66
6.75,0.15,18
6.75,0.3,107
6.75,0.45,44
6.75,0.6,44
6.75,0.75,78
6.75,0.9,95
6.75,1.05,138
6.75,1.2,145
6.75,1.35,142
6.75,1.5,137
6.9,-1.5,72
6.9,-1.35,71
6.9,-1.2,70
6.9,-1.05,67
6.9,-0.9,64
6.9,-0.75,59
6.9,-0.6,32
6.9,-0.45,38
6.9,-0.3,97
6.9,-0.15,67
6.9,0.0,88
6.9,0.15,88
6.9,0.3,42
6.9,0.45,118
6.9,0.6,170
6.9,0.75,87
6.9,0.9,78
6.9,1.05,232
6.9,1.2,174
6.9,1.35,153
6.9,1.5,145
7.05,-1.5,66
7.05,-1.35,72
7.05,-1.2,72
7.05,-1.05,71
7.05,-0.9,68
7.05,-0.75,60
7.05,-0.6,49
7.05,-0.45,65
7.05,-0.3,97
7.05,-0.15,64
7.05,0.0,58
7.05,0.15,74
7.05,0.3,73
7.05,0.45,107
7.05,0.6,169
7.05,0.75,114
7.05,0.9,131
7.05,1.05,196
7.05,1.2,171
7.05,1.35,168
7.05,1.5,147
7.2,-1.5,40
7.2,-1.35,40
7.2,-1.2,39
7.2,-1.05,39
7.2,-0.9,43
7.2,-0.75,43
7.2,-0.6,45
7.2,-0.45,49
7.2,-0.3,52
7.2,-0.15,113
7.2,0.0,46
7.2,0.15,41
7.2,0.3,14
7.2,0.45,41
7.2,0.6,80
7.2,0.75,73
7.2,0.9,105
7.2,1.05,135
7.2,1.2,140
7.2,1.35,140
7.2,1.5,140
7.35,-1.5,35
7.35,-1.35,34
7.35,-1.2,34
7.35,-1.05,34
7.35,-0.9,30
7.35,-0.75,40
7.35,-0.6,39
7.35,-0.45,46
7.35,-0.3,28
7.35,-0.15,35
7.35,0.0,35
7.35,0.15,77
7.35,0.3,14
7.35,0.45,116
7.35,0.6,65
7.35,0.75,118
7.35,0.9,137
7.35,1.05,138
7.35,1.2,142
7.35,1.35,142
7.35,1.5,142
7.5,-1.5,24
7.5,-1.35,25
7.5,-1.2,25
7.5,-1.05,25
7.5,-0.9,35
7.5,-0.75,39
7.5,-0.6,38
7.5,-0.45,41
7.5,-0.3,47
7.5,-0.15,47
7.5,0.0,52
7.5,0.15,40
7.5,0.3,6
7.5,0.45,77
7.5,0.6,224
7.5,0.75,215
7.5,0.9,153
7.5,1.05,152
7.5,1.2,131
7.5,1.35,131
7.5,1.5,136
7.65,-1.5,19
7.65,-1.35,24
7.65,-1.2,24
7.65,-1.05,24
7.65,-0.9,33
7.65,-0.75,32
7.65,-0.6,27
7.65,-0.45,7
7.65,-0.3,33
7.65,-0.15,29
7.65,0.0,58
7.65,0.15,82
7.65,0.3,50
7.65,0.45,157
7.65,0.6,125
7.65,0.75,156
7.65,0.9,152
7.65,1.05,131
7.65,1.2,140
7.65,1.35,135
7.65,1.5,134
7.8,-1.5,29
7.8,-1.35,29
7.8,-1.2,29
7.8,-1.05,29
7.8,-0.9,29
7.8,-0.75,28
7.8,-0.6,29
7.8,-0.45,21
7.8,-0.3,35
7.8,-0.15,68
7.8,0.0,12
7.8,0.15,19
7.8,0.3,58
7.8,0.45,76
7.8,0.6,72
7.8,0.75,91
7.8,0.9,97
7.8,1.05,83
7.8,1.2,87
7.8,1.35,106
7.8,1.5,108
7.95,-1.5,29
7.95,-1.35,29
7.95,-1.2,23
7.95,-1.05,23
7.95,-0.9,21
7.95,-0.75,21
7.95,-0.6,21
7.95,-0.45,36
7.95,-0.3,26
7.95,-0.15,84
7.95,0.0,39
7.95,0.15,27
7.95,0.3,166
7.95,0.45,132
7.95,0.6,50
7.95,0.75,10
7.95,0.9,35
7.95,1.05,44
7.95,1.2,54
7.95,1.35,42
7.95,1.5,44
8.1,-1.5,29
8.1,-1.35,29
8.1,-1.2,29
8.1,-1.05,28
8.1,-0.9,28
8.1,-0.75,27
8.1,-0.6,26
8.1,-0.45,26
8.1,-0.3,43
8.1,-0.15,18
8.1,0.0,145
8.1,0.15,45
8.1,0.3,56
8.1,0.45,14
8.1,0.6,5
8.1,0.75,1
8.1,0.9,9
8.1,1.05,11
8.1,1.2,13
8.1,1.35,29
8.1,1.5,32
8.25,-1.5,40
8.25,-1.35,45
8.25,-1.2,45
8.25,-1.05,44
8.25,-0.9,43
8.25,-0.75,40
8.25,-0.6,34
8.25,-0.45,32
8.25,-0.3,56
8.25,-0.15,17
8.25,0.0,123
8.25,0.15,187
8.25,0.3,43
8.25,0.45,0
8.25,0.6,0
8.25,0.75,0
8.25,0.9,0
8.25,1.05,0
8.25,1.2,0
8.25,1.35,1
8.25,1.5,1
8.4,-1.5,68
8.4,-1.35,68
8.4,-1.2,66
8.4,-1.05,65
8.4,-0.9,62
8.4,-0.75,39
8.4,-0.6,41
8.4,-0.45,43
8.4,-0.3,90
8.4,-0.15,23
8.4,0.0,71
8.4,0.15,68
8.4,0.3,77
8.4,0.45,41
8.4,0.6,24
8.4,0.75,22
8.4,0.9,21
8.4,1.05,6
8.4,1.2,6
8.4,1.35,6
8.4,1.5,6
8.55,-1.5,71
8.55,-1.35,71
8.55,-1.2,71
8.55,-1.05,75
8.55,-0.9,70
8.55,-0.75,69
8.55,-0.6,65
8.55,-0.45,54
8.55,-0.3,54
8.55,-0.15,51
8.55,0.0,82
8.55,0.15,79
8.55,0.3,140
8.55,0.45,80
8.55,0.6,58
8.55,0.75,54
8.55,0.9,27
8.55,1.05,26
8.55,1.2,26
8.55,1.35,26
8.55,1.5,6
8.7,-1.5,111
8.7,-1.35,116
8.7,-1.2,134
8.7,-1.05,134
8.7,-0.9,134
8.7,-0.75,117
8.7,-0.6,113
8.7,-0.45,80
8.7,-0.3,40
8.7,-0.15,123
8.7,0.0,14
8.7,0.15,26
8.7,0.3,35
8.7,0.45,30
8.7,0.6,31
8.7,0.75,35
8.7,0.9,35
8.7,1.05,32
8.7,1.2,32
8.7,1.35,32
8.7,1.5,27
8.85,-1.5,128
8.85,-1.35,129
8.85,-1.2,130
8.85,-1.05,131
8.85,-0.9,133
8.85,-0.75,135
8.85,-0.6,133
8.85,-0.45,124
8.85,-0.3,186
8.85,-0.15,138
8.85,0.0,58
8.85,0.15,62
8.85,0.3,55
8.85,0.45,40
8.85,0.6,12
8.85,0.75,28
8.85,0.9,37
8.85,1.05,35
8.85,1.2,42
8.85,1.35,33
8.85,1.5,34
9.0,-1.5,150
9.0,-1.35,149
9.0,-1.2,149
9.0,-1.05,148
9.0,-0.9,133
9.0,-0.75,134
9.0,-0.6,141
9.0,-0.45,160
9.0,-0.3,225
9.0,-0.15,114
9.0,0.0,35
9.0,0.15,87
9.0,0.3,47
9.0,0.45,28
9.0,0.6,17
9.0,0.75,30
9.0,0.9,47
9.0,1.05,48
9.0,1.2,60
9.0,1.35,62
9.0,1.5,63
9.15,-1.5,128
9.15,-1.35,101
9.15,-1.2,101
9.15,-1.05,121
9.15,-0.9,119
9.15,-0.75,115
9.15,-0.6,112
9.15,-0.45,93
9.15,-0.3,65
9.15,-0.15,123
9.15,0.0,0
9.15,0.15,56
9.15,0.3,16
9.15,0.45,42
9.15,0.6,62
9.15,0.75,61
9.15,0.9,66
9.15,1.05,67
9.15,1.2,80
9.15,1.35,86
9.15,1.5,86
9.3,-1.5,95
9.3,-1.35,95
9.3,-1.2,115
9.3,-1.05,115
9.3,-0.9,118
9.3,-0.75,98
9.3,-0.6,82
9.3,-0.45,40
9.3,-0.3,119
9.3,-0.15,67
9.3,0.0,34
9.3,0.15,87
9.3,0.3,71
9.3,0.45,171
9.3,0.6,115
9.3,0.75,97
9.3,0.9,96
9.3,1.05,99
9.3,1.2,95
9.3,1.35,103
9.3,1.5,104
9.45,-1.5,95
9.45,-1.35,95
9.45,-1.2,95
9.45,-1.05,95
9.45,-0.9,95
9.45,-0.75,82
9.45,-0.6,97
9.45,-0.45,222
9.45,-0.3,49
9.45,-0.15,62
9.45,0.0,82
9.45,0.15,216
9.45,0.3,255
9.45,0.45,160
9.45,0.6,97
9.45,0.75,103
9.45,0.9,119
9.45,1.05,108
9.45,1.2,110
9.45,1.35,111
9.45,1.5,111
9.6,-1.5,104
9.6,-1.35,119
9.6,-1.2,118
9.6,-1.05,117
9.6,-0.9,103
9.6,-0.75,103
9.6,-0.6,105
9.6,-0.45,102
9.6,-0.3,71
9.6,-0.15,131
9.6,0.0,183
9.6,0.15,164
9.6,0.3,150
9.6,0.45,183
9.6,0.6,145
9.6,0.75,98
9.6,0.9,114
9.6,1.05,125
9.6,1.2,113
9.6,1.35,113
9.6,1.5,117
9.75,-1.5,122
9.75,-1.35,122
9.75,-1.2,122
9.75,-1.05,105
9.75,-0.9,110
9.75,-0.75,138
9.75,-0.6,112
9.75,-0.45,78
9.75,-0.3,193
9.75,-0.15,255
9.75,0.0,189
9.75,0.15,18
9.75,0.3,152
9.75,0.45,145
9.75,0.6,149
9.75,0.75,98
9.75,0.9,113
9.75,1.05,124
9.75,1.2,127
9.75,1.35,129
9.75,1.5,131
9.9,-1.5,130
9.9,-1.35,148
9.9,-1.2,147
9.9,-1.05,145
9.9,-0.9,143
9.9,-0.75,149
9.9,-0.6,148
9.9,-0.45,95
9.9,-0.3,242
9.9,-0.15,247
9.9,0.0,152
9.9,0.15,45
9.9,0.3,5
9.9,0.45,95
9.9,0.6,174
9.9,0.75,134
9.9,0.9,128
9.9,1.05,125
9.9,1.2,124
9.9,1.35,124
9.9,1.5,141
10.05,-1.5,150
10.05,-1.35,150
10.05,-1.2,150
10.05,-1.05,149
10.05,-0.9,149
10.05,-0.75,158
10.05,-0.6,189
10.05,-0.45,236
10.05,-0.3,74
10.05,-0.15,102
10.05,0.0,34
10.05,0.15,33
10.05,0.3,0
10.05,0.45,105
10.05,0.6,168
10.05,0.75,157
10.05,0.9,149
10.05,1.05,132
10.05,1.2,129
10.05,1.35,127
10.05,1.5,127
10.2,-1.5,155
10.2,-1.35,156
10.2,-1.2,156
10.2,-1.05,157
10.2,-0.9,158
10.2,-0.75,148
10.2,-0.6,136
10.2,-0.45,72
10.2,-0.3,66
10.2,-0.15,57
10.2,0.0,23
10.2,0.15,58
10.2,0.3,89
10.2,0.45,163
10.2,0.6,140
10.2,0.75,146
10.2,0.9,142
10.2,1.05,146
10.2,1.2,146
10.2,1.35,146
10.2,1.5,146
10.35,-1.5,160
10.35,-1.35,162
10.35,-1.2,165
10.35,-1.05,169
10.35,-0.9,176
10.35,-0.75,185
10.35,-0.6,165
10.35,-0.45,124
10.35,-0.3,233
10.35,-0.15,69
10.35,0.0,28
10.35,0.15,35
10.35,0.3,208
10.35,0.45,220
10.35,0.6,150
10.35,0.75,138
10.35,0.9,130
10.35,1.05,125
10.35,1.2,138
10.35,1.35,141
10.35,1.5,145
10.5,-1.5,160
10.5,-1.35,160
10.5,-1.2,166
10.5,-1.05,174
10.5,-0.9,190
10.5,-0.75,229
10.5,-0.6,255
10.5,-0.45,186
10.5,-0.3,155
10.5,-0.15,82
10.5,0.0,66
10.5,0.15,67
10.5,0.3,73
10.5,0.45,141
10.5,0.6,133
10.5,0.75,126
10.5,0.9,123
10.5,1.05,124
10.5,1.2,122
10.5,1.35,121
10.5,1.5,133
10.65,-1.5,160
10.65,-1.35,164
10.65,-1.2,171
10.65,-1.05,181
10.65,-0.9,196
10.65,-0.75,218
10.65,-0.6,214
10.65,-0.45,167
10.65,-0.3,129
10.65,-0.15,84
10.65,0.0,124
10.65,0.15,56
10.65,0.3,47
10.65,0.45,39
10.65,0.6,91
10.65,0.75,100
10.65,0.9,111
10.65,1.05,113
10.65,1.2,118
10.65,1.35,118
10.65,1.5,117
10.8,-1.5,173
10.8,-1.35,177
10.8,-1.2,182
10.8,-1.05,190
10.8,-0.9,204
10.8,-0.75,220
10.8,-0.6,233
10.8,-0.45,151
10.8,-0.3,117
10.8,-0.15,74
10.8,0.0,59
10.8,0.15,22
10.8,0.3,53
10.8,0.45,48
10.8,0.6,68
10.8,0.75,83
10.8,0.9,91
10.8,1.05,94
10.8,1.2,110
10.8,1.35,112
10.8,1.5,113
10.95,-1.5,167
10.95,-1.35,170
10.95,-1.2,174
10.95,-1.05,167
10.95,-0.9,184
10.95,-0.75,223
10.95,-0.6,245
10.95,-0.45,136
10.95,-0.3,113
10.95,-0.15,10
10.95,0.0,44
10.95,0.15,43
10.95,0.3,40
10.95,0.45,45
10.95,0.6,55
10.95,0.75,63
10.95,0.9,81
10.95,1.05,86
10.95,1.2,89
10.95,1.35,105
10.95,1.5,107
11.1,-1.5,143
11.1,-1.35,146
11.1,-1.2,151
11.1,-1.05,157
11.1,-0.9,164
11.1,-0.75,181
11.1,-0.6,162
11.1,-0.45,95
11.1,-0.3,2
11.1,-0.15,35
11.1,0.0,48
11.1,0.15,57
11.1,0.3,26
11.1,0.45,36
11.1,0.6,47
11.1,0.75,59
11.1,0.9,64
11.1,1.05,68
11.1,1.2,84
11.1,1.35,87
11.1,1.5,89
11.25,-1.5,146
11.25,-1.35,137
11.25,-1.2,154
11.25,-1.05,154
11.25,-0.9,145
11.25,-0.75,140
11.25,-0.6,124
11.25,-0.45,89
11.25,-0.3,58
11.25,-0.15,63
11.25,0.0,67
11.25,0.15,56
11.25,0.3,29
11.25,0.45,50
11.25,0.6,54
11.25,0.75,54
11.25,0.9,56
11.25,1.05,78
11.25,1.2,81
11.25,1.35,83
11.25,1.5,86
11.4,-1.5,136
11.4,-1.35,136
11.4,-1.2,148
11.4,-1.05,147
11.4,-0.9,144
11.4,-0.75,134
11.4,-0.6,129
11.4,-0.45,131
11.4,-0.3,80
11.4,-0.15,74
11.4,0.0,142
11.4,0.15,116
11.4,0.3,68
11.4,0.45,65
11.4,0.6,63
11.4,0.75,61
11.4,0.9,57
11.4,1.05,55
11.4,1.2,54
11.4,1.35,79
11.4,1.5,85
11.55,-1.5,133
11.55,-1.35,133
11.55,-1.2,133
11.55,-1.05,133
11.55,-0.9,133
11.55,-0.75,138
11.55,-0.6,157
11.55,-0.45,233
11.55,-0.3,94
11.55,-0.15,57
11.55,0.0,183
11.55,0.15,148
11.55,0.3,77
11.55,0.45,67
11.55,0.6,66
11.55,0.75,64
11.55,0.9,63
11.55,1.05,61
11.55,1.2,57
11.55,1.35,54
11.55,1.5,54
11.7,-1.5,133
11.7,-1.35,122
11.7,-1.2,138
11.7,-1.05,138
11.7,-0.9,138
11.7,-0.75,137
11.7,-0.6,149
11.7,-0.45,167
11.7,-0.3,114
11.7,-0.15,62
11.7,0.0,26
11.7,0.15,88
11.7,0.3,83
11.7,0.45,75
11.7,0.6,73
11.7,0.75,65
11.7,0.9,60
11.7,1.05,62
11.7,1.2,57
11.7,1.35,55
11.7,1.5,54
11.85,-1.5,112
11.85,-1.35,107
11.85,-1.2,115
11.85,-1.05,121
11.85,-0.9,122
11.85,-0.75,124
11.85,-0.6,125
11.85,-0.45,118
11.85,-0.3,94
11.85,-0.15,72
11.85,0.0,65
11.85,0.15,72
11.85,0.3,75
11.85,0.45,67
11.85,0.6,65
11.85,0.75,64
11.85,0.9,60
11.85,1.05,58
11.85,1.2,56
11.85,1.35,49
11.85,1.5,47
12.0,-1.5,103
12.0,-1.35,108
12.0,-1.2,113
12.0,-1.05,109
12.0,-0.9,122
12.0,-0.75,128
12.0,-0.6,124
12.0,-0.45,111
12.0,-0.3,91
12.0,-0.15,75
12.0,0.0,69
12.0,0.15,73
12.0,0.3,73
12.0,0.45,64
12.0,0.6,58
12.0,0.75,58
12.0,0.9,57
12.0,1.05,54
12.0,1.2,52
12.0,1.35,50
12.0,1.5,44
12.15,-1.5,97
12.15,-1.35,102
12.15,-1.2,109
12.15,-1.05,117
12.15,-0.9,127
12.15,-0.75,141
12.15,-0.6,149
12.15,-0.45,128
12.15,-0.3,81
12.15,-0.15,61
12.15,0.0,33
12.15,0.15,55
12.15,0.3,62
12.15,0.45,57
12.15,0.6,57
12.15,0.75,57
12.15,0.9,56
12.15,1.05,50
12.15,1.2,47
12.15,1.35,45
12.15,1.5,43
12.3,-1.5,87
12.3,-1.35,94
12.3,-1.2,104
12.3,-1.05,116
12.3,-0.9,131
12.3,-0.75,157
12.3,-0.6,208
12.3,-0.45,214
12.3,-0.3,94
12.3,-0.15,61
12.3,0.0,22
12.3,0.15,46
12.3,0.3,59
12.3,0.45,62
12.3,0.6,62
12.3,0.75,52
12.3,0.9,50
12.3,1.05,48
12.3,1.2,45
12.3,1.35,42
12.3,1.5,36
12.45,-1.5,72
12.45,-1.35,82
12.45,-1.2,95
12.45,-1.05,110
12.45,-0.9,127
12.45,-0.75,153
12.45,-0.6,200
12.45,-0.45,196
12.45,-0.3,135
12.45,-0.15,80
12.45,0.0,62
12.45,0.15,56
12.45,0.3,58
12.45,0.45,58
12.45,0.6,45
12.45,0.75,44
12.45,0.9,44
12.45,1.05,41
12.45,1.2,38
12.45,1.35,34
12.45,1.5,25
12.6,-1.5,51
12.6,-1.35,63
12.6,-1.2,80
12.6,-1.05,91
12.6,-0.9,107
12.6,-0.75,123
12.6,-0.6,130
12.6,-0.45,106
12.6,-0.3,60
12.6,-0.15,61
12.6,0.0,64
12.6,0.15,57
12.6,0.3,51
12.6,0.45,45
12.6,0.6,36
12.6,0.75,36
12.6,0.9,36
12.6,1.05,34
12.6,1.2,29
12.6,1.35,23
12.6,1.5,19
12.75,-1.5,21
12.75,-1.35,32
12.75,-1.2,55
12.75,-1.05,77
12.75,-0.9,92
12.75,-0.75,99
12.75,-0.6,93
12.75,-0.45,61
12.75,-0.3,7
12.75,-0.15,33
12.75,0.0,56
12.75,0.15,50
12.75,0.3,36
12.75,0.45,24
12.75,0.6,27
12.75,0.75,28
12.75,0.9,30
12.75,1.05,27
12.75,1.2,20
12.75,1.35,11
12.75,1.5,7
12.9,-1.5,0
12.9,-1.35,12
12.9,-1.2,38
12.9,-1.05,63
12.9,-0.9,79
12.9,-0.75,84
12.9,-0.6,78
12.9,-0.45,61
12.9,-0.3,43
12.9,-0.15,44
12.9,0.0,53
12.9,0.15,40
12.9,0.3,15
12.9,0.45,0
12.9,0.6,10
12.9,0.75,21
12.9,0.9,26
12.9,1.05,23
12.9,1.2,13
12.9,1.35,2
12.9,1.5,0
13.05,-1.5,0
13.05,-1.35,7
13.05,-1.2,32
13.05,-1.05,55
13.05,-0.9,69
13.05,-0.75,74
13.05,-0.6,72
13.05,-0.45,64
13.05,-0.3,56
13.05,-0.15,53
13.05,0.0,48
13.05,0.15,36
13.05,0.3,13
13.05,0.45,0
13.05,0.6,9
13.05,0.75,19
13.05,0.9,24
13.05,1.05,21
13.05,1.2,11
13.05,1.35,0
13.05,1.5,0
