-3.0,-1.5,0
-3.0,-1.35,2
-3.0,-1.2,12
-3.0,-1.05,27
-3.0,-0.9,42
-3.0,-0.75,55
-3.0,-0.6,65
-3.0,-0.45,73
-3.0,-0.3,78
-3.0,-0.15,81
-3.0,0.0,82
-3.0,0.15,80
-3.0,0.3,77
-3.0,0.45,71
-3.0,0.6,64
-3.0,0.75,56
-3.0,0.9,46
-3.0,1.05,33
-3.0,1.2,17
-3.0,1.35,3
-3.0,1.5,0
-2.85,-1.5,2
-2.85,-1.35,6
-2.85,-1.2,17
-2.85,-1.05,31
-2.85,-0.9,47
-2.85,-0.75,60
-2.85,-0.6,70
-2.85,-0.45,78
-2.85,-0.3,83
-2.85,-0.15,86
-2.85,0.0,86
-2.85,0.15,84
-2.85,0.3,80
-2.85,0.45,73
-2.85,0.6,65
-2.85,0.75,57
-2.85,0.9,49
-2.85,1.05,37
-2.85,1.2,23
-2.85,1.35,9
-2.85,1.5,3
-2.7,-1.5,12
-2.7,-1.35,17
-2.7,-1.2,27
-2.7,-1.05,41
-2.7,-0.9,54
-2.7,-0.75,66
-2.7,-0.6,76
-2.7,-0.45,83
-2.7,-0.3,88
-2.7,-0.15,91
-2.7,0.0,92
-2.7,0.15,89
-2.7,0.3,84
-2.7,0.45,75
-2.7,0.6,64
-2.7,0.75,55
-2.7,0.9,49
-2.7,1.05,43
-2.7,1.2,34
-2.7,1.35,24
-2.7,1.5,18
-2.55,-1.5,27
-2.55,-1.35,32
-2.55,-1.2,41
-2.55,-1.05,52
-2.55,-0.9,64
-2.55,-0.75,74
-2.55,-0.6,82
-2.55,-0.45,89
-2.55,-0.3,94
-2.55,-0.15,97
-2.55,0.0,98
-2.55,0.15,96
-2.55,0.3,89
-2.55,0.45,76
-2.55,0.6,59
-2.55,0.75,45
-2.55,0.9,42
-2.55,1.05,45
-2.55,1.2,45
-2.55,1.35,40
-2.55,1.5,36
-2.4,-1.5,43
-2.4,-1.35,48
-2.4,-1.2,55
-2.4,-1.05,64
-2.4,-0.9,74
-2.4,-0.75,82
-2.4,-0.6,89
-2.4,-0.45,95
-2.4,-0.3,100
-2.4,-0.15,104
-2.4,0.0,106
-2.4,0.15,106
-2.4,0.3,99
-2.4,0.45,81
-2.4,0.6,50
-2.4,0.75,23
-2.4,0.9,25
-2.4,1.05,41
-2.4,1.2,52
-2.4,1.35,54
-2.4,1.5,52
-2.25,-1.5,57
-2.25,-1.35,62
-2.25,-1.2,68
-2.25,-1.05,75
-2.25,-0.9,82
-2.25,-0.75,89
-2.25,-0.6,95
-2.25,-0.45,100
-2.25,-0.3,105
-2.25,-0.15,110
-2.25,0.0,116
-2.25,0.15,119
-2.25,0.3,118
-2.25,0.45,102
-2.25,0.6,55
-2.25,0.75,2
-2.25,0.9,11
-2.25,1.05,42
-2.25,1.2,60
-2.25,1.35,66
-2.25,1.5,66
-2.1,-1.5,68
-2.1,-1.35,72
-2.1,-1.2,77
-2.1,-1.05,83
-2.1,-0.9,89
-2.1,-0.75,94
-2.1,-0.6,99
-2.1,-0.45,104
-2.1,-0.3,109
-2.1,-0.15,116
-2.1,0.0,124
-2.1,0.15,135
-2.1,0.3,148
-2.1,0.45,154
-2.1,0.6,127
-2.1,0.75,57
-2.1,0.9,46
-2.1,1.05,65
-2.1,1.2,76
-2.1,1.35,79
-2.1,1.5,78
-1.95,-1.5,76
-1.95,-1.35,80
-1.95,-1.2,84
-1.95,-1.05,89
-1.95,-0.9,93
-1.95,-0.75,98
-1.95,-0.6,102
-1.95,-0.45,106
-1.95,-0.3,111
-1.95,-0.15,118
-1.95,0.0,129
-1.95,0.15,147
-1.95,0.3,176
-1.95,0.45,216
-1.95,0.6,245
-1.95,0.75,191
-1.95,0.9,126
-1.95,1.05,104
-1.95,1.2,98
-1.95,1.35,94
-1.95,1.5,90
-1.8,-1.5,82
-1.8,-1.35,85
-1.8,-1.2,89
-1.8,-1.05,93
-1.8,-0.9,96
-1.8,-0.75,100
-1.8,-0.6,102
-1.8,-0.45,105
-1.8,-0.3,109
-1.8,-0.15,116
-1.8,0.0,129
-1.8,0.15,149
-1.8,0.3,184
-1.8,0.45,232
-1.8,0.6,255
-1.8,0.75,230
-1.8,0.9,171
-1.8,1.05,134
-1.8,1.2,116
-1.8,1.35,106
-1.8,1.5,100
-1.65,-1.5,85
-1.65,-1.35,89
-1.65,-1.2,92
-1.65,-1.05,95
-1.65,-0.9,98
-1.65,-0.75,100
-1.65,-0.6,101
-1.65,-0.45,102
-1.65,-0.3,104
-1.65,-0.15,110
-1.65,0.0,123
-1.65,0.15,142
-1.65,0.3,170
-1.65,0.45,204
-1.65,0.6,223
-1.65,0.75,206
-1.65,0.9,173
-1.65,1.05,144
-1.65,1.2,126
-1.65,1.35,115
-1.65,1.5,107
-1.5,-1.5,87
-1.5,-1.35,91
-1.5,-1.2,94
-1.5,-1.05,97
-1.5,-0.9,99
-1.5,-0.75,100
-1.5,-0.6,100
-1.5,-0.45,97
-1.5,-0.3,93
-1.5,-0.15,99
-1.5,0.0,115
-1.5,0.15,133
-1.5,0.3,152
-1.5,0.45,171
-1.5,0.6,181
-1.5,0.75,176
-1.5,0.9,160
-1.5,1.05,143
-1.5,1.2,129
-1.5,1.35,118
-1.5,1.5,111
-1.35,-1.5,88
-1.35,-1.35,91
-1.35,-1.2,94
-1.35,-1.05,97
-1.35,-0.9,99
-1.35,-0.75,100
-1.35,-0.6,99
-1.35,-0.45,92
-1.35,-0.3,77
-1.35,-0.15,83
-1.35,0.0,114
-1.35,0.15,133
-1.35,0.3,142
-1.35,0.45,151
-1.35,0.6,156
-1.35,0.75,154
-1.35,0.9,146
-1.35,1.05,136
-1.35,1.2,127
-1.35,1.35,119
-1.35,1.5,112
-1.2,-1.5,75
-1.2,-1.35,79
-1.2,-1.2,94
-1.2,-1.05,97
-1.2,-0.9,100
-1.2,-0.75,100
-1.2,-0.6,98
-1.2,-0.45,93
-1.2,-0.3,84
-1.2,-0.15,102
-1.2,0.0,141
-1.2,0.15,145
-1.2,0.3,143
-1.2,0.45,143
-1.2,0.6,142
-1.2,0.75,140
-1.2,0.9,135
-1.2,1.05,130
-1.2,1.2,123
-1.2,1.35,117
-1.2,1.5,112
-1.05,-1.5,75
-1.05,-1.35,78
-1.05,-1.2,93
-1.05,-1.05,96
-1.05,-0.9,99
-1.05,-0.75,105
-1.05,-0.6,101
-1.05,-0.45,85
-1.05,-0.3,84
-1.05,-0.15,221
-1.05,0.0,202
-1.05,0.15,165
-1.05,0.3,147
-1.05,0.45,138
-1.05,0.6,134
-1.05,0.75,131
-1.05,0.9,128
-1.05,1.05,123
-1.05,1.2,119
-1.05,1.35,115
-1.05,1.5,111
-0.9,-1.5,86
-0.9,-1.35,88
-0.9,-1.2,91
-0.9,-1.05,94
-0.9,-0.9,98
-0.9,-0.75,106
-0.9,-0.6,105
-0.9,-0.45,100
-0.9,-0.3,121
-0.9,-0.15,238
-0.9,0.0,212
-0.9,0.15,167
-0.9,0.3,144
-0.9,0.45,133
-0.9,0.6,127
-0.9,0.75,124
-0.9,0.9,123
-0.9,1.05,121
-0.9,1.2,115
-0.9,1.35,112
-0.9,1.5,109
-0.75,-1.5,83
-0.75,-1.35,85
-0.75,-1.2,89
-0.75,-1.05,93
-0.75,-0.9,98
-0.75,-0.75,102
-0.75,-0.6,107
-0.75,-0.45,116
-0.75,-0.3,134
-0.75,-0.15,165
-0.75,0.0,166
-0.75,0.15,148
-0.75,0.3,134
-0.75,0.45,125
-0.75,0.6,120
-0.75,0.75,119
-0.75,0.9,117
-0.75,1.05,115
-0.75,1.2,113
-0.75,1.35,112
-0.75,1.5,107
-0.6,-1.5,79
-0.6,-1.35,82
-0.6,-1.2,85
-0.6,-1.05,90
-0.6,-0.9,97
-0.6,-0.75,105
-0.6,-0.6,111
-0.6,-0.45,113
-0.6,-0.3,117
-0.6,-0.15,126
-0.6,0.0,128
-0.6,0.15,124
-0.6,0.3,121
-0.6,0.45,117
-0.6,0.6,114
-0.6,0.75,112
-0.6,0.9,111
-0.6,1.05,110
-0.6,1.2,109
-0.6,1.35,113
-0.6,1.5,103
-0.45,-1.5,75
-0.45,-1.35,77
-0.45,-1.2,80
-0.45,-1.05,85
-0.45,-0.9,95
-0.45,-0.75,111
-0.45,-0.6,126
-0.45,-0.45,116
-0.45,-0.3,103
-0.45,-0.15,102
-0.45,0.0,100
-0.45,0.15,101
-0.45,0.3,107
-0.45,0.45,106
-0.45,0.6,106
-0.45,0.75,105
-0.45,0.9,113
-0.45,1.05,109
-0.45,1.2,113
-0.45,1.35,100
-0.45,1.5,99
-0.3,-1.5,70
-0.3,-1.35,70
-0.3,-1.2,72
-0.3,-1.05,77
-0.3,-0.9,87
-0.3,-0.75,106
-0.3,-0.6,128
-0.3,-0.45,108
-0.3,-0.3,84
-0.3,-0.15,85
-0.3,0.0,91
-0.3,0.15,96
-0.3,0.3,96
-0.3,0.45,100
-0.3,0.6,99
-0.3,0.75,99
-0.3,0.9,113
-0.3,1.05,113
-0.3,1.2,113
-0.3,1.35,109
-0.3,1.5,109
-0.15,-1.5,64
-0.15,-1.35,63
-0.15,-1.2,62
-0.15,-1.05,64
-0.15,-0.9,70
-0.15,-0.75,80
-0.15,-0.6,83
-0.15,-0.45,63
-0.15,-0.3,50
-0.15,-0.15,72
-0.15,0.0,104
-0.15,0.15,109
-0.15,0.3,101
-0.15,0.45,97
-0.15,0.6,97
-0.15,0.75,97
-0.15,0.9,97
-0.15,1.05,97
-0.15,1.2,108
-0.15,1.35,100
-0.15,1.5,109
0.0,-1.5,51
0.0,-1.35,48
0.0,-1.2,45
0.0,-1.05,42
0.0,-0.9,44
0.0,-0.75,50
0.0,-0.6,46
0.0,-0.45,23
0.0,-0.3,4
0.0,-0.15,61
0.0,0.0,123
0.0,0.15,121
0.0,0.3,105
0.0,0.45,101
0.0,0.6,101
0.0,0.75,100
0.0,0.9,100
0.0,1.05,98
0.0,1.2,98
0.0,1.35,98
0.0,1.5,93
0.15,-1.5,48
0.15,-1.35,43
0.15,-1.2,35
0.15,-1.05,24
0.15,-0.9,21
0.15,-0.75,35
0.15,-0.6,37
0.15,-0.45,23
0.15,-0.3,22
0.15,-0.15,63
0.15,0.0,78
0.15,0.15,95
0.15,0.3,93
0.15,0.45,98
0.15,0.6,89
0.15,0.75,83
0.15,0.9,83
0.15,1.05,83
0.15,1.2,83
0.15,1.35,83
0.15,1.5,83
0.3,-1.5,47
0.3,-1.35,41
0.3,-1.2,31
0.3,-1.05,12
0.3,-0.9,0
0.3,-0.75,30
0.3,-0.6,40
0.3,-0.45,20
0.3,-0.3,6
0.3,-0.15,54
0.3,0.0,69
0.3,0.15,81
0.3,0.3,91
0.3,0.45,95
0.3,0.6,84
0.3,0.75,83
0.3,0.9,83
0.3,1.05,83
0.3,1.2,83
0.3,1.35,83
0.3,1.5,83
0.45,-1.5,44
0.45,-1.35,40
0.45,-1.2,34
0.45,-1.05,25
0.45,-0.9,25
0.45,-0.75,48
0.45,-0.6,56
0.45,-0.45,43
0.45,-0.3,43
0.45,-0.15,59
0.45,0.0,76
0.45,0.15,84
0.45,0.3,92
0.45,0.45,84
0.45,0.6,86
0.45,0.75,84
0.45,0.9,83
0.45,1.05,85
0.45,1.2,83
0.45,1.35,83
0.45,1.5,83
0.6,-1.5,44
0.6,-1.35,41
0.6,-1.2,35
0.6,-1.05,29
0.6,-0.9,37
0.6,-0.75,77
0.6,-0.6,91
0.6,-0.45,18
0.6,-0.3,59
0.6,-0.15,77
0.6,0.0,77
0.6,0.15,80
0.6,0.3,86
0.6,0.45,89
0.6,0.6,91
0.6,0.75,88
0.6,0.9,89
0.6,1.05,86
0.6,1.2,84
0.6,1.35,83
0.6,1.5,83
0.75,-1.5,44
0.75,-1.35,41
0.75,-1.2,32
0.75,-1.05,15
0.75,-0.9,4
0.75,-0.75,104
0.75,-0.6,255
0.75,-0.45,98
0.75,-0.3,79
0.75,-0.15,77
0.75,0.0,77
0.75,0.15,79
0.75,0.3,95
0.75,0.45,102
0.75,0.6,96
0.75,0.75,89
0.75,0.9,85
0.75,1.05,82
0.75,1.2,81
0.75,1.35,80
0.75,1.5,80
0.9,-1.5,44
0.9,-1.35,42
0.9,-1.2,37
0.9,-1.05,28
0.9,-0.9,34
0.9,-0.75,98
0.9,-0.6,140
0.9,-0.45,97
0.9,-0.3,83
0.9,-0.15,79
0.9,0.0,117
0.9,0.15,131
0.9,0.3,124
0.9,0.45,107
0.9,0.6,91
0.9,0.75,80
0.9,0.9,75
0.9,1.05,75
0.9,1.2,72
0.9,1.35,73
0.9,1.5,73
1.05,-1.5,46
1.05,-1.35,46
1.05,-1.2,46
1.05,-1.05,47
1.05,-0.9,59
1.05,-0.75,78
1.05,-0.6,91
1.05,-0.45,71
1.05,-0.3,90
1.05,-0.15,112
1.05,0.0,170
1.05,0.15,231
1.05,0.3,147
1.05,0.45,106
1.05,0.6,81
1.05,0.75,65
1.05,0.9,64
1.05,1.05,64
1.05,1.2,67
1.05,1.35,69
1.05,1.5,71
1.2,-1.5,46
1.2,-1.35,51
1.2,-1.2,52
1.2,-1.05,56
1.2,-0.9,61
1.2,-0.75,69
1.2,-0.6,70
1.2,-0.45,88
1.2,-0.3,92
1.2,-0.15,100
1.2,0.0,115
1.2,0.15,178
1.2,0.3,131
1.2,0.45,86
1.2,0.6,56
1.2,0.75,41
1.2,0.9,45
1.2,1.05,52
1.2,1.2,69
1.2,1.35,62
1.2,1.5,64
1.35,-1.5,45
1.35,-1.35,46
1.35,-1.2,49
1.35,-1.05,54
1.35,-0.9,56
1.35,-0.75,60
1.35,-0.6,63
1.35,-0.45,64
1.35,-0.3,71
1.35,-0.15,80
1.35,0.0,101
1.35,0.15,195
1.35,0.3,87
1.35,0.45,53
1.35,0.6,24
1.35,0.75,8
1.35,0.9,35
1.35,1.05,54
1.35,1.2,63
1.35,1.35,58
1.35,1.5,58
1.5,-1.5,42
1.5,-1.35,43
1.5,-1.2,44
1.5,-1.05,49
1.5,-0.9,50
1.5,-0.75,53
1.5,-0.6,51
1.5,-0.45,58
1.5,-0.3,57
1.5,-0.15,51
1.5,0.0,67
1.5,0.15,52
1.5,0.3,52
1.5,0.45,4
1.5,0.6,16
1.5,0.75,13
1.5,0.9,35
1.5,1.05,52
1.5,1.2,58
1.5,1.35,63
1.5,1.5,63
1.65,-1.5,37
1.65,-1.35,37
1.65,-1.2,38
1.65,-1.05,42
1.65,-0.9,38
1.65,-0.75,45
1.65,-0.6,54
1.65,-0.45,50
1.65,-0.3,59
1.65,-0.15,23
1.65,0.0,64
1.65,0.15,62
1.65,0.3,57
1.65,0.45,34
1.65,0.6,32
1.65,0.75,35
1.65,0.9,38
1.65,1.05,42
1.65,1.2,46
1.65,1.35,49
1.65,1.5,52
1.8,-1.5,23
1.8,-1.35,22
1.8,-1.2,23
1.8,-1.05,28
1.8,-0.9,31
1.8,-0.75,38
1.8,-0.6,31
1.8,-0.45,29
1.8,-0.3,59
1.8,-0.15,56
1.8,0.0,64
1.8,0.15,73
1.8,0.3,75
1.8,0.45,64
1.8,0.6,41
1.8,0.75,46
1.8,0.9,46
1.8,1.05,47
1.8,1.2,49
1.8,1.35,51
1.8,1.5,52
1.95,-1.5,20
1.95,-1.35,17
1.95,-1.2,15
1.95,-1.05,16
1.95,-0.9,23
1.95,-0.75,29
1.95,-0.6,29
1.95,-0.45,38
1.95,-0.3,51
1.95,-0.15,64
1.95,0.0,68
1.95,0.15,83
1.95,0.3,74
1.95,0.45,69
1.95,0.6,54
1.95,0.75,46
1.95,0.9,43
1.95,1.05,41
1.95,1.2,41
1.95,1.35,52
1.95,1.5,41
2.1,-1.5,16
2.1,-1.35,13
2.1,-1.2,5
2.1,-1.05,3
2.1,-0.9,13
2.1,-0.75,21
2.1,-0.6,30
2.1,-0.45,33
2.1,-0.3,52
2.1,-0.15,65
2.1,0.0,78
2.1,0.15,139
2.1,0.3,96
2.1,0.45,71
2.1,0.6,55
2.1,0.75,47
2.1,0.9,41
2.1,1.05,41
2.1,1.2,41
2.1,1.35,41
2.1,1.5,41
2.25,-1.5,18
2.25,-1.35,13
2.25,-1.2,4
2.25,-1.05,2
2.25,-0.9,5
2.25,-0.75,10
2.25,-0.6,20
2.25,-0.45,29
2.25,-0.3,20
2.25,-0.15,37
2.25,0.0,80
2.25,0.15,145
2.25,0.3,71
2.25,0.45,39
2.25,0.6,39
2.25,0.75,40
2.25,0.9,41
2.25,1.05,41
2.25,1.2,41
2.25,1.35,41
2.25,1.5,41
2.4,-1.5,24
2.4,-1.35,20
2.4,-1.2,21
2.4,-1.05,17
2.4,-0.9,6
2.4,-0.75,16
2.4,-0.6,28
2.4,-0.45,34
2.4,-0.3,31
2.4,-0.15,50
2.4,0.0,59
2.4,0.15,62
2.4,0.3,33
2.4,0.45,8
2.4,0.6,16
2.4,0.75,31
2.4,0.9,41
2.4,1.05,41
2.4,1.2,41
2.4,1.35,41
2.4,1.5,41
2.55,-1.5,38
2.55,-1.35,39
2.55,-1.2,37
2.55,-1.05,36
2.55,-0.9,36
2.55,-0.75,45
2.55,-0.6,43
2.55,-0.45,11
2.55,-0.3,49
2.55,-0.15,54
2.55,0.0,47
2.55,0.15,38
2.55,0.3,29
2.55,0.45,15
2.55,0.6,21
2.55,0.75,32
2.55,0.9,36
2.55,1.05,39
2.55,1.2,41
2.55,1.35,41
2.55,1.5,41
2.7,-1.5,38
2.7,-1.35,43
2.7,-1.2,43
2.7,-1.05,45
2.7,-0.9,51
2.7,-0.75,50
2.7,-0.6,90
2.7,-0.45,43
2.7,-0.3,71
2.7,-0.15,56
2.7,0.0,27
2.7,0.15,47
2.7,0.3,23
2.7,0.45,23
2.7,0.6,19
2.7,0.75,33
2.7,0.9,36
2.7,1.05,41
2.7,1.2,41
2.7,1.35,41
2.7,1.5,41
2.85,-1.5,38
2.85,-1.35,38
2.85,-1.2,38
2.85,-1.05,41
2.85,-0.9,57
2.85,-0.75,58
2.85,-0.6,62
2.85,-0.45,108
2.85,-0.3,141
2.85,-0.15,75
2.85,0.0,47
2.85,0.15,41
2.85,0.3,26
2.85,0.45,31
2.85,0.6,28
2.85,0.75,24
2.85,0.9,24
2.85,1.05,24
2.85,1.2,41
2.85,1.35,41
2.85,1.5,41
3.0,-1.5,53
3.0,-1.35,54
3.0,-1.2,56
3.0,-1.05,58
3.0,-0.9,78
3.0,-0.75,83
3.0,-0.6,89
3.0,-0.45,106
3.0,-0.3,129
3.0,-0.15,118
3.0,0.0,13
3.0,0.15,52
3.0,0.3,44
3.0,0.45,39
3.0,0.6,50
3.0,0.75,47
3.0,0.9,44
3.0,1.05,44
3.0,1.2,40
3.0,1.35,40
3.0,1.5,40
3.15,-1.5,97
3.15,-1.35,98
3.15,-1.2,111
3.15,-1.05,109
3.15,-0.9,105
3.15,-0.75,100
3.15,-0.6,83
3.15,-0.45,52
3.15,-0.3,50
3.15,-0.15,24
3.15,0.0,42
3.15,0.15,52
3.15,0.3,9
3.15,0.45,46
3.15,0.6,62
3.15,0.75,66
3.15,0.9,58
3.15,1.05,58
3.15,1.2,53
3.15,1.35,79
3.15,1.5,79
3.3,-1.5,119
3.3,-1.35,119
3.3,-1.2,120
3.3,-1.05,121
3.3,-0.9,129
3.3,-0.75,125
3.3,-0.6,111
3.3,-0.45,174
3.3,-0.3,98
3.3,-0.15,72
3.3,0.0,85
3.3,0.15,62
3.3,0.3,77
3.3,0.45,68
3.3,0.6,70
3.3,0.75,61
3.3,0.9,84
3.3,1.05,84
3.3,1.2,84
3.3,1.35,83
3.3,1.5,83
3.45,-1.5,159
3.45,-1.35,160
3.45,-1.2,151
3.45,-1.05,153
3.45,-0.9,153
3.45,-0.75,152
3.45,-0.6,159
3.45,-0.45,134
3.45,-0.3,104
3.45,-0.15,72
3.45,0.0,102
3.45,0.15,150
3.45,0.3,145
3.45,0.45,84
3.45,0.6,83
3.45,0.75,84
3.45,0.9,84
3.45,1.05,80
3.45,1.2,79
3.45,1.35,79
3.45,1.5,79
3.6,-1.5,156
3.6,-1.35,158
3.6,-1.2,160
3.6,-1.05,163
3.6,-0.9,166
3.6,-0.75,181
3.6,-0.6,213
3.6,-0.45,222
3.6,-0.3,143
3.6,-0.15,248
3.6,0.0,90
3.6,0.15,113
3.6,0.3,84
3.6,0.45,95
3.6,0.6,84
3.6,0.75,82
3.6,0.9,81
3.6,1.05,80
3.6,1.2,80
3.6,1.35,80
3.6,1.5,79
3.75,-1.5,142
3.75,-1.35,148
3.75,-1.2,151
3.75,-1.05,155
3.75,-0.9,161
3.75,-0.75,168
3.75,-0.6,166
3.75,-0.45,74
3.75,-0.3,35
3.75,-0.15,178
3.75,0.0,160
3.75,0.15,132
3.75,0.3,19
3.75,0.45,94
3.75,0.6,89
3.75,0.75,86
3.75,0.9,71
3.75,1.05,69
3.75,1.2,67
3.75,1.35,66
3.75,1.5,61
3.9,-1.5,140
3.9,-1.35,141
3.9,-1.2,142
3.9,-1.05,140
3.9,-0.9,143
3.9,-0.75,149
3.9,-0.6,168
3.9,-0.45,102
3.9,-0.3,22
3.9,-0.15,146
3.9,0.0,194
3.9,0.15,125
3.9,0.3,86
3.9,0.45,71
3.9,0.6,87
3.9,0.75,75
3.9,0.9,72
3.9,1.05,69
3.9,1.2,68
3.9,1.35,67
3.9,1.5,66
4.05,-1.5,113
4.05,-1.35,114
4.05,-1.2,116
4.05,-1.05,117
4.05,-0.9,108
4.05,-0.75,105
4.05,-0.6,87
4.05,-0.45,64
4.05,-0.3,61
4.05,-0.15,80
4.05,0.0,53
4.05,0.15,70
4.05,0.3,73
4.05,0.45,85
4.05,0.6,91
4.05,0.75,94
4.05,0.9,83
4.05,1.05,86
4.05,1.2,86
4.05,1.35,85
4.05,1.5,85
4.2,-1.5,103
4.2,-1.35,104
4.2,-1.2,117
4.2,-1.05,108
4.2,-0.9,117
4.2,-0.75,131
4.2,-0.6,53
4.2,-0.45,33
4.2,-0.3,75
4.2,-0.15,81
4.2,0.0,87
4.2,0.15,238
4.2,0.3,156
4.2,0.45,138
4.2,0.6,145
4.2,0.75,143
4.2,0.9,111
4.2,1.05,111
4.2,1.2,110
4.2,1.35,110
4.2,1.5,110
4.35,-1.5,88
4.35,-1.35,89
4.35,-1.2,75
4.35,-1.05,84
4.35,-0.9,101
4.35,-0.75,103
4.35,-0.6,96
4.35,-0.45,19
4.35,-0.3,97
4.35,-0.15,210
4.35,0.0,121
4.35,0.15,135
4.35,0.3,193
4.35,0.45,153
4.35,0.6,153
4.35,0.75,152
4.35,0.9,128
4.35,1.05,127
4.35,1.2,127
4.35,1.35,122
4.35,1.5,122
4.5,-1.5,72
4.5,-1.35,73
4.5,-1.2,74
4.5,-1.05,76
4.5,-0.9,90
4.5,-0.75,80
4.5,-0.6,103
4.5,-0.45,69
4.5,-0.3,57
4.5,-0.15,58
4.5,0.0,40
4.5,0.15,179
4.5,0.3,139
4.5,0.45,141
4.5,0.6,129
4.5,0.75,122
4.5,0.9,120
4.5,1.05,120
4.5,1.2,121
4.5,1.35,121
4.5,1.5,121
4.65,-1.5,83
4.65,-1.35,83
4.65,-1.2,83
4.65,-1.05,83
4.65,-0.9,81
4.65,-0.75,68
4.65,-0.6,34
4.65,-0.45,25
4.65,-0.3,52
4.65,-0.15,36
4.65,0.0,108
4.65,0.15,79
4.65,0.3,82
4.65,0.45,89
4.65,0.6,91
4.65,0.75,82
4.65,0.9,82
4.65,1.05,58
4.65,1.2,72
4.65,1.35,82
4.65,1.5,83
4.8,-1.5,83
4.8,-1.35,83
4.8,-1.2,83
4.8,-1.05,69
4.8,-0.9,79
4.8,-0.75,74
4.8,-0.6,80
4.8,-0.45,150
4.8,-0.3,25
4.8,-0.15,19
4.8,0.0,163
4.8,0.15,66
4.8,0.3,77
4.8,0.45,58
4.8,0.6,58
4.8,0.75,58
4.8,0.9,58
4.8,1.05,58
4.8,1.2,71
4.8,1.35,72
4.8,1.5,72
4.95,-1.5,59
4.95,-1.35,63
4.95,-1.2,61
4.95,-1.05,64
4.95,-0.9,36
4.95,-0.75,41
4.95,-0.6,96
4.95,-0.45,170
4.95,-0.3,255
4.95,-0.15,38
4.95,0.0,29
4.95,0.15,17
4.95,0.3,53
4.95,0.45,59
4.95,0.6,60
4.95,0.75,61
4.95,0.9,81
4.95,1.05,87
4.95,1.2,88
4.95,1.35,83
4.95,1.5,72
5.1,-1.5,42
5.1,-1.35,47
5.1,-1.2,48
5.1,-1.05,50
5.1,-0.9,50
5.1,-0.75,81
5.1,-0.6,46
5.1,-0.45,69
5.1,-0.3,75
5.1,-0.15,81
5.1,0.0,17
5.1,0.15,99
5.1,0.3,71
5.1,0.45,73
5.1,0.6,101
5.1,0.75,97
5.1,0.9,107
5.1,1.05,107
5.1,1.2,107
5.1,1.35,107
5.1,1.5,75
5.25,-1.5,41
5.25,-1.35,42
5.25,-1.2,45
5.25,-1.05,51
5.25,-0.9,75
5.25,-0.75,211
5.25,-0.6,30
5.25,-0.45,42
5.25,-0.3,71
5.25,-0.15,50
5.25,0.0,27
5.25,0.15,87
5.25,0.3,117
5.25,0.45,133
5.25,0.6,134
5.25,0.75,133
5.25,0.9,117
5.25,1.05,116
5.25,1.2,116
5.25,1.35,88
5.25,1.5,82
5.4,-1.5,40
5.4,-1.35,40
5.4,-1.2,39
5.4,-1.05,39
5.4,-0.9,37
5.4,-0.75,23
5.4,-0.6,31
5.4,-0.45,70
5.4,-0.3,255
5.4,-0.15,67
5.4,0.0,109
5.4,0.15,101
5.4,0.3,102
5.4,0.45,149
5.4,0.6,117
5.4,0.75,110
5.4,0.9,93
5.4,1.05,90
5.4,1.2,89
5.4,1.35,88
5.4,1.5,87
5.55,-1.5,51
5.55,-1.35,50
5.55,-1.2,65
5.55,-1.05,58
5.55,-0.9,30
5.55,-0.75,19
5.55,-0.6,40
5.55,-0.45,141
5.55,-0.3,173
5.55,-0.15,41
5.55,0.0,113
5.55,0.15,69
5.55,0.3,179
5.55,0.45,126
5.55,0.6,114
5.55,0.75,107
5.55,0.9,104
5.55,1.05,103
5.55,1.2,97
5.55,1.35,101
5.55,1.5,101
5.7,-1.5,72
5.7,-1.35,83
5.7,-1.2,80
5.7,-1.05,63
5.7,-0.9,56
5.7,-0.75,34
5.7,-0.6,67
5.7,-0.45,50
5.7,-0.3,59
5.7,-0.15,21
5.7,0.0,9
5.7,0.15,57
5.7,0.3,72
5.7,0.45,87
5.7,0.6,93
5.7,0.75,94
5.7,0.9,94
5.7,1.05,101
5.7,1.2,101
5.7,1.35,101
5.7,1.5,100
5.85,-1.5,70
5.85,-1.35,69
5.85,-1.2,69
5.85,-1.05,71
5.85,-0.9,87
5.85,-0.75,92
5.85,-0.6,255
5.85,-0.45,115
5.85,-0.3,51
5.85,-0.15,64
5.85,0.0,49
5.85,0.15,189
5.85,0.3,79
5.85,0.45,72
5.85,0.6,87
5.85,0.75,94
5.85,0.9,97
5.85,1.05,98
5.85,1.2,99
5.85,1.35,99
5.85,1.5,99
6.0,-1.5,90
6.0,-1.35,86
6.0,-1.2,80
6.0,-1.05,89
6.0,-0.9,92
6.0,-0.75,68
6.0,-0.6,103
6.0,-0.45,167
6.0,-0.3,255
6.0,-0.15,38
6.0,0.0,152
6.0,0.15,104
6.0,0.3,72
6.0,0.45,70
6.0,0.6,78
6.0,0.75,82
6.0,0.9,110
6.0,1.05,113
6.0,1.2,105
6.0,1.35,105
6.0,1.5,105
6.15,-1.5,89
6.15,-1.35,82
6.15,-1.2,67
6.15,-1.05,36
6.15,-0.9,48
6.15,-0.75,69
6.15,-0.6,91
6.15,-0.45,76
6.15,-0.3,63
6.15,-0.15,53
6.15,0.0,26
6.15,0.15,65
6.15,0.3,71
6.15,0.45,76
6.15,0.6,67
6.15,0.75,60
6.15,0.9,62
6.15,1.05,61
6.15,1.2,79
6.15,1.35,79
6.15,1.5,80
6.3,-1.5,77
6.3,-1.35,71
6.3,-1.2,48
6.3,-1.05,29
6.3,-0.9,42
6.3,-0.75,83
6.3,-0.6,81
6.3,-0.45,68
6.3,-0.3,166
6.3,-0.15,80
6.3,0.0,67
6.3,0.15,48
6.3,0.3,76
6.3,0.45,69
6.3,0.6,62
6.3,0.75,59
6.3,0.9,57
6.3,1.05,56
6.3,1.2,56
6.3,1.35,55
6.3,1.5,60
6.45,-1.5,72
6.45,-1.35,70
6.45,-1.2,66
6.45,-1.05,65
6.45,-0.9,74
6.45,-0.75,108
6.45,-0.6,236
6.45,-0.45,37
6.45,-0.3,77
6.45,-0.15,134
6.45,0.0,167
6.45,0.15,45
6.45,0.3,76
6.45,0.45,65
6.45,0.6,68
6.45,0.75,86
6.45,0.9,86
6.45,1.05,72
6.45,1.2,54
6.45,1.35,54
6.45,1.5,54
6.6,-1.5,72
6.6,-1.35,47
6.6,-1.2,49
6.6,-1.05,49
6.6,-0.9,58
6.6,-0.75,92
6.6,-0.6,73
6.6,-0.45,25
6.6,-0.3,44
6.6,-0.15,79
6.6,0.0,45
6.6,0.15,106
6.6,0.3,93
6.6,0.45,48
6.6,0.6,68
6.6,0.75,79
6.6,0.9,84
6.6,1.05,86
6.6,1.2,92
6.6,1.35,93
6.6,1.5,94
6.75,-1.5,70
6.75,-1.35,61
6.75,-1.2,66
6.75,-1.05,67
6.75,-0.9,83
6.75,-0.75,75
6.75,-0.6,88
6.75,-0.45,20
6.75,-0.3,79
6.75,-0.15,45
6.75,0.0,142
6.75,0.15,230
6.75,0.3,85
6.75,0.45,38
6.75,0.6,59
6.75,0.75,66
6.75,0.9,65
6.75,1.05,76
6.75,1.2,77
6.75,1.35,68
6.75,1.5,68
6.9,-1.5,70
6.9,-1.35,70
6.9,-1.2,56
6.9,-1.05,46
6.9,-0.9,55
6.9,-0.75,53
6.9,-0.6,82
6.9,-0.45,71
6.9,-0.3,77
6.9,-0.15,36
6.9,0.0,65
6.9,0.15,13
6.9,0.3,69
6.9,0.45,64
6.9,0.6,65
6.9,0.75,66
6.9,0.9,65
6.9,1.05,65
6.9,1.2,66
6.9,1.35,67
6.9,1.5,67
7.05,-1.5,63
7.05,-1.35,62
7.05,-1.2,60
7.05,-1.05,51
7.05,-0.9,29
7.05,-0.75,8
7.05,-0.6,21
7.05,-0.45,21
7.05,-0.3,52
7.05,-0.15,22
7.05,0.0,19
7.05,0.15,42
7.05,0.3,22
7.05,0.45,49
7.05,0.6,49
7.05,0.75,49
7.05,0.9,49
7.05,1.05,50
7.05,1.2,50
7.05,1.35,40
7.05,1.5,57
7.2,-1.5,63
7.2,-1.35,63
7.2,-1.2,54
7.2,-1.05,51
7.2,-0.9,41
7.2,-0.75,40
7.2,-0.6,32
7.2,-0.45,36
7.2,-0.3,26
7.2,-0.15,55
7.2,0.0,94
7.2,0.15,85
7.2,0.3,75
7.2,0.45,48
7.2,0.6,48
7.2,0.75,39
7.2,0.9,59
7.2,1.05,61
7.2,1.2,57
7.2,1.35,58
7.2,1.5,59
7.35,-1.5,51
7.35,-1.35,51
7.35,-1.2,51
7.35,-1.05,54
7.35,-0.9,59
7.35,-0.75,46
7.35,-0.6,43
7.35,-0.45,83
7.35,-0.3,31
7.35,-0.15,197
7.35,0.0,66
7.35,0.15,69
7.35,0.3,66
7.35,0.45,53
7.35,0.6,64
7.35,0.75,66
7.35,0.9,69
7.35,1.05,70
7.35,1.2,71
7.35,1.35,71
7.35,1.5,61
7.5,-1.5,76
7.5,-1.35,69
7.5,-1.2,73
7.5,-1.05,85
7.5,-0.9,111
7.5,-0.75,94
7.5,-0.6,59
7.5,-0.45,114
7.5,-0.3,3
7.5,-0.15,124
7.5,0.0,255
7.5,0.15,36
7.5,0.3,51
7.5,0.45,33
7.5,0.6,66
7.5,0.75,72
7.5,0.9,73
7.5,1.05,73
7.5,1.2,73
7.5,1.35,63
7.5,1.5,63
7.65,-1.5,87
7.65,-1.35,88
7.65,-1.2,89
7.65,-1.05,89
7.65,-0.9,91
7.65,-0.75,81
7.65,-0.6,71
7.65,-0.45,37
7.65,-0.3,39
7.65,-0.15,180
7.65,0.0,82
7.65,0.15,60
7.65,0.3,83
7.65,0.45,100
7.65,0.6,93
7.65,0.75,93
7.65,0.9,117
7.65,1.05,119
7.65,1.2,120
7.65,1.35,132
7.65,1.5,132
7.8,-1.5,90
7.8,-1.35,90
7.8,-1.2,91
7.8,-1.05,91
7.8,-0.9,85
7.8,-0.75,76
7.8,-0.6,60
7.8,-0.45,41
7.8,-0.3,99
7.8,-0.15,49
7.8,0.0,114
7.8,0.15,25
7.8,0.3,138
7.8,0.45,118
7.8,0.6,116
7.8,0.75,120
7.8,0.9,132
7.8,1.05,132
7.8,1.2,132
7.8,1.35,132
7.8,1.5,114
7.95,-1.5,79
7.95,-1.35,79
7.95,-1.2,94
7.95,-1.05,94
7.95,-0.9,94
7.95,-0.75,100
7.95,-0.6,86
7.95,-0.45,106
7.95,-0.3,211
7.95,-0.15,156
7.95,0.0,15
7.95,0.15,129
7.95,0.3,108
7.95,0.45,112
7.95,0.6,132
7.95,0.75,132
7.95,0.9,132
7.95,1.05,115
7.95,1.2,115
7.95,1.35,115
7.95,1.5,115
8.1,-1.5,78
8.1,-1.35,78
8.1,-1.2,69
8.1,-1.05,70
8.1,-0.9,88
8.1,-0.75,86
8.1,-0.6,80
8.1,-0.45,55
8.1,-0.3,47
8.1,-0.15,88
8.1,0.0,107
8.1,0.15,53
8.1,0.3,216
8.1,0.45,120
8.1,0.6,127
8.1,0.75,130
8.1,0.9,131
8.1,1.05,132
8.1,1.2,141
8.1,1.35,141
8.1,1.5,142
8.25,-1.5,60
8.25,-1.35,61
8.25,-1.2,62
8.25,-1.05,63
8.25,-0.9,67
8.25,-0.75,85
8.25,-0.6,189
8.25,-0.45,89
8.25,-0.3,39
8.25,-0.15,48
8.25,0.0,18
8.25,0.15,44
8.25,0.3,206
8.25,0.45,83
8.25,0.6,85
8.25,0.75,82
8.25,0.9,97
8.25,1.05,97
8.25,1.2,102
8.25,1.35,101
8.25,1.5,101
8.4,-1.5,58
8.4,-1.35,57
8.4,-1.2,55
8.4,-1.05,50
8.4,-0.9,46
8.4,-0.75,43
8.4,-0.6,45
8.4,-0.45,255
8.4,-0.3,85
8.4,-0.15,39
8.4,0.0,34
8.4,0.15,26
8.4,0.3,28
8.4,0.45,65
8.4,0.6,72
8.4,0.75,78
8.4,0.9,83
8.4,1.05,75
8.4,1.2,75
8.4,1.35,94
8.4,1.5,95
8.55,-1.5,40
8.55,-1.35,34
8.55,-1.2,27
8.55,-1.05,23
8.55,-0.9,16
8.55,-0.75,15
8.55,-0.6,5
8.55,-0.45,56
8.55,-0.3,77
8.55,-0.15,53
8.55,0.0,125
8.55,0.15,35
8.55,0.3,9
8.55,0.45,25
8.55,0.6,36
8.55,0.75,38
8.55,0.9,59
8.55,1.05,65
8.55,1.2,66
8.55,1.35,67
8.55,1.5,72
8.7,-1.5,45
8.7,-1.35,43
8.7,-1.2,53
8.7,-1.05,30
8.7,-0.9,18
8.7,-0.75,13
8.7,-0.6,50
8.7,-0.45,72
8.7,-0.3,62
8.7,-0.15,98
8.7,0.0,56
8.7,0.15,9
8.7,0.3,1
8.7,0.45,0
8.7,0.6,15
8.7,0.75,18
8.7,0.9,25
8.7,1.05,26
8.7,1.2,32
8.7,1.35,32
8.7,1.5,38
8.85,-1.5,69
8.85,-1.35,73
8.85,-1.2,71
8.85,-1.05,68
8.85,-0.9,69
8.85,-0.75,67
8.85,-0.6,39
8.85,-0.45,46
8.85,-0.3,1
8.85,-0.15,110
8.85,0.0,36
8.85,0.15,1
8.85,0.3,7
8.85,0.45,11
8.85,0.6,12
8.85,0.75,12
8.85,0.9,12
8.85,1.05,29
8.85,1.2,30
8.85,1.35,31
8.85,1.5,31
9.0,-1.5,83
9.0,-1.35,84
9.0,-1.2,86
9.0,-1.05,90
9.0,-0.9,99
9.0,-0.75,98
9.0,-0.6,96
9.0,-0.45,11
9.0,-0.3,0
9.0,-0.15,54
9.0,0.0,57
9.0,0.15,11
9.0,0.3,6
9.0,0.45,15
9.0,0.6,15
9.0,0.75,15
9.0,0.9,15
9.0,1.05,15
9.0,1.2,35
9.0,1.35,36
9.0,1.5,37
9.15,-1.5,85
9.15,-1.35,107
9.15,-1.2,89
9.15,-1.05,94
9.15,-0.9,104
9.15,-0.75,139
9.15,-0.6,150
9.15,-0.45,15
9.15,-0.3,58
9.15,-0.15,37
9.15,0.0,34
9.15,0.15,39
9.15,0.3,36
9.15,0.45,21
9.15,0.6,22
9.15,0.75,21
9.15,0.9,41
9.15,1.05,38
9.15,1.2,43
9.15,1.35,44
9.15,1.5,44
9.3,-1.5,101
9.3,-1.35,84
9.3,-1.2,84
9.3,-1.05,87
9.3,-0.9,88
9.3,-0.75,81
9.3,-0.6,99
9.3,-0.45,36
9.3,-0.3,49
9.3,-0.15,80
9.3,0.0,84
9.3,0.15,72
9.3,0.3,32
9.3,0.45,40
9.3,0.6,43
9.3,0.75,45
9.3,0.9,46
9.3,1.05,46
9.3,1.2,46
9.3,1.35,46
9.3,1.5,46
9.45,-1.5,100
9.45,-1.35,100
9.45,-1.2,98
9.45,-1.05,79
9.45,-0.9,81
9.45,-0.75,75
9.45,-0.6,65
9.45,-0.45,36
9.45,-0.3,39
9.45,-0.15,88
9.45,0.0,88
9.45,0.15,32
9.45,0.3,37
9.45,0.45,39
9.45,0.6,49
9.45,0.75,50
9.45,0.9,50
9.45,1.05,49
9.45,1.2,48
9.45,1.35,47
9.45,1.5,47
9.6,-1.5,98
9.6,-1.35,97
9.6,-1.2,95
9.6,-1.05,78
9.6,-0.9,74
9.6,-0.75,72
9.6,-0.6,107
9.6,-0.45,63
9.6,-0.3,64
9.6,-0.15,88
9.6,0.0,55
9.6,0.15,33
9.6,0.3,62
9.6,0.45,63
9.6,0.6,63
9.6,0.75,58
9.6,0.9,70
9.6,1.05,71
9.6,1.2,72
9.6,1.35,91
9.6,1.5,92
9.75,-1.5,95
9.75,-1.35,80
9.75,-1.2,72
9.75,-1.05,72
9.75,-0.9,62
9.75,-0.75,14
9.75,-0.6,25
9.75,-0.45,41
9.75,-0.3,170
9.75,-0.15,207
9.75,0.0,158
9.75,0.15,42
9.75,0.3,137
9.75,0.45,88
9.75,0.6,82
9.75,0.75,98
9.75,0.9,102
9.75,1.05,113
9.75,1.2,116
9.75,1.35,118
9.75,1.5,96
9.9,-1.5,67
9.9,-1.35,73
9.9,-1.2,76
9.9,-1.05,83
9.9,-0.9,113
9.9,-0.75,194
9.9,-0.6,43
9.9,-0.45,45
9.9,-0.3,77
9.9,-0.15,99
9.9,0.0,93
9.9,0.15,87
9.9,0.3,95
9.9,0.45,97
9.9,0.6,110
9.9,0.75,117
9.9,0.9,120
9.9,1.05,121
9.9,1.2,122
9.9,1.35,99
9.9,1.5,99
10.05,-1.5,64
10.05,-1.35,66
10.05,-1.2,65
10.05,-1.05,77
10.05,-0.9,90
10.05,-0.75,28
10.05,-0.6,9
10.05,-0.45,67
10.05,-0.3,71
10.05,-0.15,71
10.05,0.0,75
10.05,0.15,179
10.05,0.3,173
10.05,0.45,165
10.05,0.6,148
10.05,0.75,139
10.05,0.9,136
10.05,1.05,134
10.05,1.2,133
10.05,1.35,132
10.05,1.5,102
10.2,-1.5,63
10.2,-1.35,63
10.2,-1.2,63
10.2,-1.05,63
10.2,-0.9,63
10.2,-0.75,63
10.2,-0.6,68
10.2,-0.45,86
10.2,-0.3,255
10.2,-0.15,73
10.2,0.0,77
10.2,0.15,108
10.2,0.3,255
10.2,0.45,189
10.2,0.6,154
10.2,0.75,145
10.2,0.9,143
10.2,1.05,140
10.2,1.2,137
10.2,1.35,135
10.2,1.5,134
10.35,-1.5,78
10.35,-1.35,76
10.35,-1.2,70
10.35,-1.05,67
10.35,-0.9,53
10.35,-0.75,40
10.35,-0.6,50
10.35,-0.45,165
10.35,-0.3,26
10.35,-0.15,37
10.35,0.0,27
10.35,0.15,47
10.35,0.3,119
10.35,0.45,137
10.35,0.6,157
10.35,0.75,160
10.35,0.9,156
10.35,1.05,154
10.35,1.2,153
10.35,1.35,154
10.35,1.5,154
10.5,-1.5,59
10.5,-1.35,73
10.5,-1.2,56
10.5,-1.05,51
10.5,-0.9,52
10.5,-0.75,49
10.5,-0.6,26
10.5,-0.45,64
10.5,-0.3,32
10.5,-0.15,8
10.5,0.0,31
10.5,0.15,57
10.5,0.3,88
10.5,0.45,255
10.5,0.6,180
10.5,0.75,154
10.5,0.9,147
10.5,1.05,143
10.5,1.2,154
10.5,1.35,154
10.5,1.5,154
10.65,-1.5,63
10.65,-1.35,49
10.65,-1.2,46
10.65,-1.05,36
10.65,-0.9,15
10.65,-0.75,71
10.65,-0.6,63
10.65,-0.45,40
10.65,-0.3,74
10.65,-0.15,75
10.65,0.0,145
10.65,0.15,71
10.65,0.3,133
10.65,0.45,164
10.65,0.6,157
10.65,0.75,143
10.65,0.9,143
10.65,1.05,140
10.65,1.2,138
10.65,1.35,110
10.65,1.5,109
10.8,-1.5,52
10.8,-1.35,52
10.8,-1.2,61
10.8,-1.05,56
10.8,-0.9,47
10.8,-0.75,136
10.8,-0.6,179
10.8,-0.45,125
10.8,-0.3,255
10.8,-0.15,160
10.8,0.0,181
10.8,0.15,136
10.8,0.3,231
10.8,0.45,152
10.8,0.6,141
10.8,0.75,137
10.8,0.9,118
10.8,1.05,115
10.8,1.2,113
10.8,1.35,111
10.8,1.5,109
10.95,-1.5,75
10.95,-1.35,75
10.95,-1.2,72
10.95,-1.05,75
10.95,-0.9,104
10.95,-0.75,127
10.95,-0.6,109
10.95,-0.45,87
10.95,-0.3,216
10.95,-0.15,111
10.95,0.0,23
10.95,0.15,29
10.95,0.3,115
10.95,0.45,108
10.95,0.6,102
10.95,0.75,98
10.95,0.9,102
10.95,1.05,101
10.95,1.2,100
10.95,1.35,99
10.95,1.5,103
11.1,-1.5,94
11.1,-1.35,93
11.1,-1.2,76
11.1,-1.05,78
11.1,-0.9,78
11.1,-0.75,83
11.1,-0.6,74
11.1,-0.45,21
11.1,-0.3,63
11.1,-0.15,67
11.1,0.0,57
11.1,0.15,63
11.1,0.3,67
11.1,0.45,77
11.1,0.6,83
11.1,0.75,83
11.1,0.9,87
11.1,1.05,72
11.1,1.2,72
11.1,1.35,96
11.1,1.5,97
11.25,-1.5,80
11.25,-1.35,79
11.25,-1.2,91
11.25,-1.05,88
11.25,-0.9,67
11.25,-0.75,54
11.25,-0.6,29
11.25,-0.45,9
11.25,-0.3,40
11.25,-0.15,54
11.25,0.0,32
11.25,0.15,47
11.25,0.3,55
11.25,0.45,51
11.25,0.6,55
11.25,0.75,62
11.25,0.9,62
11.25,1.05,64
11.25,1.2,70
11.25,1.35,71
11.25,1.5,68
11.4,-1.5,80
11.4,-1.35,79
11.4,-1.2,79
11.4,-1.05,70
11.4,-0.9,62
11.4,-0.75,59
11.4,-0.6,63
11.4,-0.45,90
11.4,-0.3,123
11.4,-0.15,35
11.4,0.0,46
11.4,0.15,55
11.4,0.3,36
11.4,0.45,27
11.4,0.6,38
11.4,0.75,46
11.4,0.9,52
11.4,1.05,57
11.4,1.2,60
11.4,1.35,62
11.4,1.5,64
11.55,-1.5,77
11.55,-1.35,75
11.55,-1.2,75
11.55,-1.05,76
11.55,-0.9,78
11.55,-0.75,94
11.55,-0.6,124
11.55,-0.45,136
11.55,-0.3,117
11.55,-0.15,35
11.55,0.0,49
11.55,0.15,51
11.55,0.3,19
11.55,0.45,6
11.55,0.6,21
11.55,0.75,32
11.55,0.9,50
11.55,1.05,55
11.55,1.2,59
11.55,1.35,62
11.55,1.5,64
11.7,-1.5,75
11.7,-1.35,76
11.7,-1.2,77
11.7,-1.05,79
11.7,-0.9,85
11.7,-0.75,110
11.7,-0.6,144
11.7,-0.45,112
11.7,-0.3,150
11.7,-0.15,199
11.7,0.0,108
11.7,0.15,75
11.7,0.3,28
11.7,0.45,0
11.7,0.6,23
11.7,0.75,35
11.7,0.9,40
11.7,1.05,32
11.7,1.2,33
11.7,1.35,33
11.7,1.5,44
11.85,-1.5,74
11.85,-1.35,85
11.85,-1.2,85
11.85,-1.05,85
11.85,-0.9,80
11.85,-0.75,80
11.85,-0.6,100
11.85,-0.45,47
11.85,-0.3,88
11.85,-0.15,19
11.85,0.0,91
11.85,0.15,74
11.85,0.3,47
11.85,0.45,36
11.85,0.6,39
11.85,0.75,46
11.85,0.9,36
11.85,1.05,34
11.85,1.2,30
11.85,1.35,29
11.85,1.5,28
12.0,-1.5,67
12.0,-1.35,68
12.0,-1.2,69
12.0,-1.05,72
12.0,-0.9,76
12.0,-0.75,77
12.0,-0.6,92
12.0,-0.45,88
12.0,-0.3,119
12.0,-0.15,145
12.0,0.0,49
12.0,0.15,40
12.0,0.3,42
12.0,0.45,46
12.0,0.6,65
12.0,0.75,48
12.0,0.9,38
12.0,1.05,30
12.0,1.2,31
12.0,1.35,29
12.0,1.5,27
12.15,-1.5,64
12.15,-1.35,66
12.15,-1.2,67
12.15,-1.05,66
12.15,-0.9,65
12.15,-0.75,52
12.15,-0.6,53
12.15,-0.45,162
12.15,-0.3,104
12.15,-0.15,75
12.15,0.0,47
12.15,0.15,0
12.15,0.3,29
12.15,0.45,43
12.15,0.6,54
12.15,0.75,49
12.15,0.9,33
12.15,1.05,28
12.15,1.2,27
12.15,1.35,24
12.15,1.5,26
12.3,-1.5,66
12.3,-1.35,56
12.3,-1.2,58
12.3,-1.05,58
12.3,-0.9,57
12.3,-0.75,53
12.3,-0.6,44
12.3,-0.45,79
12.3,-0.3,52
12.3,-0.15,31
12.3,0.0,14
12.3,0.15,9
12.3,0.3,62
12.3,0.45,44
12.3,0.6,42
12.3,0.75,42
12.3,0.9,30
12.3,1.05,26
12.3,1.2,23
12.3,1.35,20
12.3,1.5,18
12.45,-1.5,47
12.45,-1.35,51
12.45,-1.2,55
12.45,-1.05,56
12.45,-0.9,54
12.45,-0.75,46
12.45,-0.6,24
12.45,-0.45,21
12.45,-0.3,13
12.45,-0.15,13
12.45,0.0,1
12.45,0.15,6
12.45,0.3,27
12.45,0.45,35
12.45,0.6,34
12.45,0.75,32
12.45,0.9,30
12.45,1.05,27
12.45,1.2,24
12.45,1.35,18
12.45,1.5,15
12.6,-1.5,24
12.6,-1.35,28
12.6,-1.2,33
12.6,-1.05,51
12.6,-0.9,52
12.6,-0.75,52
12.6,-0.6,51
12.6,-0.45,47
12.6,-0.3,20
12.6,-0.15,16
12.6,0.0,5
12.6,0.15,14
12.6,0.3,34
12.6,0.45,49
12.6,0.6,45
12.6,0.75,45
12.6,0.9,28
12.6,1.05,25
12.6,1.2,20
12.6,1.35,16
12.6,1.5,13
12.75,-1.5,22
12.75,-1.35,26
12.75,-1.2,42
12.75,-1.05,51
12.75,-0.9,47
12.75,-0.75,50
12.75,-0.6,55
12.75,-0.45,64
12.75,-0.3,31
12.75,-0.15,37
12.75,0.0,53
12.75,0.15,41
12.75,0.3,44
12.75,0.45,49
12.75,0.6,48
12.75,0.75,47
12.75,0.9,45
12.75,1.05,39
12.75,1.2,16
12.75,1.35,9
12.75,1.5,6
12.9,-1.5,2
12.9,-1.35,15
12.9,-1.2,30
12.9,-1.05,42
12.9,-0.9,49
12.9,-0.75,54
12.9,-0.6,74
12.9,-0.45,39
12.9,-0.3,95
12.9,-0.15,132
12.9,0.0,106
12.9,0.15,82
12.9,0.3,67
12.9,0.45,53
12.9,0.6,53
12.9,0.75,50
12.9,0.9,46
12.9,1.05,37
12.9,1.2,24
12.9,1.35,8
12.9,1.5,0
13.05,-1.5,0
13.05,-1.35,9
13.05,-1.2,28
13.05,-1.05,41
13.05,-0.9,73
13.05,-0.75,78
13.05,-0.6,82
13.05,-0.45,84
13.05,-0.3,137
13.05,-0.15,255
13.05,0.0,191
13.05,0.15,112
13.05,0.3,87
13.05,0.45,74
13.05,0.6,68
13.05,0.75,54
13.05,0.9,47
13.05,1.05,37
13.05,1.2,22
13.05,1.35,6
13.05,1.5,0
