-3.0,-1.5,0
-3.0,-1.35,0
-3.0,-1.2,4
-3.0,-1.05,10
-3.0,-0.9,14
-3.0,-0.75,18
-3.0,-0.6,19
-3.0,-0.45,18
-3.0,-0.3,15
-3.0,-0.15,10
-3.0,0.0,5
-3.0,0.15,2
-3.0,0.3,1
-3.0,0.45,3
-3.0,0.6,7
-3.0,0.75,10
-3.0,0.9,11
-3.0,1.05,6
-3.0,1.2,2
-3.0,1.35,0
-3.0,1.5,0
-2.85,-1.5,0
-2.85,-1.35,1
-2.85,-1.2,6
-2.85,-1.05,11
-2.85,-0.9,16
-2.85,-0.75,19
-2.85,-0.6,20
-2.85,-0.45,18
-2.85,-0.3,15
-2.85,-0.15,10
-2.85,0.0,4
-2.85,0.15,0
-2.85,0.3,0
-2.85,0.45,1
-2.85,0.6,6
-2.85,0.75,10
-2.85,0.9,12
-2.85,1.05,7
-2.85,1.2,4
-2.85,1.35,1
-2.85,1.5,0
-2.7,-1.5,5
-2.7,-1.35,6
-2.7,-1.2,10
-2.7,-1.05,15
-2.7,-0.9,19
-2.7,-0.75,21
-2.7,-0.6,21
-2.7,-0.45,20
-2.7,-0.3,16
-2.7,-0.15,11
-2.7,0.0,5
-2.7,0.15,1
-2.7,0.3,0
-2.7,0.45,3
-2.7,0.6,8
-2.7,0.75,12
-2.7,0.9,14
-2.7,1.05,9
-2.7,1.2,7
-2.7,1.35,4
-2.7,1.5,1
-2.55,-1.5,11
-2.55,-1.35,13
-2.55,-1.2,16
-2.55,-1.05,19
-2.55,-0.9,22
-2.55,-0.75,24
-2.55,-0.6,23
-2.55,-0.45,22
-2.55,-0.3,19
-2.55,-0.15,15
-2.55,0.0,9
-2.55,0.15,6
-2.55,0.3,5
-2.55,0.45,7
-2.55,0.6,11
-2.55,0.75,15
-2.55,0.9,17
-2.55,1.05,12
-2.55,1.2,11
-2.55,1.35,9
-2.55,1.5,5
-2.4,-1.5,19
-2.4,-1.35,20
-2.4,-1.2,22
-2.4,-1.05,24
-2.4,-0.9,26
-2.4,-0.75,26
-2.4,-0.6,26
-2.4,-0.45,24
-2.4,-0.3,22
-2.4,-0.15,19
-2.4,0.0,18
-2.4,0.15,13
-2.4,0.3,12
-2.4,0.45,14
-2.4,0.6,16
-2.4,0.75,19
-2.4,0.9,21
-2.4,1.05,16
-2.4,1.2,15
-2.4,1.35,9
-2.4,1.5,9
-2.25,-1.5,26
-2.25,-1.35,26
-2.25,-1.2,27
-2.25,-1.05,29
-2.25,-0.9,29
-2.25,-0.75,29
-2.25,-0.6,28
-2.25,-0.45,26
-2.25,-0.3,24
-2.25,-0.15,22
-2.25,0.0,23
-2.25,0.15,18
-2.25,0.3,18
-2.25,0.45,19
-2.25,0.6,21
-2.25,0.75,23
-2.25,0.9,19
-2.25,1.05,19
-2.25,1.2,19
-2.25,1.35,13
-2.25,1.5,19
-2.1,-1.5,32
-2.1,-1.35,32
-2.1,-1.2,32
-2.1,-1.05,32
-2.1,-0.9,32
-2.1,-0.75,31
-2.1,-0.6,30
-2.1,-0.45,28
-2.1,-0.3,25
-2.1,-0.15,23
-2.1,0.0,23
-2.1,0.15,19
-2.1,0.3,20
-2.1,0.45,22
-2.1,0.6,25
-2.1,0.75,27
-2.1,0.9,22
-2.1,1.05,23
-2.1,1.2,24
-2.1,1.35,24
-2.1,1.5,24
-1.95,-1.5,37
-1.95,-1.35,37
-1.95,-1.2,36
-1.95,-1.05,36
-1.95,-0.9,35
-1.95,-0.75,33
-1.95,-0.6,31
-1.95,-0.45,29
-1.95,-0.3,25
-1.95,-0.15,21
-1.95,0.0,20
-1.95,0.15,16
-1.95,0.3,18
-1.95,0.45,22
-1.95,0.6,26
-1.95,0.75,30
-1.95,0.9,33
-1.95,1.05,35
-1.95,1.2,28
-1.95,1.35,28
-1.95,1.5,28
-1.8,-1.5,50
-1.8,-1.35,48
-1.8,-1.2,39
-1.8,-1.05,38
-1.8,-0.9,36
-1.8,-0.75,34
-1.8,-0.6,32
-1.8,-0.45,29
-1.8,-0.3,24
-1.8,-0.15,18
-1.8,0.0,11
-1.8,0.15,10
-1.8,0.3,13
-1.8,0.45,20
-1.8,0.6,27
-1.8,0.75,33
-1.8,0.9,36
-1.8,1.05,39
-1.8,1.2,31
-1.8,1.35,32
-1.8,1.5,32
-1.65,-1.5,53
-1.65,-1.35,52
-1.65,-1.2,49
-1.65,-1.05,47
-1.65,-0.9,44
-1.65,-0.75,41
-1.65,-0.6,32
-1.65,-0.45,29
-1.65,-0.3,24
-1.65,-0.15,15
-1.65,0.0,4
-1.65,0.15,0
-1.65,0.3,7
-1.65,0.45,19
-1.65,0.6,29
-1.65,0.75,36
-1.65,0.9,40
-1.65,1.05,34
-1.65,1.2,35
-1.65,1.35,36
-1.65,1.5,36
-1.5,-1.5,51
-1.5,-1.35,53
-1.5,-1.2,51
-1.5,-1.05,47
-1.5,-0.9,43
-1.5,-0.75,39
-1.5,-0.6,36
-1.5,-0.45,34
-1.5,-0.3,29
-1.5,-0.15,17
-1.5,0.0,5
-1.5,0.15,0
-1.5,0.3,10
-1.5,0.45,26
-1.5,0.6,33
-1.5,0.75,40
-1.5,0.9,45
-1.5,1.05,38
-1.5,1.2,39
-1.5,1.35,39
-1.5,1.5,39
-1.35,-1.5,53
-1.35,-1.35,51
-1.35,-1.2,52
-1.35,-1.05,47
-1.35,-0.9,41
-1.35,-0.75,35
-1.35,-0.6,31
-1.35,-0.45,31
-1.35,-0.3,31
-1.35,-0.15,28
-1.35,0.0,20
-1.35,0.15,17
-1.35,0.3,25
-1.35,0.45,37
-1.35,0.6,41
-1.35,0.75,46
-1.35,0.9,50
-1.35,1.05,43
-1.35,1.2,43
-1.35,1.35,42
-1.35,1.5,42
-1.2,-1.5,56
-1.2,-1.35,52
-1.2,-1.2,54
-1.2,-1.05,46
-1.2,-0.9,37
-1.2,-0.75,27
-1.2,-0.6,20
-1.2,-0.45,22
-1.2,-0.3,30
-1.2,-0.15,36
-1.2,0.0,37
-1.2,0.15,39
-1.2,0.3,44
-1.2,0.45,49
-1.2,0.6,55
-1.2,0.75,53
-1.2,0.9,55
-1.2,1.05,47
-1.2,1.2,46
-1.2,1.35,45
-1.2,1.5,44
-1.05,-1.5,59
-1.05,-1.35,55
-1.05,-1.2,50
-1.05,-1.05,47
-1.05,-0.9,35
-1.05,-0.75,20
-1.05,-0.6,6
-1.05,-0.45,7
-1.05,-0.3,26
-1.05,-0.15,42
-1.05,0.0,50
-1.05,0.15,54
-1.05,0.3,57
-1.05,0.45,60
-1.05,0.6,62
-1.05,0.75,64
-1.05,0.9,65
-1.05,1.05,66
-1.05,1.2,59
-1.05,1.35,58
-1.05,1.5,58
-0.9,-1.5,66
-0.9,-1.35,62
-0.9,-1.2,63
-0.9,-1.05,53
-0.9,-0.9,40
-0.9,-0.75,21
-0.9,-0.6,3
-0.9,-0.45,4
-0.9,-0.3,29
-0.9,-0.15,50
-0.9,0.0,60
-0.9,0.15,63
-0.9,0.3,65
-0.9,0.45,65
-0.9,0.6,66
-0.9,0.75,66
-0.9,0.9,67
-0.9,1.05,67
-0.9,1.2,68
-0.9,1.35,68
-0.9,1.5,59
-0.75,-1.5,71
-0.75,-1.35,67
-0.75,-1.2,72
-0.75,-1.05,63
-0.75,-0.9,51
-0.75,-0.75,36
-0.75,-0.6,24
-0.75,-0.45,28
-0.75,-0.3,46
-0.75,-0.15,61
-0.75,0.0,67
-0.75,0.15,68
-0.75,0.3,69
-0.75,0.45,68
-0.75,0.6,66
-0.75,0.75,66
-0.75,0.9,67
-0.75,1.05,67
-0.75,1.2,68
-0.75,1.35,68
-0.75,1.5,68
-0.6,-1.5,89
-0.6,-1.35,85
-0.6,-1.2,81
-0.6,-1.05,75
-0.6,-0.9,67
-0.6,-0.75,60
-0.6,-0.6,55
-0.6,-0.45,59
-0.6,-0.3,66
-0.6,-0.15,70
-0.6,0.0,68
-0.6,0.15,68
-0.6,0.3,69
-0.6,0.45,68
-0.6,0.6,66
-0.6,0.75,66
-0.6,0.9,66
-0.6,1.05,67
-0.6,1.2,68
-0.6,1.35,69
-0.6,1.5,69
-0.45,-1.5,95
-0.45,-1.35,93
-0.45,-1.2,91
-0.45,-1.05,88
-0.45,-0.9,85
-0.45,-0.75,83
-0.45,-0.6,82
-0.45,-0.45,83
-0.45,-0.3,82
-0.45,-0.15,74
-0.45,0.0,68
-0.45,0.15,68
-0.45,0.3,70
-0.45,0.45,71
-0.45,0.6,66
-0.45,0.75,66
-0.45,0.9,67
-0.45,1.05,69
-0.45,1.2,69
-0.45,1.35,69
-0.45,1.5,62
-0.3,-1.5,98
-0.3,-1.35,101
-0.3,-1.2,101
-0.3,-1.05,101
-0.3,-0.9,102
-0.3,-0.75,104
-0.3,-0.6,105
-0.3,-0.45,105
-0.3,-0.3,99
-0.3,-0.15,85
-0.3,0.0,71
-0.3,0.15,71
-0.3,0.3,77
-0.3,0.45,78
-0.3,0.6,74
-0.3,0.75,71
-0.3,0.9,71
-0.3,1.05,71
-0.3,1.2,70
-0.3,1.35,63
-0.3,1.5,61
-0.15,-1.5,106
-0.15,-1.35,107
-0.15,-1.2,109
-0.15,-1.05,125
-0.15,-0.9,128
-0.15,-0.75,133
-0.15,-0.6,138
-0.15,-0.45,141
-0.15,-0.3,135
-0.15,-0.15,115
-0.15,0.0,100
-0.15,0.15,93
-0.15,0.3,94
-0.15,0.45,91
-0.15,0.6,84
-0.15,0.75,78
-0.15,0.9,74
-0.15,1.05,70
-0.15,1.2,60
-0.15,1.35,58
-0.15,1.5,57
0.0,-1.5,109
0.0,-1.35,112
0.0,-1.2,115
0.0,-1.05,120
0.0,-0.9,140
0.0,-0.75,149
0.0,-0.6,162
0.0,-0.45,176
0.0,-0.3,182
0.0,-0.15,167
0.0,0.0,140
0.0,0.15,128
0.0,0.3,118
0.0,0.45,108
0.0,0.6,95
0.0,0.75,83
0.0,0.9,72
0.0,1.05,58
0.0,1.2,52
0.0,1.35,50
0.0,1.5,50
0.15,-1.5,112
0.15,-1.35,115
0.15,-1.2,119
0.15,-1.05,125
0.15,-0.9,134
0.15,-0.75,159
0.15,-0.6,179
0.15,-0.45,208
0.15,-0.3,237
0.15,-0.15,214
0.15,0.0,182
0.15,0.15,164
0.15,0.3,148
0.15,0.45,128
0.15,0.6,105
0.15,0.75,82
0.15,0.9,58
0.15,1.05,46
0.15,1.2,40
0.15,1.35,38
0.15,1.5,41
0.3,-1.5,113
0.3,-1.35,116
0.3,-1.2,120
0.3,-1.05,126
0.3,-0.9,135
0.3,-0.75,149
0.3,-0.6,181
0.3,-0.45,216
0.3,-0.3,255
0.3,-0.15,224
0.3,0.0,198
0.3,0.15,211
0.3,0.3,188
0.3,0.45,150
0.3,0.6,115
0.3,0.75,70
0.3,0.9,41
0.3,1.05,29
0.3,1.2,22
0.3,1.35,24
0.3,1.5,32
0.45,-1.5,109
0.45,-1.35,111
0.45,-1.2,115
0.45,-1.05,120
0.45,-0.9,130
0.45,-0.75,148
0.45,-0.6,162
0.45,-0.45,181
0.45,-0.3,194
0.45,-0.15,178
0.45,0.0,196
0.45,0.15,255
0.45,0.3,205
0.45,0.45,178
0.45,0.6,137
0.45,0.75,62
0.45,0.9,16
0.45,1.05,12
0.45,1.2,3
0.45,1.35,9
0.45,1.5,23
0.6,-1.5,109
0.6,-1.35,109
0.6,-1.2,111
0.6,-1.05,114
0.6,-0.9,127
0.6,-0.75,132
0.6,-0.6,137
0.6,-0.45,141
0.6,-0.3,139
0.6,-0.15,121
0.6,0.0,110
0.6,0.15,170
0.6,0.3,182
0.6,0.45,239
0.6,0.6,177
0.6,0.75,61
0.6,0.9,7
0.6,1.05,7
0.6,1.2,4
0.6,1.35,10
0.6,1.5,22
0.75,-1.5,129
0.75,-1.35,128
0.75,-1.2,105
0.75,-1.05,107
0.75,-0.9,108
0.75,-0.75,109
0.75,-0.6,117
0.75,-0.45,115
0.75,-0.3,112
0.75,-0.15,97
0.75,0.0,72
0.75,0.15,107
0.75,0.3,127
0.75,0.45,208
0.75,0.6,163
0.75,0.75,74
0.75,0.9,19
0.75,1.05,13
0.75,1.2,17
0.75,1.35,21
0.75,1.5,27
0.9,-1.5,140
0.9,-1.35,138
0.9,-1.2,124
0.9,-1.05,100
0.9,-0.9,99
0.9,-0.75,98
0.9,-0.6,96
0.9,-0.45,93
0.9,-0.3,91
0.9,-0.15,92
0.9,0.0,98
0.9,0.15,82
0.9,0.3,76
0.9,0.45,115
0.9,0.6,113
0.9,0.75,78
0.9,0.9,47
0.9,1.05,35
0.9,1.2,34
0.9,1.35,36
0.9,1.5,40
1.05,-1.5,122
1.05,-1.35,121
1.05,-1.2,119
1.05,-1.05,119
1.05,-0.9,92
1.05,-0.75,90
1.05,-0.6,78
1.05,-0.45,77
1.05,-0.3,76
1.05,-0.15,70
1.05,0.0,146
1.05,0.15,92
1.05,0.3,74
1.05,0.45,82
1.05,0.6,76
1.05,0.75,66
1.05,0.9,55
1.05,1.05,46
1.05,1.2,42
1.05,1.35,46
1.05,1.5,46
1.2,-1.5,122
1.2,-1.35,121
1.2,-1.2,119
1.2,-1.05,116
1.2,-0.9,96
1.2,-0.75,92
1.2,-0.6,86
1.2,-0.45,72
1.2,-0.3,69
1.2,-0.15,79
1.2,0.0,72
1.2,0.15,3
1.2,0.3,47
1.2,0.45,66
1.2,0.6,65
1.2,0.75,64
1.2,0.9,60
1.2,1.05,54
1.2,1.2,49
1.2,1.35,38
1.2,1.5,38
1.35,-1.5,122
1.35,-1.35,122
1.35,-1.2,105
1.35,-1.05,103
1.35,-0.9,101
1.35,-0.75,97
1.35,-0.6,90
1.35,-0.45,78
1.35,-0.3,57
1.35,-0.15,36
1.35,0.0,61
1.35,0.15,41
1.35,0.3,56
1.35,0.45,49
1.35,0.6,60
1.35,0.75,63
1.35,0.9,53
1.35,1.05,45
1.35,1.2,41
1.35,1.35,38
1.35,1.5,38
1.5,-1.5,108
1.5,-1.35,108
1.5,-1.2,109
1.5,-1.05,105
1.5,-0.9,104
1.5,-0.75,102
1.5,-0.6,98
1.5,-0.45,90
1.5,-0.3,71
1.5,-0.15,56
1.5,0.0,55
1.5,0.15,20
1.5,0.3,42
1.5,0.45,43
1.5,0.6,39
1.5,0.75,49
1.5,0.9,42
1.5,1.05,33
1.5,1.2,40
1.5,1.35,39
1.5,1.5,38
1.65,-1.5,110
1.65,-1.35,111
1.65,-1.2,112
1.65,-1.05,113
1.65,-0.9,115
1.65,-0.75,117
1.65,-0.6,119
1.65,-0.45,116
1.65,-0.3,114
1.65,-0.15,103
1.65,0.0,75
1.65,0.15,57
1.65,0.3,35
1.65,0.45,16
1.65,0.6,17
1.65,0.75,26
1.65,0.9,32
1.65,1.05,34
1.65,1.2,34
1.65,1.35,34
1.65,1.5,34
1.8,-1.5,97
1.8,-1.35,97
1.8,-1.2,98
1.8,-1.05,117
1.8,-0.9,119
1.8,-0.75,115
1.8,-0.6,128
1.8,-0.45,147
1.8,-0.3,165
1.8,-0.15,158
1.8,0.0,77
1.8,0.15,69
1.8,0.3,35
1.8,0.45,16
1.8,0.6,16
1.8,0.75,27
1.8,0.9,33
1.8,1.05,36
1.8,1.2,52
1.8,1.35,54
1.8,1.5,51
1.95,-1.5,97
1.95,-1.35,98
1.95,-1.2,98
1.95,-1.05,103
1.95,-0.9,111
1.95,-0.75,119
1.95,-0.6,140
1.95,-0.45,187
1.95,-0.3,255
1.95,-0.15,224
1.95,0.0,101
1.95,0.15,54
1.95,0.3,9
1.95,0.45,23
1.95,0.6,29
1.95,0.75,32
1.95,0.9,35
1.95,1.05,56
1.95,1.2,55
1.95,1.35,56
1.95,1.5,71
2.1,-1.5,90
2.1,-1.35,92
2.1,-1.2,91
2.1,-1.05,91
2.1,-0.9,98
2.1,-0.75,113
2.1,-0.6,131
2.1,-0.45,176
2.1,-0.3,234
2.1,-0.15,148
2.1,0.0,25
2.1,0.15,14
2.1,0.3,50
2.1,0.45,37
2.1,0.6,37
2.1,0.75,39
2.1,0.9,55
2.1,1.05,69
2.1,1.2,71
2.1,1.35,73
2.1,1.5,74
2.25,-1.5,86
2.25,-1.35,87
2.25,-1.2,89
2.25,-1.05,92
2.25,-0.9,91
2.25,-0.75,97
2.25,-0.6,104
2.25,-0.45,112
2.25,-0.3,115
2.25,-0.15,77
2.25,0.0,33
2.25,0.15,40
2.25,0.3,56
2.25,0.45,43
2.25,0.6,43
2.25,0.75,59
2.25,0.9,71
2.25,1.05,75
2.25,1.2,77
2.25,1.35,77
2.25,1.5,77
2.4,-1.5,82
2.4,-1.35,82
2.4,-1.2,82
2.4,-1.05,82
2.4,-0.9,82
2.4,-0.75,82
2.4,-0.6,79
2.4,-0.45,78
2.4,-0.3,71
2.4,-0.15,62
2.4,0.0,55
2.4,0.15,56
2.4,0.3,44
2.4,0.45,16
2.4,0.6,56
2.4,0.75,65
2.4,0.9,73
2.4,1.05,77
2.4,1.2,77
2.4,1.35,77
2.4,1.5,77
2.55,-1.5,78
2.55,-1.35,78
2.55,-1.2,77
2.55,-1.05,76
2.55,-0.9,74
2.55,-0.75,70
2.55,-0.6,78
2.55,-0.45,43
2.55,-0.3,44
2.55,-0.15,52
2.55,0.0,8
2.55,0.15,92
2.55,0.3,56
2.55,0.45,62
2.55,0.6,89
2.55,0.75,87
2.55,0.9,80
2.55,1.05,78
2.55,1.2,77
2.55,1.35,77
2.55,1.5,77
2.7,-1.5,48
2.7,-1.35,48
2.7,-1.2,52
2.7,-1.05,52
2.7,-0.9,51
2.7,-0.75,50
2.7,-0.6,46
2.7,-0.45,39
2.7,-0.3,46
2.7,-0.15,39
2.7,0.0,54
2.7,0.15,67
2.7,0.3,149
2.7,0.45,73
2.7,0.6,162
2.7,0.75,119
2.7,0.9,89
2.7,1.05,87
2.7,1.2,84
2.7,1.35,82
2.7,1.5,80
2.85,-1.5,47
2.85,-1.35,48
2.85,-1.2,48
2.85,-1.05,48
2.85,-0.9,48
2.85,-0.75,48
2.85,-0.6,46
2.85,-0.45,34
2.85,-0.3,8
2.85,-0.15,42
2.85,0.0,30
2.85,0.15,9
2.85,0.3,39
2.85,0.45,15
2.85,0.6,255
2.85,0.75,55
2.85,0.9,88
2.85,1.05,85
2.85,1.2,82
2.85,1.35,80
2.85,1.5,78
3.0,-1.5,47
3.0,-1.35,47
3.0,-1.2,48
3.0,-1.05,48
3.0,-0.9,53
3.0,-0.75,54
3.0,-0.6,53
3.0,-0.45,56
3.0,-0.3,61
3.0,-0.15,37
3.0,0.0,34
3.0,0.15,23
3.0,0.3,52
3.0,0.45,56
3.0,0.6,88
3.0,0.75,73
3.0,0.9,75
3.0,1.05,77
3.0,1.2,76
3.0,1.35,75
3.0,1.5,75
3.15,-1.5,42
3.15,-1.35,42
3.15,-1.2,43
3.15,-1.05,43
3.15,-0.9,48
3.15,-0.75,53
3.15,-0.6,54
3.15,-0.45,64
3.15,-0.3,103
3.15,-0.15,81
3.15,0.0,44
3.15,0.15,77
3.15,0.3,23
3.15,0.45,62
3.15,0.6,85
3.15,0.75,65
3.15,0.9,70
3.15,1.05,72
3.15,1.2,74
3.15,1.35,76
3.15,1.5,76
3.3,-1.5,37
3.3,-1.35,37
3.3,-1.2,60
3.3,-1.05,60
3.3,-0.9,60
3.3,-0.75,60
3.3,-0.6,60
3.3,-0.45,42
3.3,-0.3,45
3.3,-0.15,52
3.3,0.0,51
3.3,0.15,44
3.3,0.3,23
3.3,0.45,23
3.3,0.6,53
3.3,0.75,48
3.3,0.9,43
3.3,1.05,45
3.3,1.2,61
3.3,1.35,66
3.3,1.5,70
3.45,-1.5,37
3.45,-1.35,37
3.45,-1.2,37
3.45,-1.05,43
3.45,-0.9,41
3.45,-0.75,39
3.45,-0.6,34
3.45,-0.45,25
3.45,-0.3,52
3.45,-0.15,49
3.45,0.0,18
3.45,0.15,51
3.45,0.3,43
3.45,0.45,44
3.45,0.6,49
3.45,0.75,32
3.45,0.9,0
3.45,1.05,23
3.45,1.2,33
3.45,1.35,47
3.45,1.5,50
3.6,-1.5,38
3.6,-1.35,42
3.6,-1.2,42
3.6,-1.05,37
3.6,-0.9,36
3.6,-0.75,34
3.6,-0.6,30
3.6,-0.45,17
3.6,-0.3,32
3.6,-0.15,65
3.6,0.0,43
3.6,0.15,38
3.6,0.3,51
3.6,0.45,22
3.6,0.6,35
3.6,0.75,29
3.6,0.9,22
3.6,1.05,28
3.6,1.2,35
3.6,1.35,35
3.6,1.5,37
3.75,-1.5,19
3.75,-1.35,42
3.75,-1.2,18
3.75,-1.05,30
3.75,-0.9,25
3.75,-0.75,24
3.75,-0.6,23
3.75,-0.45,23
3.75,-0.3,10
3.75,-0.15,14
3.75,0.0,65
3.75,0.15,67
3.75,0.3,72
3.75,0.45,34
3.75,0.6,22
3.75,0.75,22
3.75,0.9,41
3.75,1.05,31
3.75,1.2,45
3.75,1.35,35
3.75,1.5,50
3.9,-1.5,19
3.9,-1.35,18
3.9,-1.2,18
3.9,-1.05,18
3.9,-0.9,18
3.9,-0.75,17
3.9,-0.6,15
3.9,-0.45,10
3.9,-0.3,10
3.9,-0.15,22
3.9,0.0,119
3.9,0.15,79
3.9,0.3,62
3.9,0.45,68
3.9,0.6,47
3.9,0.75,42
3.9,0.9,36
3.9,1.05,31
3.9,1.2,47
3.9,1.35,53
3.9,1.5,53
4.05,-1.5,20
4.05,-1.35,20
4.05,-1.2,24
4.05,-1.05,33
4.05,-0.9,33
4.05,-0.75,35
4.05,-0.6,33
4.05,-0.45,26
4.05,-0.3,52
4.05,-0.15,62
4.05,0.0,100
4.05,0.15,41
4.05,0.3,57
4.05,0.45,58
4.05,0.6,52
4.05,0.75,40
4.05,0.9,33
4.05,1.05,52
4.05,1.2,53
4.05,1.35,53
4.05,1.5,53
4.2,-1.5,34
4.2,-1.35,34
4.2,-1.2,35
4.2,-1.05,35
4.2,-0.9,35
4.2,-0.75,35
4.2,-0.6,35
4.2,-0.45,26
4.2,-0.3,71
4.2,-0.15,112
4.2,0.0,79
4.2,0.15,20
4.2,0.3,246
4.2,0.45,16
4.2,0.6,29
4.2,0.75,48
4.2,0.9,57
4.2,1.05,61
4.2,1.2,62
4.2,1.35,62
4.2,1.5,61
4.35,-1.5,34
4.35,-1.35,33
4.35,-1.2,33
4.35,-1.05,33
4.35,-0.9,35
4.35,-0.75,35
4.35,-0.6,35
4.35,-0.45,35
4.35,-0.3,76
4.35,-0.15,66
4.35,0.0,97
4.35,0.15,55
4.35,0.3,90
4.35,0.45,34
4.35,0.6,30
4.35,0.75,51
4.35,0.9,76
4.35,1.05,76
4.35,1.2,75
4.35,1.35,74
4.35,1.5,73
4.5,-1.5,34
4.5,-1.35,33
4.5,-1.2,32
4.5,-1.05,31
4.5,-0.9,31
4.5,-0.75,31
4.5,-0.6,32
4.5,-0.45,35
4.5,-0.3,52
4.5,-0.15,63
4.5,0.0,75
4.5,0.15,0
4.5,0.3,114
4.5,0.45,81
4.5,0.6,75
4.5,0.75,138
4.5,0.9,95
4.5,1.05,71
4.5,1.2,62
4.5,1.35,75
4.5,1.5,74
4.65,-1.5,29
4.65,-1.35,33
4.65,-1.2,32
4.65,-1.05,30
4.65,-0.9,27
4.65,-0.75,22
4.65,-0.6,25
4.65,-0.45,29
4.65,-0.3,13
4.65,-0.15,45
4.65,0.0,37
4.65,0.15,122
4.65,0.3,203
4.65,0.45,75
4.65,0.6,91
4.65,0.75,130
4.65,0.9,102
4.65,1.05,89
4.65,1.2,99
4.65,1.35,81
4.65,1.5,83
4.8,-1.5,25
4.8,-1.35,25
4.8,-1.2,25
4.8,-1.05,24
4.8,-0.9,21
4.8,-0.75,11
4.8,-0.6,8
4.8,-0.45,84
4.8,-0.3,66
4.8,-0.15,105
4.8,0.0,94
4.8,0.15,134
4.8,0.3,127
4.8,0.45,55
4.8,0.6,64
4.8,0.75,93
4.8,0.9,102
4.8,1.05,103
4.8,1.2,119
4.8,1.35,122
4.8,1.5,122
4.95,-1.5,25
4.95,-1.35,25
4.95,-1.2,25
4.95,-1.05,25
4.95,-0.9,24
4.95,-0.75,23
4.95,-0.6,24
4.95,-0.45,1
4.95,-0.3,59
4.95,-0.15,167
4.95,0.0,81
4.95,0.15,70
4.95,0.3,44
4.95,0.45,104
4.95,0.6,58
4.95,0.75,78
4.95,0.9,127
4.95,1.05,130
4.95,1.2,128
4.95,1.35,126
4.95,1.5,124
5.1,-1.5,24
5.1,-1.35,25
5.1,-1.2,26
5.1,-1.05,26
5.1,-0.9,28
5.1,-0.75,31
5.1,-0.6,41
5.1,-0.45,39
5.1,-0.3,50
5.1,-0.15,107
5.1,0.0,188
5.1,0.15,59
5.1,0.3,14
5.1,0.45,91
5.1,0.6,83
5.1,0.75,134
5.1,0.9,172
5.1,1.05,157
5.1,1.2,150
5.1,1.35,137
5.1,1.5,124
5.25,-1.5,25
5.25,-1.35,24
5.25,-1.2,24
5.25,-1.05,25
5.25,-0.9,27
5.25,-0.75,36
5.25,-0.6,45
5.25,-0.45,21
5.25,-0.3,50
5.25,-0.15,72
5.25,0.0,43
5.25,0.15,84
5.25,0.3,20
5.25,0.45,95
5.25,0.6,102
5.25,0.75,178
5.25,0.9,192
5.25,1.05,152
5.25,1.2,141
5.25,1.35,135
5.25,1.5,128
5.4,-1.5,15
5.4,-1.35,15
5.4,-1.2,31
5.4,-1.05,31
5.4,-0.9,35
5.4,-0.75,37
5.4,-0.6,38
5.4,-0.45,45
5.4,-0.3,61
5.4,-0.15,62
5.4,0.0,54
5.4,0.15,119
5.4,0.3,64
5.4,0.45,84
5.4,0.6,118
5.4,0.75,150
5.4,0.9,134
5.4,1.05,131
5.4,1.2,124
5.4,1.35,112
5.4,1.5,108
5.55,-1.5,27
5.55,-1.35,27
5.55,-1.2,27
5.55,-1.05,30
5.55,-0.9,29
5.55,-0.75,28
5.55,-0.6,20
5.55,-0.45,0
5.55,-0.3,85
5.55,-0.15,107
5.55,0.0,62
5.55,0.15,17
5.55,0.3,72
5.55,0.45,109
5.55,0.6,95
5.55,0.75,100
5.55,0.9,112
5.55,1.05,103
5.55,1.2,102
5.55,1.35,102
5.55,1.5,112
5.7,-1.5,32
5.7,-1.35,47
5.7,-1.2,34
5.7,-1.05,32
5.7,-0.9,27
5.7,-0.75,23
5.7,-0.6,13
5.7,-0.45,15
5.7,-0.3,125
5.7,-0.15,64
5.7,0.0,170
5.7,0.15,10
5.7,0.3,81
5.7,0.45,137
5.7,0.6,70
5.7,0.75,58
5.7,0.9,86
5.7,1.05,88
5.7,1.2,107
5.7,1.35,111
5.7,1.5,108
5.85,-1.5,49
5.85,-1.35,48
5.85,-1.2,46
5.85,-1.05,43
5.85,-0.9,40
5.85,-0.75,34
5.85,-0.6,15
5.85,-0.45,26
5.85,-0.3,36
5.85,-0.15,12
5.85,0.0,20
5.85,0.15,57
5.85,0.3,48
5.85,0.45,105
5.85,0.6,77
5.85,0.75,75
5.85,0.9,84
5.85,1.05,86
5.85,1.2,87
5.85,1.35,103
5.85,1.5,104
6.0,-1.5,38
6.0,-1.35,35
6.0,-1.2,35
6.0,-1.05,35
6.0,-0.9,34
6.0,-0.75,33
6.0,-0.6,29
6.0,-0.45,19
6.0,-0.3,38
6.0,-0.15,50
6.0,0.0,67
6.0,0.15,32
6.0,0.3,139
6.0,0.45,65
6.0,0.6,56
6.0,0.75,82
6.0,0.9,99
6.0,1.05,91
6.0,1.2,89
6.0,1.35,87
6.0,1.5,99
6.15,-1.5,35
6.15,-1.35,35
6.15,-1.2,39
6.15,-1.05,43
6.15,-0.9,43
6.15,-0.75,43
6.15,-0.6,42
6.15,-0.45,47
6.15,-0.3,241
6.15,-0.15,84
6.15,0.0,222
6.15,0.15,71
6.15,0.3,70
6.15,0.45,18
6.15,0.6,64
6.15,0.75,121
6.15,0.9,139
6.15,1.05,122
6.15,1.2,117
6.15,1.35,112
6.15,1.5,110
6.3,-1.5,65
6.3,-1.35,65
6.3,-1.2,65
6.3,-1.05,39
6.3,-0.9,66
6.3,-0.75,66
6.3,-0.6,70
6.3,-0.45,71
6.3,-0.3,60
6.3,-0.15,46
6.3,0.0,44
6.3,0.15,44
6.3,0.3,10
6.3,0.45,53
6.3,0.6,162
6.3,0.75,210
6.3,0.9,208
6.3,1.05,141
6.3,1.2,124
6.3,1.35,121
6.3,1.5,120
6.45,-1.5,82
6.45,-1.35,63
6.45,-1.2,63
6.45,-1.05,73
6.45,-0.9,73
6.45,-0.75,55
6.45,-0.6,69
6.45,-0.45,82
6.45,-0.3,104
6.45,-0.15,68
6.45,0.0,69
6.45,0.15,53
6.45,0.3,80
6.45,0.45,125
6.45,0.6,148
6.45,0.75,144
6.45,0.9,53
6.45,1.05,96
6.45,1.2,120
6.45,1.35,124
6.45,1.5,124
6.6,-1.5,105
6.6,-1.35,89
6.6,-1.2,74
6.6,-1.05,74
6.6,-0.9,84
6.6,-0.75,87
6.6,-0.6,86
6.6,-0.45,85
6.6,-0.3,65
6.6,-0.15,185
6.6,0.0,50
6.6,0.15,41
6.6,0.3,46
6.6,0.45,98
6.6,0.6,187
6.6,0.75,117
6.6,0.9,48
6.6,1.05,85
6.6,1.2,112
6.6,1.35,121
6.6,1.5,113
6.75,-1.5,107
6.75,-1.35,107
6.75,-1.2,111
6.75,-1.05,110
6.75,-0.9,108
6.75,-0.75,94
6.75,-0.6,88
6.75,-0.45,56
6.75,-0.3,33
6.75,-0.15,76
6.75,0.0,120
6.75,0.15,8
6.75,0.3,41
6.75,0.45,8
6.75,0.6,60
6.75,0.75,65
6.75,0.9,74
6.75,1.05,74
6.75,1.2,77
6.75,1.35,94
6.75,1.5,81
6.9,-1.5,83
6.9,-1.35,83
6.9,-1.2,84
6.9,-1.05,83
6.9,-0.9,86
6.9,-0.75,87
6.9,-0.6,90
6.9,-0.45,77
6.9,-0.3,96
6.9,-0.15,98
6.9,0.0,82
6.9,0.15,98
6.9,0.3,81
6.9,0.45,124
6.9,0.6,53
6.9,0.75,106
6.9,0.9,90
6.9,1.05,65
6.9,1.2,72
6.9,1.35,73
6.9,1.5,70
7.05,-1.5,82
7.05,-1.35,83
7.05,-1.2,83
7.05,-1.05,85
7.05,-0.9,106
7.05,-0.75,109
7.05,-0.6,116
7.05,-0.45,133
7.05,-0.3,145
7.05,-0.15,118
7.05,0.0,100
7.05,0.15,49
7.05,0.3,28
7.05,0.45,56
7.05,0.6,53
7.05,0.75,37
7.05,0.9,52
7.05,1.05,45
7.05,1.2,53
7.05,1.35,53
7.05,1.5,53
7.2,-1.5,76
7.2,-1.35,71
7.2,-1.2,71
7.2,-1.05,67
7.2,-0.9,68
7.2,-0.75,70
7.2,-0.6,87
7.2,-0.45,103
7.2,-0.3,18
7.2,-0.15,61
7.2,0.0,11
7.2,0.15,78
7.2,0.3,13
7.2,0.45,15
7.2,0.6,4
7.2,0.75,15
7.2,0.9,41
7.2,1.05,47
7.2,1.2,53
7.2,1.35,53
7.2,1.5,53
7.35,-1.5,64
7.35,-1.35,65
7.35,-1.2,64
7.35,-1.05,64
7.35,-0.9,59
7.35,-0.75,57
7.35,-0.6,53
7.35,-0.45,47
7.35,-0.3,51
7.35,-0.15,118
7.35,0.0,24
7.35,0.15,28
7.35,0.3,41
7.35,0.45,9
7.35,0.6,3
7.35,0.75,30
7.35,0.9,46
7.35,1.05,55
7.35,1.2,68
7.35,1.35,68
7.35,1.5,68
7.5,-1.5,74
7.5,-1.35,58
7.5,-1.2,58
7.5,-1.05,52
7.5,-0.9,37
7.5,-0.75,42
7.5,-0.6,42
7.5,-0.45,45
7.5,-0.3,66
7.5,-0.15,43
7.5,0.0,0
7.5,0.15,33
7.5,0.3,142
7.5,0.45,0
7.5,0.6,15
7.5,0.75,142
7.5,0.9,104
7.5,1.05,79
7.5,1.2,75
7.5,1.35,91
7.5,1.5,71
7.65,-1.5,113
7.65,-1.35,100
7.65,-1.2,100
7.65,-1.05,100
7.65,-0.9,99
7.65,-0.75,98
7.65,-0.6,98
7.65,-0.45,90
7.65,-0.3,43
7.65,-0.15,49
7.65,0.0,15
7.65,0.15,102
7.65,0.3,99
7.65,0.45,69
7.65,0.6,113
7.65,0.75,125
7.65,0.9,114
7.65,1.05,129
7.65,1.2,128
7.65,1.35,123
7.65,1.5,122
7.8,-1.5,139
7.8,-1.35,137
7.8,-1.2,155
7.8,-1.05,122
7.8,-0.9,122
7.8,-0.75,113
7.8,-0.6,113
7.8,-0.45,98
7.8,-0.3,77
7.8,-0.15,56
7.8,0.0,15
7.8,0.15,46
7.8,0.3,64
7.8,0.45,83
7.8,0.6,115
7.8,0.75,133
7.8,0.9,135
7.8,1.05,129
7.8,1.2,126
7.8,1.35,125
7.8,1.5,123
7.95,-1.5,154
7.95,-1.35,154
7.95,-1.2,152
7.95,-1.05,162
7.95,-0.9,155
7.95,-0.75,145
7.95,-0.6,123
7.95,-0.45,111
7.95,-0.3,151
7.95,-0.15,15
7.95,0.0,122
7.95,0.15,15
7.95,0.3,78
7.95,0.45,105
7.95,0.6,252
7.95,0.75,138
7.95,0.9,108
7.95,1.05,113
7.95,1.2,106
7.95,1.35,105
7.95,1.5,113
8.1,-1.5,121
8.1,-1.35,121
8.1,-1.2,113
8.1,-1.05,113
8.1,-0.9,95
8.1,-0.75,95
8.1,-0.6,64
8.1,-0.45,69
8.1,-0.3,213
8.1,-0.15,22
8.1,0.0,48
8.1,0.15,37
8.1,0.3,55
8.1,0.45,61
8.1,0.6,12
8.1,0.75,94
8.1,0.9,97
8.1,1.05,90
8.1,1.2,104
8.1,1.35,90
8.1,1.5,104
8.25,-1.5,121
8.25,-1.35,139
8.25,-1.2,145
8.25,-1.05,128
8.25,-0.9,137
8.25,-0.75,110
8.25,-0.6,62
8.25,-0.45,24
8.25,-0.3,17
8.25,-0.15,82
8.25,0.0,45
8.25,0.15,25
8.25,0.3,179
8.25,0.45,157
8.25,0.6,89
8.25,0.75,66
8.25,0.9,73
8.25,1.05,86
8.25,1.2,87
8.25,1.35,86
8.25,1.5,102
8.4,-1.5,121
8.4,-1.35,125
8.4,-1.2,137
8.4,-1.05,160
8.4,-0.9,205
8.4,-0.75,255
8.4,-0.6,92
8.4,-0.45,17
8.4,-0.3,25
8.4,-0.15,61
8.4,0.0,74
8.4,0.15,26
8.4,0.3,160
8.4,0.45,108
8.4,0.6,60
8.4,0.75,66
8.4,0.9,68
8.4,1.05,86
8.4,1.2,86
8.4,1.35,88
8.4,1.5,88
8.55,-1.5,121
8.55,-1.35,125
8.55,-1.2,139
8.55,-1.05,166
8.55,-0.9,229
8.55,-0.75,255
8.55,-0.6,144
8.55,-0.45,45
8.55,-0.3,10
8.55,-0.15,62
8.55,0.0,136
8.55,0.15,109
8.55,0.3,62
8.55,0.45,52
8.55,0.6,23
8.55,0.75,53
8.55,0.9,84
8.55,1.05,89
8.55,1.2,89
8.55,1.35,103
8.55,1.5,85
8.7,-1.5,126
8.7,-1.35,133
8.7,-1.2,144
8.7,-1.05,175
8.7,-0.9,196
8.7,-0.75,199
8.7,-0.6,183
8.7,-0.45,156
8.7,-0.3,175
8.7,-0.15,8
8.7,0.0,35
8.7,0.15,208
8.7,0.3,27
8.7,0.45,158
8.7,0.6,174
8.7,0.75,125
8.7,0.9,126
8.7,1.05,118
8.7,1.2,106
8.7,1.35,74
8.7,1.5,71
8.85,-1.5,142
8.85,-1.35,147
8.85,-1.2,169
8.85,-1.05,175
8.85,-0.9,183
8.85,-0.75,189
8.85,-0.6,208
8.85,-0.45,224
8.85,-0.3,120
8.85,-0.15,60
8.85,0.0,94
8.85,0.15,144
8.85,0.3,143
8.85,0.45,109
8.85,0.6,74
8.85,0.75,248
8.85,0.9,155
8.85,1.05,114
8.85,1.2,104
8.85,1.35,84
8.85,1.5,82
9.0,-1.5,142
9.0,-1.35,146
9.0,-1.2,166
9.0,-1.05,170
9.0,-0.9,164
9.0,-0.75,158
9.0,-0.6,133
9.0,-0.45,101
9.0,-0.3,43
9.0,-0.15,42
9.0,0.0,27
9.0,0.15,32
9.0,0.3,255
9.0,0.45,115
9.0,0.6,68
9.0,0.75,85
9.0,0.9,97
9.0,1.05,99
9.0,1.2,94
9.0,1.35,94
9.0,1.5,93
9.15,-1.5,147
9.15,-1.35,147
9.15,-1.2,143
9.15,-1.05,143
9.15,-0.9,143
9.15,-0.75,121
9.15,-0.6,116
9.15,-0.45,84
9.15,-0.3,69
9.15,-0.15,63
9.15,0.0,52
9.15,0.15,164
9.15,0.3,101
9.15,0.45,78
9.15,0.6,33
9.15,0.75,53
9.15,0.9,71
9.15,1.05,78
9.15,1.2,79
9.15,1.35,79
9.15,1.5,79
9.3,-1.5,202
9.3,-1.35,200
9.3,-1.2,196
9.3,-1.05,170
9.3,-0.9,159
9.3,-0.75,126
9.3,-0.6,133
9.3,-0.45,121
9.3,-0.3,38
9.3,-0.15,249
9.3,0.0,65
9.3,0.15,58
9.3,0.3,108
9.3,0.45,53
9.3,0.6,61
9.3,0.75,164
9.3,0.9,73
9.3,1.05,83
9.3,1.2,83
9.3,1.35,83
9.3,1.5,83
9.45,-1.5,198
9.45,-1.35,170
9.45,-1.2,151
9.45,-1.05,151
9.45,-0.9,151
9.45,-0.75,154
9.45,-0.6,171
9.45,-0.45,160
9.45,-0.3,72
9.45,-0.15,178
9.45,0.0,204
9.45,0.15,29
9.45,0.3,63
9.45,0.45,135
9.45,0.6,181
9.45,0.75,109
9.45,0.9,84
9.45,1.05,82
9.45,1.2,83
9.45,1.35,83
9.45,1.5,83
9.6,-1.5,161
9.6,-1.35,162
9.6,-1.2,163
9.6,-1.05,166
9.6,-0.9,169
9.6,-0.75,176
9.6,-0.6,178
9.6,-0.45,179
9.6,-0.3,149
9.6,-0.15,211
9.6,0.0,199
9.6,0.15,66
9.6,0.3,173
9.6,0.45,138
9.6,0.6,139
9.6,0.75,75
9.6,0.9,66
9.6,1.05,83
9.6,1.2,83
9.6,1.35,73
9.6,1.5,73
9.75,-1.5,161
9.75,-1.35,162
9.75,-1.2,164
9.75,-1.05,166
9.75,-0.9,171
9.75,-0.75,180
9.75,-0.6,203
9.75,-0.45,193
9.75,-0.3,239
9.75,-0.15,59
9.75,0.0,170
9.75,0.15,189
9.75,0.3,255
9.75,0.45,104
9.75,0.6,112
9.75,0.75,66
9.75,0.9,42
9.75,1.05,66
9.75,1.2,76
9.75,1.35,71
9.75,1.5,72
9.9,-1.5,159
9.9,-1.35,159
9.9,-1.2,160
9.9,-1.05,162
9.9,-0.9,165
9.9,-0.75,170
9.9,-0.6,184
9.9,-0.45,231
9.9,-0.3,238
9.9,-0.15,71
9.9,0.0,30
9.9,0.15,222
9.9,0.3,93
9.9,0.45,52
9.9,0.6,95
9.9,0.75,68
9.9,0.9,67
9.9,1.05,74
9.9,1.2,65
9.9,1.35,65
9.9,1.5,66
10.05,-1.5,159
10.05,-1.35,160
10.05,-1.2,152
10.05,-1.05,150
10.05,-0.9,153
10.05,-0.75,129
10.05,-0.6,95
10.05,-0.45,78
10.05,-0.3,126
10.05,-0.15,82
10.05,0.0,76
10.05,0.15,150
10.05,0.3,240
10.05,0.45,173
10.05,0.6,108
10.05,0.75,83
10.05,0.9,73
10.05,1.05,74
10.05,1.2,65
10.05,1.35,76
10.05,1.5,63
10.2,-1.5,160
10.2,-1.35,158
10.2,-1.2,155
10.2,-1.05,150
10.2,-0.9,143
10.2,-0.75,112
10.2,-0.6,85
10.2,-0.45,76
10.2,-0.3,92
10.2,-0.15,64
10.2,0.0,31
10.2,0.15,53
10.2,0.3,67
10.2,0.45,119
10.2,0.6,78
10.2,0.75,67
10.2,0.9,72
10.2,1.05,66
10.2,1.2,67
10.2,1.35,68
10.2,1.5,57
10.35,-1.5,134
10.35,-1.35,124
10.35,-1.2,140
10.35,-1.05,121
10.35,-0.9,124
10.35,-0.75,116
10.35,-0.6,97
10.35,-0.45,84
10.35,-0.3,159
10.35,-0.15,83
10.35,0.0,33
10.35,0.15,23
10.35,0.3,111
10.35,0.45,118
10.35,0.6,21
10.35,0.75,41
10.35,0.9,56
10.35,1.05,66
10.35,1.2,71
10.35,1.35,58
10.35,1.5,59
10.5,-1.5,128
10.5,-1.35,128
10.5,-1.2,114
10.5,-1.05,115
10.5,-0.9,118
10.5,-0.75,109
10.5,-0.6,101
10.5,-0.45,20
10.5,-0.3,116
10.5,-0.15,64
10.5,0.0,38
10.5,0.15,52
10.5,0.3,49
10.5,0.45,74
10.5,0.6,39
10.5,0.75,46
10.5,0.9,62
10.5,1.05,64
10.5,1.2,66
10.5,1.35,71
10.5,1.5,60
10.65,-1.5,95
10.65,-1.35,96
10.65,-1.2,98
10.65,-1.05,102
10.65,-0.9,122
10.65,-0.75,144
10.65,-0.6,149
10.65,-0.45,182
10.65,-0.3,130
10.65,-0.15,91
10.65,0.0,81
10.65,0.15,138
10.65,0.3,143
10.65,0.45,122
10.65,0.6,95
10.65,0.75,70
10.65,0.9,68
10.65,1.05,70
10.65,1.2,71
10.65,1.35,68
10.65,1.5,68
10.8,-1.5,115
10.8,-1.35,116
10.8,-1.2,121
10.8,-1.05,124
10.8,-0.9,130
10.8,-0.75,141
10.8,-0.6,154
10.8,-0.45,151
10.8,-0.3,14
10.8,-0.15,109
10.8,0.0,121
10.8,0.15,174
10.8,0.3,180
10.8,0.45,116
10.8,0.6,89
10.8,0.75,70
10.8,0.9,80
10.8,1.05,84
10.8,1.2,87
10.8,1.35,89
10.8,1.5,91
10.95,-1.5,133
10.95,-1.35,133
10.95,-1.2,133
10.95,-1.05,133
10.95,-0.9,137
10.95,-0.75,150
10.95,-0.6,175
10.95,-0.45,229
10.95,-0.3,255
10.95,-0.15,157
10.95,0.0,116
10.95,0.15,134
10.95,0.3,164
10.95,0.45,107
10.95,0.6,87
10.95,0.75,70
10.95,0.9,87
10.95,1.05,98
10.95,1.2,105
10.95,1.35,91
10.95,1.5,91
11.1,-1.5,133
11.1,-1.35,132
11.1,-1.2,125
11.1,-1.05,114
11.1,-0.9,104
11.1,-0.75,119
11.1,-0.6,141
11.1,-0.45,161
11.1,-0.3,255
11.1,-0.15,162
11.1,0.0,121
11.1,0.15,160
11.1,0.3,150
11.1,0.45,125
11.1,0.6,84
11.1,0.75,70
11.1,0.9,84
11.1,1.05,90
11.1,1.2,94
11.1,1.35,91
11.1,1.5,91
11.25,-1.5,133
11.25,-1.35,127
11.25,-1.2,95
11.25,-1.05,75
11.25,-0.9,34
11.25,-0.75,33
11.25,-0.6,81
11.25,-0.45,19
11.25,-0.3,178
11.25,-0.15,114
11.25,0.0,111
11.25,0.15,139
11.25,0.3,137
11.25,0.45,154
11.25,0.6,113
11.25,0.75,78
11.25,0.9,90
11.25,1.05,102
11.25,1.2,116
11.25,1.35,122
11.25,1.5,127
11.4,-1.5,103
11.4,-1.35,98
11.4,-1.2,89
11.4,-1.05,71
11.4,-0.9,37
11.4,-0.75,39
11.4,-0.6,119
11.4,-0.45,255
11.4,-0.3,245
11.4,-0.15,26
11.4,0.0,87
11.4,0.15,126
11.4,0.3,107
11.4,0.45,255
11.4,0.6,108
11.4,0.75,25
11.4,0.9,96
11.4,1.05,119
11.4,1.2,130
11.4,1.35,136
11.4,1.5,140
11.55,-1.5,101
11.55,-1.35,96
11.55,-1.2,89
11.55,-1.05,80
11.55,-0.9,73
11.55,-0.75,83
11.55,-0.6,110
11.55,-0.45,124
11.55,-0.3,55
11.55,-0.15,46
11.55,0.0,225
11.55,0.15,133
11.55,0.3,215
11.55,0.45,185
11.55,0.6,148
11.55,0.75,107
11.55,0.9,121
11.55,1.05,134
11.55,1.2,141
11.55,1.35,144
11.55,1.5,147
11.7,-1.5,74
11.7,-1.35,73
11.7,-1.2,57
11.7,-1.05,56
11.7,-0.9,58
11.7,-0.75,63
11.7,-0.6,68
11.7,-0.45,62
11.7,-0.3,32
11.7,-0.15,67
11.7,0.0,98
11.7,0.15,53
11.7,0.3,1
11.7,0.45,74
11.7,0.6,128
11.7,0.75,149
11.7,0.9,150
11.7,1.05,150
11.7,1.2,150
11.7,1.35,149
11.7,1.5,149
11.85,-1.5,58
11.85,-1.35,58
11.85,-1.2,57
11.85,-1.05,56
11.85,-0.9,56
11.85,-0.75,57
11.85,-0.6,46
11.85,-0.45,53
11.85,-0.3,50
11.85,-0.15,53
11.85,0.0,64
11.85,0.15,126
11.85,0.3,149
11.85,0.45,164
11.85,0.6,185
11.85,0.75,193
11.85,0.9,174
11.85,1.05,164
11.85,1.2,159
11.85,1.35,156
11.85,1.5,148
12.0,-1.5,75
12.0,-1.35,76
12.0,-1.2,75
12.0,-1.05,73
12.0,-0.9,54
12.0,-0.75,51
12.0,-0.6,39
12.0,-0.45,48
12.0,-0.3,10
12.0,-0.15,29
12.0,0.0,34
12.0,0.15,171
12.0,0.3,171
12.0,0.45,255
12.0,0.6,255
12.0,0.75,228
12.0,0.9,196
12.0,1.05,182
12.0,1.2,161
12.0,1.35,153
12.0,1.5,147
12.15,-1.5,75
12.15,-1.35,77
12.15,-1.2,71
12.15,-1.05,71
12.15,-0.9,68
12.15,-0.75,62
12.15,-0.6,52
12.15,-0.45,39
12.15,-0.3,36
12.15,-0.15,45
12.15,0.0,37
12.15,0.15,103
12.15,0.3,152
12.15,0.45,204
12.15,0.6,230
12.15,0.75,197
12.15,0.9,188
12.15,1.05,177
12.15,1.2,167
12.15,1.35,149
12.15,1.5,141
12.3,-1.5,68
12.3,-1.35,73
12.3,-1.2,78
12.3,-1.05,97
12.3,-0.9,96
12.3,-0.75,89
12.3,-0.6,73
12.3,-0.45,38
12.3,-0.3,11
12.3,-0.15,134
12.3,0.0,80
12.3,0.15,82
12.3,0.3,112
12.3,0.45,53
12.3,0.6,44
12.3,0.75,130
12.3,0.9,136
12.3,1.05,146
12.3,1.2,137
12.3,1.35,134
12.3,1.5,126
12.45,-1.5,64
12.45,-1.35,72
12.45,-1.2,96
12.45,-1.05,106
12.45,-0.9,114
12.45,-0.75,117
12.45,-0.6,108
12.45,-0.45,81
12.45,-0.3,35
12.45,-0.15,49
12.45,0.0,85
12.45,0.15,66
12.45,0.3,97
12.45,0.45,66
12.45,0.6,65
12.45,0.75,106
12.45,0.9,124
12.45,1.05,113
12.45,1.2,104
12.45,1.35,110
12.45,1.5,101
12.6,-1.5,62
12.6,-1.35,74
12.6,-1.2,93
12.6,-1.05,109
12.6,-0.9,128
12.6,-0.75,150
12.6,-0.6,175
12.6,-0.45,178
12.6,-0.3,158
12.6,-0.15,157
12.6,0.0,88
12.6,0.15,44
12.6,0.3,41
12.6,0.45,79
12.6,0.6,94
12.6,0.75,101
12.6,0.9,110
12.6,1.05,108
12.6,1.2,86
12.6,1.35,71
12.6,1.5,60
12.75,-1.5,30
12.75,-1.35,50
12.75,-1.2,80
12.75,-1.05,110
12.75,-0.9,137
12.75,-0.75,173
12.75,-0.6,236
12.75,-0.45,238
12.75,-0.3,142
12.75,-0.15,117
12.75,0.0,48
12.75,0.15,21
12.75,0.3,11
12.75,0.45,56
12.75,0.6,81
12.75,0.75,94
12.75,0.9,98
12.75,1.05,92
12.75,1.2,73
12.75,1.35,43
12.75,1.5,30
12.9,-1.5,5
12.9,-1.35,25
12.9,-1.2,66
12.9,-1.05,104
12.9,-0.9,134
12.9,-0.75,164
12.9,-0.6,191
12.9,-0.45,172
12.9,-0.3,81
12.9,-0.15,47
12.9,0.0,28
12.9,0.15,42
12.9,0.3,36
12.9,0.45,62
12.9,0.6,78
12.9,0.75,88
12.9,0.9,89
12.9,1.05,78
12.9,1.2,53
12.9,1.35,23
12.9,1.5,5
13.05,-1.5,0
13.05,-1.35,18
13.05,-1.2,60
13.05,-1.05,98
13.05,-0.9,124
13.05,-0.75,143
13.05,-0.6,148
13.05,-0.45,135
13.05,-0.3,101
13.05,-0.15,74
13.05,0.0,61
13.05,0.15,58
13.05,0.3,55
13.05,0.45,72
13.05,0.6,80
13.05,0.75,84
13.05,0.9,83
13.05,1.05,71
13.05,1.2,45
13.05,1.35,14
13.05,1.5,0
