-3.0,-1.5,0
-3.0,-1.35,2
-3.0,-1.2,7
-3.0,-1.05,8
-3.0,-0.9,9
-3.0,-0.75,14
-3.0,-0.6,20
-3.0,-0.45,27
-3.0,-0.3,34
-3.0,-0.15,41
-3.0,0.0,47
-3.0,0.15,51
-3.0,0.3,54
-3.0,0.45,54
-3.0,0.6,51
-3.0,0.75,45
-3.0,0.9,36
-3.0,1.05,24
-3.0,1.2,11
-3.0,1.35,2
-3.0,1.5,0
-2.85,-1.5,2
-2.85,-1.35,5
-2.85,-1.2,6
-2.85,-1.05,6
-2.85,-0.9,6
-2.85,-0.75,9
-2.85,-0.6,17
-2.85,-0.45,25
-2.85,-0.3,33
-2.85,-0.15,41
-2.85,0.0,48
-2.85,0.15,53
-2.85,0.3,56
-2.85,0.45,57
-2.85,0.6,55
-2.85,0.75,49
-2.85,0.9,40
-2.85,1.05,28
-2.85,1.2,15
-2.85,1.35,5
-2.85,1.5,2
-2.7,-1.5,11
-2.7,-1.35,10
-2.7,-1.2,6
-2.7,-1.05,6
-2.7,-0.9,6
-2.7,-0.75,7
-2.7,-0.6,14
-2.7,-0.45,22
-2.7,-0.3,32
-2.7,-0.15,42
-2.7,0.0,50
-2.7,0.15,56
-2.7,0.3,60
-2.7,0.45,61
-2.7,0.6,59
-2.7,0.75,54
-2.7,0.9,46
-2.7,1.05,36
-2.7,1.2,24
-2.7,1.35,15
-2.7,1.5,12
-2.55,-1.5,23
-2.55,-1.35,19
-2.55,-1.2,12
-2.55,-1.05,6
-2.55,-0.9,6
-2.55,-0.75,6
-2.55,-0.6,9
-2.55,-0.45,20
-2.55,-0.3,33
-2.55,-0.15,44
-2.55,0.0,53
-2.55,0.15,60
-2.55,0.3,64
-2.55,0.45,65
-2.55,0.6,65
-2.55,0.75,61
-2.55,0.9,55
-2.55,1.05,46
-2.55,1.2,37
-2.55,1.35,30
-2.55,1.5,30
-2.4,-1.5,33
-2.4,-1.35,28
-2.4,-1.2,22
-2.4,-1.05,15
-2.4,-0.9,6
-2.4,-0.75,6
-2.4,-0.6,6
-2.4,-0.45,22
-2.4,-0.3,37
-2.4,-0.15,49
-2.4,0.0,58
-2.4,0.15,65
-2.4,0.3,69
-2.4,0.45,71
-2.4,0.6,71
-2.4,0.75,68
-2.4,0.9,64
-2.4,1.05,58
-2.4,1.2,58
-2.4,1.35,52
-2.4,1.5,48
-2.25,-1.5,45
-2.25,-1.35,40
-2.25,-1.2,34
-2.25,-1.05,26
-2.25,-0.9,16
-2.25,-0.75,10
-2.25,-0.6,17
-2.25,-0.45,32
-2.25,-0.3,46
-2.25,-0.15,56
-2.25,0.0,64
-2.25,0.15,70
-2.25,0.3,74
-2.25,0.45,76
-2.25,0.6,77
-2.25,0.75,75
-2.25,0.9,82
-2.25,1.05,77
-2.25,1.2,72
-2.25,1.35,68
-2.25,1.5,65
-2.1,-1.5,56
-2.1,-1.35,54
-2.1,-1.2,48
-2.1,-1.05,42
-2.1,-0.9,36
-2.1,-0.75,35
-2.1,-0.6,41
-2.1,-0.45,52
-2.1,-0.3,57
-2.1,-0.15,65
-2.1,0.0,71
-2.1,0.15,76
-2.1,0.3,80
-2.1,0.45,91
-2.1,0.6,92
-2.1,0.75,92
-2.1,0.9,90
-2.1,1.05,87
-2.1,1.2,84
-2.1,1.35,81
-2.1,1.5,79
-1.95,-1.5,69
-1.95,-1.35,69
-1.95,-1.2,66
-1.95,-1.05,62
-1.95,-0.9,59
-1.95,-0.75,59
-1.95,-0.6,62
-1.95,-0.45,66
-1.95,-0.3,71
-1.95,-0.15,81
-1.95,0.0,78
-1.95,0.15,90
-1.95,0.3,94
-1.95,0.45,96
-1.95,0.6,97
-1.95,0.75,97
-1.95,0.9,97
-1.95,1.05,96
-1.95,1.2,94
-1.95,1.35,93
-1.95,1.5,102
-1.8,-1.5,84
-1.8,-1.35,82
-1.8,-1.2,84
-1.8,-1.05,81
-1.8,-0.9,78
-1.8,-0.75,75
-1.8,-0.6,70
-1.8,-0.45,68
-1.8,-0.3,73
-1.8,-0.15,89
-1.8,0.0,99
-1.8,0.15,95
-1.8,0.3,98
-1.8,0.45,100
-1.8,0.6,101
-1.8,0.75,102
-1.8,0.9,102
-1.8,1.05,113
-1.8,1.2,113
-1.8,1.35,113
-1.8,1.5,112
-1.65,-1.5,98
-1.65,-1.35,98
-1.65,-1.2,101
-1.65,-1.05,99
-1.65,-0.9,94
-1.65,-0.75,84
-1.65,-0.6,68
-1.65,-0.45,58
-1.65,-0.3,71
-1.65,-0.15,90
-1.65,0.0,103
-1.65,0.15,110
-1.65,0.3,113
-1.65,0.45,115
-1.65,0.6,116
-1.65,0.75,117
-1.65,0.9,115
-1.65,1.05,117
-1.65,1.2,119
-1.65,1.35,120
-1.65,1.5,120
-1.5,-1.5,112
-1.5,-1.35,113
-1.5,-1.2,115
-1.5,-1.05,118
-1.5,-0.9,112
-1.5,-0.75,99
-1.5,-0.6,78
-1.5,-0.45,62
-1.5,-0.3,77
-1.5,-0.15,98
-1.5,0.0,109
-1.5,0.15,112
-1.5,0.3,117
-1.5,0.45,117
-1.5,0.6,113
-1.5,0.75,117
-1.5,0.9,116
-1.5,1.05,120
-1.5,1.2,140
-1.5,1.35,143
-1.5,1.5,129
-1.35,-1.5,125
-1.35,-1.35,128
-1.35,-1.2,132
-1.35,-1.05,141
-1.35,-0.9,140
-1.35,-0.75,130
-1.35,-0.6,115
-1.35,-0.45,102
-1.35,-0.3,105
-1.35,-0.15,116
-1.35,0.0,118
-1.35,0.15,117
-1.35,0.3,109
-1.35,0.45,106
-1.35,0.6,111
-1.35,0.75,120
-1.35,0.9,130
-1.35,1.05,138
-1.35,1.2,143
-1.35,1.35,132
-1.35,1.5,134
-1.2,-1.5,147
-1.2,-1.35,151
-1.2,-1.2,155
-1.2,-1.05,161
-1.2,-0.9,168
-1.2,-0.75,175
-1.2,-0.6,162
-1.2,-0.45,143
-1.2,-0.3,132
-1.2,-0.15,128
-1.2,0.0,122
-1.2,0.15,108
-1.2,0.3,89
-1.2,0.45,81
-1.2,0.6,93
-1.2,0.75,112
-1.2,0.9,128
-1.2,1.05,141
-1.2,1.2,132
-1.2,1.35,143
-1.2,1.5,146
-1.05,-1.5,158
-1.05,-1.35,161
-1.05,-1.2,169
-1.05,-1.05,178
-1.05,-0.9,198
-1.05,-0.75,212
-1.05,-0.6,198
-1.05,-0.45,160
-1.05,-0.3,136
-1.05,-0.15,130
-1.05,0.0,127
-1.05,0.15,98
-1.05,0.3,48
-1.05,0.45,37
-1.05,0.6,69
-1.05,0.75,103
-1.05,0.9,127
-1.05,1.05,142
-1.05,1.2,153
-1.05,1.35,148
-1.05,1.5,151
-0.9,-1.5,174
-0.9,-1.35,169
-0.9,-1.2,175
-0.9,-1.05,185
-0.9,-0.9,206
-0.9,-0.75,225
-0.9,-0.6,210
-0.9,-0.45,150
-0.9,-0.3,104
-0.9,-0.15,115
-0.9,0.0,133
-0.9,0.15,100
-0.9,0.3,21
-0.9,0.45,7
-0.9,0.6,61
-0.9,0.75,105
-0.9,0.9,132
-0.9,1.05,148
-0.9,1.2,158
-0.9,1.35,164
-0.9,1.5,169
-0.75,-1.5,178
-0.75,-1.35,181
-0.75,-1.2,185
-0.75,-1.05,193
-0.75,-0.9,200
-0.75,-0.75,204
-0.75,-0.6,187
-0.75,-0.45,135
-0.75,-0.3,60
-0.75,-0.15,107
-0.75,0.0,154
-0.75,0.15,137
-0.75,0.3,81
-0.75,0.45,62
-0.75,0.6,94
-0.75,0.75,126
-0.75,0.9,139
-0.75,1.05,157
-0.75,1.2,165
-0.75,1.35,170
-0.75,1.5,173
-0.6,-1.5,178
-0.6,-1.35,181
-0.6,-1.2,198
-0.6,-1.05,200
-0.6,-0.9,201
-0.6,-0.75,194
-0.6,-0.6,185
-0.6,-0.45,166
-0.6,-0.3,150
-0.6,-0.15,185
-0.6,0.0,196
-0.6,0.15,182
-0.6,0.3,158
-0.6,0.45,143
-0.6,0.6,143
-0.6,0.75,155
-0.6,0.9,164
-0.6,1.05,169
-0.6,1.2,173
-0.6,1.35,175
-0.6,1.5,177
-0.45,-1.5,177
-0.45,-1.35,181
-0.45,-1.2,184
-0.45,-1.05,201
-0.45,-0.9,203
-0.45,-0.75,204
-0.45,-0.6,204
-0.45,-0.45,203
-0.45,-0.3,212
-0.45,-0.15,226
-0.45,0.0,218
-0.45,0.15,209
-0.45,0.3,203
-0.45,0.45,193
-0.45,0.6,184
-0.45,0.75,183
-0.45,0.9,181
-0.45,1.05,181
-0.45,1.2,181
-0.45,1.35,181
-0.45,1.5,181
-0.3,-1.5,171
-0.3,-1.35,175
-0.3,-1.2,179
-0.3,-1.05,185
-0.3,-0.9,204
-0.3,-0.75,209
-0.3,-0.6,219
-0.3,-0.45,228
-0.3,-0.3,228
-0.3,-0.15,228
-0.3,0.0,225
-0.3,0.15,234
-0.3,0.3,246
-0.3,0.45,232
-0.3,0.6,216
-0.3,0.75,203
-0.3,0.9,195
-0.3,1.05,190
-0.3,1.2,187
-0.3,1.35,171
-0.3,1.5,171
-0.15,-1.5,166
-0.15,-1.35,169
-0.15,-1.2,174
-0.15,-1.05,179
-0.15,-0.9,189
-0.15,-0.75,209
-0.15,-0.6,226
-0.15,-0.45,255
-0.15,-0.3,255
-0.15,-0.15,231
-0.15,0.0,232
-0.15,0.15,255
-0.15,0.3,255
-0.15,0.45,255
-0.15,0.6,231
-0.15,0.75,212
-0.15,0.9,202
-0.15,1.05,195
-0.15,1.2,191
-0.15,1.35,188
-0.15,1.5,171
0.0,-1.5,159
0.0,-1.35,162
0.0,-1.2,166
0.0,-1.05,171
0.0,-0.9,178
0.0,-0.75,188
0.0,-0.6,208
0.0,-0.45,255
0.0,-0.3,255
0.0,-0.15,228
0.0,0.0,226
0.0,0.15,255
0.0,0.3,255
0.0,0.45,255
0.0,0.6,227
0.0,0.75,212
0.0,0.9,202
0.0,1.05,196
0.0,1.2,177
0.0,1.35,173
0.0,1.5,171
0.15,-1.5,139
0.15,-1.35,141
0.15,-1.2,144
0.15,-1.05,149
0.15,-0.9,156
0.15,-0.75,160
0.15,-0.6,150
0.15,-0.45,126
0.15,-0.3,177
0.15,-0.15,185
0.15,0.0,191
0.15,0.15,202
0.15,0.3,224
0.15,0.45,224
0.15,0.6,219
0.15,0.75,204
0.15,0.9,186
0.15,1.05,180
0.15,1.2,176
0.15,1.35,159
0.15,1.5,156
0.3,-1.5,118
0.3,-1.35,119
0.3,-1.2,121
0.3,-1.05,125
0.3,-0.9,131
0.3,-0.75,137
0.3,-0.6,130
0.3,-0.45,126
0.3,-0.3,81
0.3,-0.15,112
0.3,0.0,126
0.3,0.15,131
0.3,0.3,222
0.3,0.45,197
0.3,0.6,183
0.3,0.75,178
0.3,0.9,171
0.3,1.05,155
0.3,1.2,150
0.3,1.35,147
0.3,1.5,143
0.45,-1.5,90
0.45,-1.35,89
0.45,-1.2,97
0.45,-1.05,98
0.45,-0.9,103
0.45,-0.75,112
0.45,-0.6,117
0.45,-0.45,135
0.45,-0.3,145
0.45,-0.15,118
0.45,0.0,100
0.45,0.15,91
0.45,0.3,151
0.45,0.45,164
0.45,0.6,162
0.45,0.75,158
0.45,0.9,146
0.45,1.05,142
0.45,1.2,138
0.45,1.35,136
0.45,1.5,133
0.6,-1.5,72
0.6,-1.35,69
0.6,-1.2,66
0.6,-1.05,63
0.6,-0.9,66
0.6,-0.75,76
0.6,-0.6,95
0.6,-0.45,134
0.6,-0.3,209
0.6,-0.15,127
0.6,0.0,96
0.6,0.15,91
0.6,0.3,136
0.6,0.45,157
0.6,0.6,144
0.6,0.75,135
0.6,0.9,137
0.6,1.05,125
0.6,1.2,121
0.6,1.35,119
0.6,1.5,127
0.75,-1.5,47
0.75,-1.35,43
0.75,-1.2,38
0.75,-1.05,32
0.75,-0.9,29
0.75,-0.75,38
0.75,-0.6,54
0.75,-0.45,78
0.75,-0.3,80
0.75,-0.15,74
0.75,0.0,78
0.75,0.15,65
0.75,0.3,195
0.75,0.45,188
0.75,0.6,134
0.75,0.75,126
0.75,0.9,120
0.75,1.05,116
0.75,1.2,114
0.75,1.35,113
0.75,1.5,108
0.9,-1.5,37
0.9,-1.35,36
0.9,-1.2,31
0.9,-1.05,18
0.9,-0.9,3
0.9,-0.75,13
0.9,-0.6,18
0.9,-0.45,51
0.9,-0.3,57
0.9,-0.15,56
0.9,0.0,65
0.9,0.15,77
0.9,0.3,133
0.9,0.45,144
0.9,0.6,114
0.9,0.75,102
0.9,0.9,93
0.9,1.05,89
0.9,1.2,103
0.9,1.35,102
0.9,1.5,102
1.05,-1.5,32
1.05,-1.35,29
1.05,-1.2,24
1.05,-1.05,16
1.05,-0.9,7
1.05,-0.75,13
1.05,-0.6,18
1.05,-0.45,41
1.05,-0.3,52
1.05,-0.15,54
1.05,0.0,48
1.05,0.15,55
1.05,0.3,67
1.05,0.45,77
1.05,0.6,78
1.05,0.75,84
1.05,0.9,83
1.05,1.05,79
1.05,1.2,78
1.05,1.35,76
1.05,1.5,75
1.2,-1.5,20
1.2,-1.35,19
1.2,-1.2,18
1.2,-1.05,18
1.2,-0.9,18
1.2,-0.75,24
1.2,-0.6,32
1.2,-0.45,43
1.2,-0.3,46
1.2,-0.15,41
1.2,0.0,48
1.2,0.15,30
1.2,0.3,47
1.2,0.45,56
1.2,0.6,62
1.2,0.75,65
1.2,0.9,63
1.2,1.05,72
1.2,1.2,71
1.2,1.35,71
1.2,1.5,71
1.35,-1.5,20
1.35,-1.35,18
1.35,-1.2,18
1.35,-1.05,21
1.35,-0.9,23
1.35,-0.75,31
1.35,-0.6,35
1.35,-0.45,45
1.35,-0.3,35
1.35,-0.15,35
1.35,0.0,43
1.35,0.15,30
1.35,0.3,42
1.35,0.45,51
1.35,0.6,54
1.35,0.75,54
1.35,0.9,55
1.35,1.05,54
1.35,1.2,57
1.35,1.35,56
1.35,1.5,56
1.5,-1.5,18
1.5,-1.35,18
1.5,-1.2,19
1.5,-1.05,20
1.5,-0.9,23
1.5,-0.75,28
1.5,-0.6,37
1.5,-0.45,44
1.5,-0.3,31
1.5,-0.15,43
1.5,0.0,42
1.5,0.15,44
1.5,0.3,43
1.5,0.45,49
1.5,0.6,48
1.5,0.75,49
1.5,0.9,49
1.5,1.05,49
1.5,1.2,49
1.5,1.35,49
1.5,1.5,49
1.65,-1.5,25
1.65,-1.35,24
1.65,-1.2,24
1.65,-1.05,19
1.65,-0.9,20
1.65,-0.75,23
1.65,-0.6,31
1.65,-0.45,40
1.65,-0.3,11
1.65,-0.15,28
1.65,0.0,29
1.65,0.15,48
1.65,0.3,49
1.65,0.45,43
1.65,0.6,41
1.65,0.75,41
1.65,0.9,43
1.65,1.05,43
1.65,1.2,57
1.65,1.35,59
1.65,1.5,60
1.8,-1.5,27
1.8,-1.35,27
1.8,-1.2,24
1.8,-1.05,19
1.8,-0.9,19
1.8,-0.75,19
1.8,-0.6,19
1.8,-0.45,27
1.8,-0.3,12
1.8,-0.15,11
1.8,0.0,11
1.8,0.15,33
1.8,0.3,42
1.8,0.45,41
1.8,0.6,45
1.8,0.75,44
1.8,0.9,41
1.8,1.05,42
1.8,1.2,43
1.8,1.35,55
1.8,1.5,58
1.95,-1.5,27
1.95,-1.35,24
1.95,-1.2,21
1.95,-1.05,7
1.95,-0.9,6
1.95,-0.75,20
1.95,-0.6,23
1.95,-0.45,27
1.95,-0.3,3
1.95,-0.15,14
1.95,0.0,32
1.95,0.15,42
1.95,0.3,50
1.95,0.45,51
1.95,0.6,42
1.95,0.75,31
1.95,0.9,29
1.95,1.05,33
1.95,1.2,37
1.95,1.35,44
1.95,1.5,46
2.1,-1.5,31
2.1,-1.35,29
2.1,-1.2,24
2.1,-1.05,15
2.1,-0.9,18
2.1,-0.75,33
2.1,-0.6,25
2.1,-0.45,23
2.1,-0.3,15
2.1,-0.15,12
2.1,0.0,55
2.1,0.15,55
2.1,0.3,61
2.1,0.45,56
2.1,0.6,45
2.1,0.75,10
2.1,0.9,14
2.1,1.05,28
2.1,1.2,35
2.1,1.35,43
2.1,1.5,46
2.25,-1.5,36
2.25,-1.35,35
2.25,-1.2,31
2.25,-1.05,32
2.25,-0.9,39
2.25,-0.75,52
2.25,-0.6,68
2.25,-0.45,56
2.25,-0.3,30
2.25,-0.15,27
2.25,0.0,64
2.25,0.15,88
2.25,0.3,65
2.25,0.45,77
2.25,0.6,40
2.25,0.75,4
2.25,0.9,11
2.25,1.05,29
2.25,1.2,42
2.25,1.35,46
2.25,1.5,46
2.4,-1.5,39
2.4,-1.35,39
2.4,-1.2,40
2.4,-1.05,43
2.4,-0.9,49
2.4,-0.75,55
2.4,-0.6,67
2.4,-0.45,68
2.4,-0.3,55
2.4,-0.15,65
2.4,0.0,92
2.4,0.15,220
2.4,0.3,108
2.4,0.45,90
2.4,0.6,69
2.4,0.75,44
2.4,0.9,30
2.4,1.05,37
2.4,1.2,40
2.4,1.35,41
2.4,1.5,46
2.55,-1.5,40
2.55,-1.35,41
2.55,-1.2,55
2.55,-1.05,55
2.55,-0.9,58
2.55,-0.75,63
2.55,-0.6,68
2.55,-0.45,78
2.55,-0.3,91
2.55,-0.15,141
2.55,0.0,79
2.55,0.15,104
2.55,0.3,105
2.55,0.45,88
2.55,0.6,75
2.55,0.75,63
2.55,0.9,54
2.55,1.05,40
2.55,1.2,41
2.55,1.35,43
2.55,1.5,44
2.7,-1.5,60
2.7,-1.35,61
2.7,-1.2,54
2.7,-1.05,56
2.7,-0.9,60
2.7,-0.75,65
2.7,-0.6,78
2.7,-0.45,77
2.7,-0.3,154
2.7,-0.15,63
2.7,0.0,57
2.7,0.15,78
2.7,0.3,81
2.7,0.45,82
2.7,0.6,75
2.7,0.75,48
2.7,0.9,45
2.7,1.05,44
2.7,1.2,40
2.7,1.35,41
2.7,1.5,41
2.85,-1.5,63
2.85,-1.35,75
2.85,-1.2,75
2.85,-1.05,76
2.85,-0.9,76
2.85,-0.75,76
2.85,-0.6,69
2.85,-0.45,58
2.85,-0.3,122
2.85,-0.15,67
2.85,0.0,48
2.85,0.15,47
2.85,0.3,55
2.85,0.45,60
2.85,0.6,66
2.85,0.75,46
2.85,0.9,42
2.85,1.05,37
2.85,1.2,37
2.85,1.35,37
2.85,1.5,37
3.0,-1.5,61
3.0,-1.35,62
3.0,-1.2,75
3.0,-1.05,76
3.0,-0.9,76
3.0,-0.75,74
3.0,-0.6,64
3.0,-0.45,57
3.0,-0.3,63
3.0,-0.15,71
3.0,0.0,61
3.0,0.15,25
3.0,0.3,53
3.0,0.45,52
3.0,0.6,52
3.0,0.75,46
3.0,0.9,45
3.0,1.05,41
3.0,1.2,40
3.0,1.35,40
3.0,1.5,33
3.15,-1.5,57
3.15,-1.35,61
3.15,-1.2,61
3.15,-1.05,71
3.15,-0.9,74
3.15,-0.75,74
3.15,-0.6,59
3.15,-0.45,3
3.15,-0.3,46
3.15,-0.15,76
3.15,0.0,255
3.15,0.15,76
3.15,0.3,47
3.15,0.45,45
3.15,0.6,41
3.15,0.75,41
3.15,0.9,42
3.15,1.05,41
3.15,1.2,23
3.15,1.35,23
3.15,1.5,23
3.3,-1.5,52
3.3,-1.35,66
3.3,-1.2,65
3.3,-1.05,78
3.3,-0.9,71
3.3,-0.75,97
3.3,-0.6,198
3.3,-0.45,63
3.3,-0.3,53
3.3,-0.15,63
3.3,0.0,53
3.3,0.15,29
3.3,0.3,31
3.3,0.45,36
3.3,0.6,38
3.3,0.75,38
3.3,0.9,39
3.3,1.05,40
3.3,1.2,40
3.3,1.35,41
3.3,1.5,41
3.45,-1.5,83
3.45,-1.35,81
3.45,-1.2,78
3.45,-1.05,69
3.45,-0.9,32
3.45,-0.75,42
3.45,-0.6,164
3.45,-0.45,120
3.45,-0.3,116
3.45,-0.15,127
3.45,0.0,11
3.45,0.15,11
3.45,0.3,31
3.45,0.45,36
3.45,0.6,38
3.45,0.75,43
3.45,0.9,48
3.45,1.05,45
3.45,1.2,46
3.45,1.35,46
3.45,1.5,46
3.6,-1.5,80
3.6,-1.35,81
3.6,-1.2,77
3.6,-1.05,72
3.6,-0.9,64
3.6,-0.75,78
3.6,-0.6,79
3.6,-0.45,143
3.6,-0.3,103
3.6,-0.15,126
3.6,0.0,45
3.6,0.15,63
3.6,0.3,60
3.6,0.45,66
3.6,0.6,68
3.6,0.75,53
3.6,0.9,53
3.6,1.05,53
3.6,1.2,53
3.6,1.35,47
3.6,1.5,46
3.75,-1.5,40
3.75,-1.35,54
3.75,-1.2,61
3.75,-1.05,57
3.75,-0.9,66
3.75,-0.75,57
3.75,-0.6,49
3.75,-0.45,160
3.75,-0.3,85
3.75,-0.15,35
3.75,0.0,70
3.75,0.15,128
3.75,0.3,65
3.75,0.45,77
3.75,0.6,75
3.75,0.75,56
3.75,0.9,49
3.75,1.05,48
3.75,1.2,47
3.75,1.35,47
3.75,1.5,47
3.9,-1.5,33
3.9,-1.35,33
3.9,-1.2,45
3.9,-1.05,46
3.9,-0.9,51
3.9,-0.75,49
3.9,-0.6,44
3.9,-0.45,51
3.9,-0.3,20
3.9,-0.15,24
3.9,0.0,138
3.9,0.15,122
3.9,0.3,65
3.9,0.45,63
3.9,0.6,57
3.9,0.75,57
3.9,0.9,57
3.9,1.05,48
3.9,1.2,47
3.9,1.35,47
3.9,1.5,46
4.05,-1.5,54
4.05,-1.35,37
4.05,-1.2,37
4.05,-1.05,48
4.05,-0.9,42
4.05,-0.75,29
4.05,-0.6,68
4.05,-0.45,133
4.05,-0.3,41
4.05,-0.15,57
4.05,0.0,83
4.05,0.15,43
4.05,0.3,43
4.05,0.45,55
4.05,0.6,56
4.05,0.75,57
4.05,0.9,57
4.05,1.05,46
4.05,1.2,46
4.05,1.35,46
4.05,1.5,46
4.2,-1.5,63
4.2,-1.35,63
4.2,-1.2,59
4.2,-1.05,54
4.2,-0.9,39
4.2,-0.75,59
4.2,-0.6,153
4.2,-0.45,65
4.2,-0.3,58
4.2,-0.15,158
4.2,0.0,4
4.2,0.15,50
4.2,0.3,41
4.2,0.45,37
4.2,0.6,43
4.2,0.75,45
4.2,0.9,32
4.2,1.05,31
4.2,1.2,41
4.2,1.35,41
4.2,1.5,41
4.35,-1.5,63
4.35,-1.35,63
4.35,-1.2,63
4.35,-1.05,57
4.35,-0.9,38
4.35,-0.75,42
4.35,-0.6,84
4.35,-0.45,54
4.35,-0.3,52
4.35,-0.15,41
4.35,0.0,75
4.35,0.15,42
4.35,0.3,8
4.35,0.45,13
4.35,0.6,26
4.35,0.75,29
4.35,0.9,30
4.35,1.05,30
4.35,1.2,30
4.35,1.35,30
4.35,1.5,30
4.5,-1.5,63
4.5,-1.35,63
4.5,-1.2,63
4.5,-1.05,62
4.5,-0.9,35
4.5,-0.75,28
4.5,-0.6,1
4.5,-0.45,58
4.5,-0.3,85
4.5,-0.15,29
4.5,0.0,103
4.5,0.15,25
4.5,0.3,40
4.5,0.45,43
4.5,0.6,41
4.5,0.75,45
4.5,0.9,45
4.5,1.05,43
4.5,1.2,43
4.5,1.35,45
4.5,1.5,30
4.65,-1.5,67
4.65,-1.35,70
4.65,-1.2,78
4.65,-1.05,112
4.65,-0.9,207
4.65,-0.75,167
4.65,-0.6,49
4.65,-0.45,85
4.65,-0.3,42
4.65,-0.15,2
4.65,0.0,98
4.65,0.15,135
4.65,0.3,28
4.65,0.45,43
4.65,0.6,45
4.65,0.75,45
4.65,0.9,45
4.65,1.05,45
4.65,1.2,45
4.65,1.35,45
4.65,1.5,45
4.8,-1.5,68
4.8,-1.35,73
4.8,-1.2,95
4.8,-1.05,107
4.8,-0.9,156
4.8,-0.75,125
4.8,-0.6,100
4.8,-0.45,76
4.8,-0.3,84
4.8,-0.15,16
4.8,0.0,24
4.8,0.15,6
4.8,0.3,36
4.8,0.45,45
4.8,0.6,45
4.8,0.75,43
4.8,0.9,43
4.8,1.05,43
4.8,1.2,43
4.8,1.35,43
4.8,1.5,44
4.95,-1.5,75
4.95,-1.35,78
4.95,-1.2,97
4.95,-1.05,100
4.95,-0.9,96
4.95,-0.75,66
4.95,-0.6,46
4.95,-0.45,90
4.95,-0.3,77
4.95,-0.15,28
4.95,0.0,17
4.95,0.15,6
4.95,0.3,14
4.95,0.45,23
4.95,0.6,27
4.95,0.75,45
4.95,0.9,44
4.95,1.05,45
4.95,1.2,45
4.95,1.35,50
4.95,1.5,50
5.1,-1.5,90
5.1,-1.35,109
5.1,-1.2,109
5.1,-1.05,91
5.1,-0.9,88
5.1,-0.75,71
5.1,-0.6,129
5.1,-0.45,79
5.1,-0.3,32
5.1,-0.15,53
5.1,0.0,31
5.1,0.15,40
5.1,0.3,34
5.1,0.45,43
5.1,0.6,50
5.1,0.75,52
5.1,0.9,53
5.1,1.05,53
5.1,1.2,53
5.1,1.35,49
5.1,1.5,49
5.25,-1.5,95
5.25,-1.35,94
5.25,-1.2,103
5.25,-1.05,109
5.25,-0.9,102
5.25,-0.75,78
5.25,-0.6,98
5.25,-0.45,57
5.25,-0.3,42
5.25,-0.15,33
5.25,0.0,57
5.25,0.15,0
5.25,0.3,51
5.25,0.45,62
5.25,0.6,68
5.25,0.75,69
5.25,0.9,69
5.25,1.05,68
5.25,1.2,68
5.25,1.35,63
5.25,1.5,63
5.4,-1.5,85
5.4,-1.35,90
5.4,-1.2,94
5.4,-1.05,99
5.4,-0.9,109
5.4,-0.75,130
5.4,-0.6,129
5.4,-0.45,74
5.4,-0.3,67
5.4,-0.15,70
5.4,0.0,24
5.4,0.15,69
5.4,0.3,135
5.4,0.45,67
5.4,0.6,69
5.4,0.75,80
5.4,0.9,83
5.4,1.05,87
5.4,1.2,87
5.4,1.35,87
5.4,1.5,87
5.55,-1.5,67
5.55,-1.35,79
5.55,-1.2,79
5.55,-1.05,73
5.55,-0.9,78
5.55,-0.75,118
5.55,-0.6,179
5.55,-0.45,101
5.55,-0.3,70
5.55,-0.15,26
5.55,0.0,55
5.55,0.15,95
5.55,0.3,152
5.55,0.45,119
5.55,0.6,94
5.55,0.75,87
5.55,0.9,85
5.55,1.05,84
5.55,1.2,84
5.55,1.35,87
5.55,1.5,87
5.7,-1.5,84
5.7,-1.35,67
5.7,-1.2,65
5.7,-1.05,62
5.7,-0.9,45
5.7,-0.75,18
5.7,-0.6,67
5.7,-0.45,58
5.7,-0.3,81
5.7,-0.15,45
5.7,0.0,54
5.7,0.15,148
5.7,0.3,74
5.7,0.45,119
5.7,0.6,119
5.7,0.75,102
5.7,0.9,103
5.7,1.05,103
5.7,1.2,103
5.7,1.35,103
5.7,1.5,103
5.85,-1.5,89
5.85,-1.35,87
5.85,-1.2,84
5.85,-1.05,64
5.85,-0.9,45
5.85,-0.75,51
5.85,-0.6,45
5.85,-0.45,98
5.85,-0.3,76
5.85,-0.15,55
5.85,0.0,0
5.85,0.15,74
5.85,0.3,86
5.85,0.45,82
5.85,0.6,102
5.85,0.75,103
5.85,0.9,103
5.85,1.05,103
5.85,1.2,103
5.85,1.35,103
5.85,1.5,95
6.0,-1.5,92
6.0,-1.35,91
6.0,-1.2,80
6.0,-1.05,88
6.0,-0.9,81
6.0,-0.75,36
6.0,-0.6,57
6.0,-0.45,85
6.0,-0.3,137
6.0,-0.15,30
6.0,0.0,32
6.0,0.15,225
6.0,0.3,75
6.0,0.45,75
6.0,0.6,71
6.0,0.75,70
6.0,0.9,74
6.0,1.05,69
6.0,1.2,92
6.0,1.35,88
6.0,1.5,88
6.15,-1.5,94
6.15,-1.35,95
6.15,-1.2,96
6.15,-1.05,100
6.15,-0.9,108
6.15,-0.75,125
6.15,-0.6,58
6.15,-0.45,49
6.15,-0.3,77
6.15,-0.15,132
6.15,0.0,5
6.15,0.15,18
6.15,0.3,50
6.15,0.45,46
6.15,0.6,50
6.15,0.75,45
6.15,0.9,49
6.15,1.05,62
6.15,1.2,49
6.15,1.35,63
6.15,1.5,63
6.3,-1.5,93
6.3,-1.35,93
6.3,-1.2,94
6.3,-1.05,94
6.3,-0.9,77
6.3,-0.75,151
6.3,-0.6,76
6.3,-0.45,26
6.3,-0.3,91
6.3,-0.15,55
6.3,0.0,109
6.3,0.15,42
6.3,0.3,30
6.3,0.45,36
6.3,0.6,33
6.3,0.75,34
6.3,0.9,43
6.3,1.05,43
6.3,1.2,36
6.3,1.35,36
6.3,1.5,36
6.45,-1.5,87
6.45,-1.35,90
6.45,-1.2,90
6.45,-1.05,89
6.45,-0.9,91
6.45,-0.75,70
6.45,-0.6,223
6.45,-0.45,59
6.45,-0.3,36
6.45,-0.15,29
6.45,0.0,2
6.45,0.15,28
6.45,0.3,13
6.45,0.45,22
6.45,0.6,22
6.45,0.75,22
6.45,0.9,22
6.45,1.05,33
6.45,1.2,34
6.45,1.35,35
6.45,1.5,35
6.6,-1.5,81
6.6,-1.35,80
6.6,-1.2,71
6.6,-1.05,67
6.6,-0.9,45
6.6,-0.75,37
6.6,-0.6,26
6.6,-0.45,53
6.6,-0.3,27
6.6,-0.15,61
6.6,0.0,48
6.6,0.15,21
6.6,0.3,28
6.6,0.45,25
6.6,0.6,27
6.6,0.75,27
6.6,0.9,26
6.6,1.05,26
6.6,1.2,26
6.6,1.35,26
6.6,1.5,26
6.75,-1.5,75
6.75,-1.35,73
6.75,-1.2,60
6.75,-1.05,47
6.75,-0.9,36
6.75,-0.75,25
6.75,-0.6,44
6.75,-0.45,108
6.75,-0.3,27
6.75,-0.15,105
6.75,0.0,43
6.75,0.15,21
6.75,0.3,26
6.75,0.45,27
6.75,0.6,26
6.75,0.75,26
6.75,0.9,26
6.75,1.05,26
6.75,1.2,26
6.75,1.35,26
6.75,1.5,26
6.9,-1.5,52
6.9,-1.35,67
6.9,-1.2,69
6.9,-1.05,65
6.9,-0.9,64
6.9,-0.75,72
6.9,-0.6,54
6.9,-0.45,19
6.9,-0.3,93
6.9,-0.15,50
6.9,0.0,51
6.9,0.15,34
6.9,0.3,27
6.9,0.45,27
6.9,0.6,31
6.9,0.75,31
6.9,0.9,31
6.9,1.05,27
6.9,1.2,27
6.9,1.35,27
6.9,1.5,27
7.05,-1.5,85
7.05,-1.35,81
7.05,-1.2,97
7.05,-1.05,96
7.05,-0.9,83
7.05,-0.75,94
7.05,-0.6,110
7.05,-0.45,30
7.05,-0.3,97
7.05,-0.15,53
7.05,0.0,28
7.05,0.15,28
7.05,0.3,27
7.05,0.45,31
7.05,0.6,35
7.05,0.75,32
7.05,0.9,32
7.05,1.05,28
7.05,1.2,28
7.05,1.35,28
7.05,1.5,28
7.2,-1.5,90
7.2,-1.35,96
7.2,-1.2,99
7.2,-1.05,102
7.2,-0.9,114
7.2,-0.75,102
7.2,-0.6,34
7.2,-0.45,170
7.2,-0.3,26
7.2,-0.15,56
7.2,0.0,64
7.2,0.15,42
7.2,0.3,35
7.2,0.45,42
7.2,0.6,45
7.2,0.75,37
7.2,0.9,33
7.2,1.05,37
7.2,1.2,37
7.2,1.35,28
7.2,1.5,28
7.35,-1.5,88
7.35,-1.35,88
7.35,-1.2,91
7.35,-1.05,100
7.35,-0.9,116
7.35,-0.75,135
7.35,-0.6,100
7.35,-0.45,69
7.35,-0.3,11
7.35,-0.15,24
7.35,0.0,46
7.35,0.15,53
7.35,0.3,52
7.35,0.45,57
7.35,0.6,48
7.35,0.75,49
7.35,0.9,49
7.35,1.05,46
7.35,1.2,45
7.35,1.35,45
7.35,1.5,45
7.5,-1.5,64
7.5,-1.35,65
7.5,-1.2,59
7.5,-1.05,65
7.5,-0.9,112
7.5,-0.75,216
7.5,-0.6,69
7.5,-0.45,78
7.5,-0.3,11
7.5,-0.15,43
7.5,0.0,40
7.5,0.15,58
7.5,0.3,57
7.5,0.45,52
7.5,0.6,49
7.5,0.75,47
7.5,0.9,43
7.5,1.05,42
7.5,1.2,42
7.5,1.35,42
7.5,1.5,42
7.65,-1.5,52
7.65,-1.35,47
7.65,-1.2,33
7.65,-1.05,9
7.65,-0.9,54
7.65,-0.75,69
7.65,-0.6,0
7.65,-0.45,68
7.65,-0.3,73
7.65,-0.15,40
7.65,0.0,64
7.65,0.15,114
7.65,0.3,59
7.65,0.45,47
7.65,0.6,40
7.65,0.75,43
7.65,0.9,46
7.65,1.05,42
7.65,1.2,41
7.65,1.35,42
7.65,1.5,42
7.8,-1.5,45
7.8,-1.35,40
7.8,-1.2,29
7.8,-1.05,16
7.8,-0.9,37
7.8,-0.75,30
7.8,-0.6,14
7.8,-0.45,2
7.8,-0.3,132
7.8,-0.15,56
7.8,0.0,13
7.8,0.15,34
7.8,0.3,36
7.8,0.45,45
7.8,0.6,38
7.8,0.75,39
7.8,0.9,40
7.8,1.05,40
7.8,1.2,36
7.8,1.35,36
7.8,1.5,36
7.95,-1.5,45
7.95,-1.35,28
7.95,-1.2,26
7.95,-1.05,26
7.95,-0.9,28
7.95,-0.75,22
7.95,-0.6,10
7.95,-0.45,9
7.95,-0.3,42
7.95,-0.15,34
7.95,0.0,39
7.95,0.15,3
7.95,0.3,22
7.95,0.45,36
7.95,0.6,41
7.95,0.75,40
7.95,0.9,40
7.95,1.05,30
7.95,1.2,30
7.95,1.35,30
7.95,1.5,17
8.1,-1.5,26
8.1,-1.35,26
8.1,-1.2,26
8.1,-1.05,26
8.1,-0.9,37
8.1,-0.75,32
8.1,-0.6,19
8.1,-0.45,10
8.1,-0.3,131
8.1,-0.15,148
8.1,0.0,187
8.1,0.15,38
8.1,0.3,31
8.1,0.45,31
8.1,0.6,28
8.1,0.75,28
8.1,0.9,29
8.1,1.05,29
8.1,1.2,30
8.1,1.35,30
8.1,1.5,31
8.25,-1.5,42
8.25,-1.35,43
8.25,-1.2,44
8.25,-1.05,49
8.25,-0.9,48
8.25,-0.75,8
8.25,-0.6,93
8.25,-0.45,56
8.25,-0.3,19
8.25,-0.15,26
8.25,0.0,62
8.25,0.15,45
8.25,0.3,32
8.25,0.45,19
8.25,0.6,19
8.25,0.75,30
8.25,0.9,31
8.25,1.05,31
8.25,1.2,32
8.25,1.35,32
8.25,1.5,32
8.4,-1.5,59
8.4,-1.35,60
8.4,-1.2,66
8.4,-1.05,64
8.4,-0.9,61
8.4,-0.75,71
8.4,-0.6,67
8.4,-0.45,24
8.4,-0.3,63
8.4,-0.15,47
8.4,0.0,74
8.4,0.15,32
8.4,0.3,30
8.4,0.45,45
8.4,0.6,50
8.4,0.75,53
8.4,0.9,55
8.4,1.05,56
8.4,1.2,61
8.4,1.35,62
8.4,1.5,59
8.55,-1.5,79
8.55,-1.35,66
8.55,-1.2,65
8.55,-1.05,62
8.55,-0.9,47
8.55,-0.75,21
8.55,-0.6,85
8.55,-0.45,42
8.55,-0.3,54
8.55,-0.15,139
8.55,0.0,150
8.55,0.15,62
8.55,0.3,30
8.55,0.45,51
8.55,0.6,56
8.55,0.75,75
8.55,0.9,79
8.55,1.05,80
8.55,1.2,76
8.55,1.35,76
8.55,1.5,65
8.7,-1.5,71
8.7,-1.35,70
8.7,-1.2,70
8.7,-1.05,80
8.7,-0.9,80
8.7,-0.75,84
8.7,-0.6,112
8.7,-0.45,59
8.7,-0.3,2
8.7,-0.15,40
8.7,0.0,107
8.7,0.15,114
8.7,0.3,132
8.7,0.45,75
8.7,0.6,79
8.7,0.75,82
8.7,0.9,80
8.7,1.05,68
8.7,1.2,67
8.7,1.35,66
8.7,1.5,65
8.85,-1.5,53
8.85,-1.35,52
8.85,-1.2,51
8.85,-1.05,55
8.85,-0.9,77
8.85,-0.75,92
8.85,-0.6,108
8.85,-0.45,70
8.85,-0.3,45
8.85,-0.15,54
8.85,0.0,30
8.85,0.15,66
8.85,0.3,123
8.85,0.45,115
8.85,0.6,90
8.85,0.75,78
8.85,0.9,73
8.85,1.05,70
8.85,1.2,68
8.85,1.35,67
8.85,1.5,66
9.0,-1.5,48
9.0,-1.35,39
9.0,-1.2,35
9.0,-1.05,28
9.0,-0.9,30
9.0,-0.75,61
9.0,-0.6,62
9.0,-0.45,55
9.0,-0.3,36
9.0,-0.15,62
9.0,0.0,55
9.0,0.15,120
9.0,0.3,255
9.0,0.45,148
9.0,0.6,107
9.0,0.75,92
9.0,0.9,82
9.0,1.05,79
9.0,1.2,78
9.0,1.35,77
9.0,1.5,77
9.15,-1.5,64
9.15,-1.35,60
9.15,-1.2,52
9.15,-1.05,30
9.15,-0.9,28
9.15,-0.75,54
9.15,-0.6,12
9.15,-0.45,55
9.15,-0.3,50
9.15,-0.15,82
9.15,0.0,68
9.15,0.15,112
9.15,0.3,155
9.15,0.45,99
9.15,0.6,80
9.15,0.75,75
9.15,0.9,71
9.15,1.05,71
9.15,1.2,71
9.15,1.35,72
9.15,1.5,72
9.3,-1.5,65
9.3,-1.35,62
9.3,-1.2,59
9.3,-1.05,45
9.3,-0.9,40
9.3,-0.75,37
9.3,-0.6,42
9.3,-0.45,31
9.3,-0.3,48
9.3,-0.15,57
9.3,0.0,74
9.3,0.15,94
9.3,0.3,56
9.3,0.45,35
9.3,0.6,47
9.3,0.75,60
9.3,0.9,61
9.3,1.05,66
9.3,1.2,70
9.3,1.35,72
9.3,1.5,72
9.45,-1.5,69
9.45,-1.35,70
9.45,-1.2,71
9.45,-1.05,75
9.45,-0.9,89
9.45,-0.75,201
9.45,-0.6,126
9.45,-0.45,150
9.45,-0.3,23
9.45,-0.15,77
9.45,0.0,94
9.45,0.15,30
9.45,0.3,45
9.45,0.45,23
9.45,0.6,5
9.45,0.75,33
9.45,0.9,50
9.45,1.05,69
9.45,1.2,82
9.45,1.35,70
9.45,1.5,70
9.6,-1.5,97
9.6,-1.35,98
9.6,-1.2,98
9.6,-1.05,109
9.6,-0.9,116
9.6,-0.75,109
9.6,-0.6,71
9.6,-0.45,66
9.6,-0.3,169
9.6,-0.15,53
9.6,0.0,138
9.6,0.15,68
9.6,0.3,42
9.6,0.45,35
9.6,0.6,24
9.6,0.75,41
9.6,0.9,56
9.6,1.05,65
9.6,1.2,78
9.6,1.35,82
9.6,1.5,85
9.75,-1.5,97
9.75,-1.35,97
9.75,-1.2,99
9.75,-1.05,104
9.75,-0.9,115
9.75,-0.75,141
9.75,-0.6,32
9.75,-0.45,82
9.75,-0.3,115
9.75,-0.15,92
9.75,0.0,62
9.75,0.15,55
9.75,0.3,46
9.75,0.45,46
9.75,0.6,45
9.75,0.75,47
9.75,0.9,51
9.75,1.05,62
9.75,1.2,66
9.75,1.35,69
9.75,1.5,71
9.9,-1.5,101
9.9,-1.35,101
9.9,-1.2,101
9.9,-1.05,96
9.9,-0.9,91
9.9,-0.75,130
9.9,-0.6,121
9.9,-0.45,63
9.9,-0.3,115
9.9,-0.15,88
9.9,0.0,7
9.9,0.15,50
9.9,0.3,55
9.9,0.45,59
9.9,0.6,56
9.9,0.75,53
9.9,0.9,52
9.9,1.05,51
9.9,1.2,51
9.9,1.35,59
9.9,1.5,60
10.05,-1.5,97
10.05,-1.35,82
10.05,-1.2,81
10.05,-1.05,75
10.05,-0.9,75
10.05,-0.75,74
10.05,-0.6,46
10.05,-0.45,49
10.05,-0.3,59
10.05,-0.15,76
10.05,0.0,67
10.05,0.15,31
10.05,0.3,62
10.05,0.45,74
10.05,0.6,70
10.05,0.75,53
10.05,0.9,47
10.05,1.05,44
10.05,1.2,42
10.05,1.35,41
10.05,1.5,40
10.2,-1.5,87
10.2,-1.35,85
10.2,-1.2,84
10.2,-1.05,71
10.2,-0.9,57
10.2,-0.75,76
10.2,-0.6,82
10.2,-0.45,125
10.2,-0.3,117
10.2,-0.15,108
10.2,0.0,81
10.2,0.15,122
10.2,0.3,187
10.2,0.45,101
10.2,0.6,76
10.2,0.75,62
10.2,0.9,55
10.2,1.05,51
10.2,1.2,45
10.2,1.35,43
10.2,1.5,42
10.35,-1.5,103
10.35,-1.35,104
10.35,-1.2,83
10.35,-1.05,74
10.35,-0.9,76
10.35,-0.75,73
10.35,-0.6,64
10.35,-0.45,149
10.35,-0.3,179
10.35,-0.15,100
10.35,0.0,27
10.35,0.15,95
10.35,0.3,112
10.35,0.45,88
10.35,0.6,73
10.35,0.75,64
10.35,0.9,56
10.35,1.05,49
10.35,1.2,49
10.35,1.35,48
10.35,1.5,48
10.5,-1.5,104
10.5,-1.35,103
10.5,-1.2,101
10.5,-1.05,100
10.5,-0.9,98
10.5,-0.75,89
10.5,-0.6,108
10.5,-0.45,136
10.5,-0.3,157
10.5,-0.15,38
10.5,0.0,49
10.5,0.15,60
10.5,0.3,53
10.5,0.45,63
10.5,0.6,70
10.5,0.75,58
10.5,0.9,56
10.5,1.05,54
10.5,1.2,49
10.5,1.35,48
10.5,1.5,48
10.65,-1.5,108
10.65,-1.35,109
10.65,-1.2,110
10.65,-1.05,113
10.65,-0.9,114
10.65,-0.75,93
10.65,-0.6,178
10.65,-0.45,132
10.65,-0.3,91
10.65,-0.15,63
10.65,0.0,60
10.65,0.15,43
10.65,0.3,1
10.65,0.45,39
10.65,0.6,58
10.65,0.75,64
10.65,0.9,52
10.65,1.05,52
10.65,1.2,51
10.65,1.35,48
10.65,1.5,48
10.8,-1.5,108
10.8,-1.35,108
10.8,-1.2,112
10.8,-1.05,115
10.8,-0.9,131
10.8,-0.75,152
10.8,-0.6,215
10.8,-0.45,142
10.8,-0.3,139
10.8,-0.15,75
10.8,0.0,67
10.8,0.15,68
10.8,0.3,45
10.8,0.45,57
10.8,0.6,56
10.8,0.75,62
10.8,0.9,66
10.8,1.05,74
10.8,1.2,75
10.8,1.35,73
10.8,1.5,73
10.95,-1.5,108
10.95,-1.35,108
10.95,-1.2,114
10.95,-1.05,118
10.95,-0.9,126
10.95,-0.75,140
10.95,-0.6,148
10.95,-0.45,147
10.95,-0.3,147
10.95,-0.15,115
10.95,0.0,79
10.95,0.15,70
10.95,0.3,73
10.95,0.45,68
10.95,0.6,72
10.95,0.75,70
10.95,0.9,73
10.95,1.05,75
10.95,1.2,75
10.95,1.35,75
10.95,1.5,75
11.1,-1.5,109
11.1,-1.35,116
11.1,-1.2,116
11.1,-1.05,105
11.1,-0.9,104
11.1,-0.75,93
11.1,-0.6,65
11.1,-0.45,15
11.1,-0.3,108
11.1,-0.15,118
11.1,0.0,107
11.1,0.15,82
11.1,0.3,74
11.1,0.45,74
11.1,0.6,74
11.1,0.75,76
11.1,0.9,77
11.1,1.05,73
11.1,1.2,74
11.1,1.35,74
11.1,1.5,74
11.25,-1.5,110
11.25,-1.35,107
11.25,-1.2,103
11.25,-1.05,96
11.25,-0.9,88
11.25,-0.75,84
11.25,-0.6,81
11.25,-0.45,77
11.25,-0.3,86
11.25,-0.15,154
11.25,0.0,152
11.25,0.15,62
11.25,0.3,73
11.25,0.45,73
11.25,0.6,76
11.25,0.75,74
11.25,0.9,76
11.25,1.05,77
11.25,1.2,78
11.25,1.35,75
11.25,1.5,74
11.4,-1.5,110
11.4,-1.35,104
11.4,-1.2,90
11.4,-1.05,81
11.4,-0.9,58
11.4,-0.75,64
11.4,-0.6,128
11.4,-0.45,111
11.4,-0.3,77
11.4,-0.15,205
11.4,0.0,255
11.4,0.15,53
11.4,0.3,37
11.4,0.45,66
11.4,0.6,76
11.4,0.75,74
11.4,0.9,74
11.4,1.05,78
11.4,1.2,78
11.4,1.35,77
11.4,1.5,76
11.55,-1.5,107
11.55,-1.35,105
11.55,-1.2,100
11.55,-1.05,93
11.55,-0.9,88
11.55,-0.75,116
11.55,-0.6,181
11.55,-0.45,131
11.55,-0.3,119
11.55,-0.15,146
11.55,0.0,152
11.55,0.15,62
11.55,0.3,48
11.55,0.45,71
11.55,0.6,80
11.55,0.75,83
11.55,0.9,78
11.55,1.05,77
11.55,1.2,70
11.55,1.35,74
11.55,1.5,73
11.7,-1.5,110
11.7,-1.35,110
11.7,-1.2,108
11.7,-1.05,106
11.7,-0.9,102
11.7,-0.75,84
11.7,-0.6,109
11.7,-0.45,114
11.7,-0.3,110
11.7,-0.15,118
11.7,0.0,115
11.7,0.15,97
11.7,0.3,83
11.7,0.45,87
11.7,0.6,87
11.7,0.75,82
11.7,0.9,81
11.7,1.05,74
11.7,1.2,71
11.7,1.35,70
11.7,1.5,68
11.85,-1.5,117
11.85,-1.35,110
11.85,-1.2,112
11.85,-1.05,116
11.85,-0.9,115
11.85,-0.75,98
11.85,-0.6,75
11.85,-0.45,92
11.85,-0.3,85
11.85,-0.15,89
11.85,0.0,90
11.85,0.15,90
11.85,0.3,100
11.85,0.45,104
11.85,0.6,91
11.85,0.75,91
11.85,0.9,79
11.85,1.05,74
11.85,1.2,72
11.85,1.35,70
11.85,1.5,68
12.0,-1.5,117
12.0,-1.35,133
12.0,-1.2,135
12.0,-1.05,135
12.0,-0.9,147
12.0,-0.75,201
12.0,-0.6,174
12.0,-0.45,103
12.0,-0.3,98
12.0,-0.15,68
12.0,0.0,87
12.0,0.15,98
12.0,0.3,102
12.0,0.45,105
12.0,0.6,89
12.0,0.75,85
12.0,0.9,85
12.0,1.05,85
12.0,1.2,84
12.0,1.35,66
12.0,1.5,65
12.15,-1.5,122
12.15,-1.35,128
12.15,-1.2,139
12.15,-1.05,142
12.15,-0.9,148
12.15,-0.75,160
12.15,-0.6,98
12.15,-0.45,66
12.15,-0.3,215
12.15,-0.15,121
12.15,0.0,91
12.15,0.15,75
12.15,0.3,61
12.15,0.45,55
12.15,0.6,64
12.15,0.75,73
12.15,0.9,78
12.15,1.05,80
12.15,1.2,80
12.15,1.35,78
12.15,1.5,76
12.3,-1.5,124
12.3,-1.35,131
12.3,-1.2,139
12.3,-1.05,143
12.3,-0.9,142
12.3,-0.75,124
12.3,-0.6,104
12.3,-0.45,106
12.3,-0.3,124
12.3,-0.15,56
12.3,0.0,66
12.3,0.15,67
12.3,0.3,29
12.3,0.45,1
12.3,0.6,33
12.3,0.75,54
12.3,0.9,61
12.3,1.05,75
12.3,1.2,74
12.3,1.35,70
12.3,1.5,67
12.45,-1.5,115
12.45,-1.35,126
12.45,-1.2,135
12.45,-1.05,149
12.45,-0.9,161
12.45,-0.75,143
12.45,-0.6,110
12.45,-0.45,91
12.45,-0.3,155
12.45,-0.15,54
12.45,0.0,67
12.45,0.15,71
12.45,0.3,45
12.45,0.45,26
12.45,0.6,41
12.45,0.75,52
12.45,0.9,57
12.45,1.05,56
12.45,1.2,52
12.45,1.35,47
12.45,1.5,53
12.6,-1.5,93
12.6,-1.35,111
12.6,-1.2,124
12.6,-1.05,142
12.6,-0.9,159
12.6,-0.75,225
12.6,-0.6,168
12.6,-0.45,73
12.6,-0.3,174
12.6,-0.15,124
12.6,0.0,88
12.6,0.15,74
12.6,0.3,62
12.6,0.45,52
12.6,0.6,53
12.6,0.75,56
12.6,0.9,57
12.6,1.05,52
12.6,1.2,44
12.6,1.35,35
12.6,1.5,30
12.75,-1.5,54
12.75,-1.35,75
12.75,-1.2,92
12.75,-1.05,113
12.75,-0.9,130
12.75,-0.75,128
12.75,-0.6,104
12.75,-0.45,82
12.75,-0.3,69
12.75,-0.15,85
12.75,0.0,78
12.75,0.15,77
12.75,0.3,73
12.75,0.45,68
12.75,0.6,59
12.75,0.75,57
12.75,0.9,56
12.75,1.05,48
12.75,1.2,34
12.75,1.35,21
12.75,1.5,14
12.9,-1.5,9
12.9,-1.35,34
12.9,-1.2,74
12.9,-1.05,96
12.9,-0.9,102
12.9,-0.75,90
12.9,-0.6,59
12.9,-0.45,31
12.9,-0.3,57
12.9,-0.15,70
12.9,0.0,71
12.9,0.15,70
12.9,0.3,72
12.9,0.45,64
12.9,0.6,63
12.9,0.75,59
12.9,0.9,52
12.9,1.05,41
12.9,1.2,24
12.9,1.35,8
12.9,1.5,1
13.05,-1.5,1
13.05,-1.35,24
13.05,-1.2,63
13.05,-1.05,84
13.05,-0.9,87
13.05,-0.75,79
13.05,-0.6,66
13.05,-0.45,40
13.05,-0.3,60
13.05,-0.15,68
13.05,0.0,71
13.05,0.15,68
13.05,0.3,67
13.05,0.45,59
13.05,0.6,55
13.05,0.75,50
13.05,0.9,43
13.05,1.05,39
13.05,1.2,22
13.05,1.35,5
13.05,1.5,0
