-3.0,-1.5,0
-3.0,-1.35,0
-3.0,-1.2,11
-3.0,-1.05,28
-3.0,-0.9,40
-3.0,-0.75,50
-3.0,-0.6,53
-3.0,-0.45,50
-3.0,-0.3,45
-3.0,-0.15,26
-3.0,0.0,4
-3.0,0.15,0
-3.0,0.3,11
-3.0,0.45,41
-3.0,0.6,65
-3.0,0.75,76
-3.0,0.9,72
-3.0,1.05,62
-3.0,1.2,33
-3.0,1.35,5
-3.0,1.5,0
-2.85,-1.5,0
-2.85,-1.35,3
-2.85,-1.2,16
-2.85,-1.05,33
-2.85,-0.9,47
-2.85,-0.75,55
-2.85,-0.6,59
-2.85,-0.45,57
-2.85,-0.3,52
-2.85,-0.15,33
-2.85,0.0,10
-2.85,0.15,1
-2.85,0.3,20
-2.85,0.45,54
-2.85,0.6,80
-2.85,0.75,92
-2.85,0.9,97
-2.85,1.05,78
-2.85,1.2,47
-2.85,1.35,17
-2.85,1.5,5
-2.7,-1.5,11
-2.7,-1.35,16
-2.7,-1.2,28
-2.7,-1.05,42
-2.7,-0.9,54
-2.7,-0.75,64
-2.7,-0.6,69
-2.7,-0.45,66
-2.7,-0.3,67
-2.7,-0.15,55
-2.7,0.0,41
-2.7,0.15,39
-2.7,0.3,56
-2.7,0.45,85
-2.7,0.6,108
-2.7,0.75,127
-2.7,0.9,122
-2.7,1.05,103
-2.7,1.2,76
-2.7,1.35,49
-2.7,1.5,34
-2.55,-1.5,27
-2.55,-1.35,32
-2.55,-1.2,41
-2.55,-1.05,53
-2.55,-0.9,63
-2.55,-0.75,71
-2.55,-0.6,77
-2.55,-0.45,87
-2.55,-0.3,85
-2.55,-0.15,82
-2.55,0.0,80
-2.55,0.15,87
-2.55,0.3,103
-2.55,0.45,126
-2.55,0.6,146
-2.55,0.75,162
-2.55,0.9,154
-2.55,1.05,134
-2.55,1.2,109
-2.55,1.35,86
-2.55,1.5,68
-2.4,-1.5,42
-2.4,-1.35,46
-2.4,-1.2,54
-2.4,-1.05,63
-2.4,-0.9,71
-2.4,-0.75,79
-2.4,-0.6,85
-2.4,-0.45,91
-2.4,-0.3,104
-2.4,-0.15,109
-2.4,0.0,113
-2.4,0.15,125
-2.4,0.3,140
-2.4,0.45,165
-2.4,0.6,191
-2.4,0.75,206
-2.4,0.9,190
-2.4,1.05,164
-2.4,1.2,138
-2.4,1.35,112
-2.4,1.5,97
-2.25,-1.5,54
-2.25,-1.35,58
-2.25,-1.2,64
-2.25,-1.05,71
-2.25,-0.9,78
-2.25,-0.75,85
-2.25,-0.6,92
-2.25,-0.45,99
-2.25,-0.3,116
-2.25,-0.15,127
-2.25,0.0,151
-2.25,0.15,151
-2.25,0.3,165
-2.25,0.45,194
-2.25,0.6,240
-2.25,0.75,253
-2.25,0.9,223
-2.25,1.05,186
-2.25,1.2,157
-2.25,1.35,131
-2.25,1.5,117
-2.1,-1.5,70
-2.1,-1.35,73
-2.1,-1.2,71
-2.1,-1.05,76
-2.1,-0.9,82
-2.1,-0.75,88
-2.1,-0.6,95
-2.1,-0.45,104
-2.1,-0.3,126
-2.1,-0.15,152
-2.1,0.0,170
-2.1,0.15,183
-2.1,0.3,187
-2.1,0.45,200
-2.1,0.6,255
-2.1,0.75,255
-2.1,0.9,233
-2.1,1.05,192
-2.1,1.2,160
-2.1,1.35,141
-2.1,1.5,128
-1.95,-1.5,77
-1.95,-1.35,80
-1.95,-1.2,84
-1.95,-1.05,87
-1.95,-0.9,84
-1.95,-0.75,89
-1.95,-0.6,95
-1.95,-0.45,119
-1.95,-0.3,125
-1.95,-0.15,157
-1.95,0.0,191
-1.95,0.15,221
-1.95,0.3,203
-1.95,0.45,187
-1.95,0.6,213
-1.95,0.75,228
-1.95,0.9,207
-1.95,1.05,180
-1.95,1.2,156
-1.95,1.35,142
-1.95,1.5,132
-1.8,-1.5,83
-1.8,-1.35,85
-1.8,-1.2,88
-1.8,-1.05,91
-1.8,-0.9,93
-1.8,-0.75,95
-1.8,-0.6,109
-1.8,-0.45,121
-1.8,-0.3,127
-1.8,-0.15,147
-1.8,0.0,199
-1.8,0.15,255
-1.8,0.3,213
-1.8,0.45,150
-1.8,0.6,155
-1.8,0.75,170
-1.8,0.9,169
-1.8,1.05,170
-1.8,1.2,149
-1.8,1.35,141
-1.8,1.5,135
-1.65,-1.5,102
-1.65,-1.35,104
-1.65,-1.2,105
-1.65,-1.05,107
-1.65,-0.9,107
-1.65,-0.75,113
-1.65,-0.6,113
-1.65,-0.45,107
-1.65,-0.3,102
-1.65,-0.15,115
-1.65,0.0,153
-1.65,0.15,178
-1.65,0.3,96
-1.65,0.45,76
-1.65,0.6,108
-1.65,0.75,137
-1.65,0.9,149
-1.65,1.05,154
-1.65,1.2,137
-1.65,1.35,135
-1.65,1.5,135
-1.5,-1.5,105
-1.5,-1.35,106
-1.5,-1.2,107
-1.5,-1.05,107
-1.5,-0.9,109
-1.5,-0.75,107
-1.5,-0.6,102
-1.5,-0.45,92
-1.5,-0.3,74
-1.5,-0.15,78
-1.5,0.0,109
-1.5,0.15,93
-1.5,0.3,10
-1.5,0.45,32
-1.5,0.6,84
-1.5,0.75,117
-1.5,0.9,132
-1.5,1.05,141
-1.5,1.2,147
-1.5,1.35,136
-1.5,1.5,135
-1.35,-1.5,107
-1.35,-1.35,107
-1.35,-1.2,108
-1.35,-1.05,110
-1.35,-0.9,108
-1.35,-0.75,105
-1.35,-0.6,101
-1.35,-0.45,93
-1.35,-0.3,79
-1.35,-0.15,82
-1.35,0.0,99
-1.35,0.15,88
-1.35,0.3,59
-1.35,0.45,58
-1.35,0.6,82
-1.35,0.75,110
-1.35,0.9,124
-1.35,1.05,133
-1.35,1.2,128
-1.35,1.35,145
-1.35,1.5,145
-1.2,-1.5,108
-1.2,-1.35,112
-1.2,-1.2,111
-1.2,-1.05,109
-1.2,-0.9,107
-1.2,-0.75,105
-1.2,-0.6,102
-1.2,-0.45,99
-1.2,-0.3,99
-1.2,-0.15,106
-1.2,0.0,114
-1.2,0.15,105
-1.2,0.3,57
-1.2,0.45,37
-1.2,0.6,86
-1.2,0.75,117
-1.2,0.9,119
-1.2,1.05,128
-1.2,1.2,135
-1.2,1.35,141
-1.2,1.5,141
-1.05,-1.5,113
-1.05,-1.35,112
-1.05,-1.2,110
-1.05,-1.05,108
-1.05,-0.9,106
-1.05,-0.75,104
-1.05,-0.6,101
-1.05,-0.45,99
-1.05,-0.3,101
-1.05,-0.15,116
-1.05,0.0,132
-1.05,0.15,125
-1.05,0.3,119
-1.05,0.45,97
-1.05,0.6,106
-1.05,0.75,102
-1.05,0.9,108
-1.05,1.05,120
-1.05,1.2,135
-1.05,1.35,141
-1.05,1.5,141
-0.9,-1.5,116
-0.9,-1.35,111
-0.9,-1.2,125
-0.9,-1.05,121
-0.9,-0.9,106
-0.9,-0.75,103
-0.9,-0.6,99
-0.9,-0.45,93
-0.9,-0.3,84
-0.9,-0.15,82
-0.9,0.0,130
-0.9,0.15,174
-0.9,0.3,197
-0.9,0.45,165
-0.9,0.6,119
-0.9,0.75,69
-0.9,0.9,97
-0.9,1.05,122
-0.9,1.2,133
-0.9,1.35,138
-0.9,1.5,138
-0.75,-1.5,128
-0.75,-1.35,114
-0.75,-1.2,113
-0.75,-1.05,126
-0.75,-0.9,119
-0.75,-0.75,102
-0.75,-0.6,96
-0.75,-0.45,85
-0.75,-0.3,69
-0.75,-0.15,4
-0.75,0.0,149
-0.75,0.15,255
-0.75,0.3,255
-0.75,0.45,203
-0.75,0.6,149
-0.75,0.75,103
-0.75,0.9,117
-0.75,1.05,130
-0.75,1.2,135
-0.75,1.35,139
-0.75,1.5,140
-0.6,-1.5,119
-0.6,-1.35,118
-0.6,-1.2,117
-0.6,-1.05,119
-0.6,-0.9,117
-0.6,-0.75,114
-0.6,-0.6,105
-0.6,-0.45,89
-0.6,-0.3,66
-0.6,-0.15,76
-0.6,0.0,184
-0.6,0.15,255
-0.6,0.3,150
-0.6,0.45,169
-0.6,0.6,181
-0.6,0.75,173
-0.6,0.9,154
-0.6,1.05,146
-0.6,1.2,143
-0.6,1.35,142
-0.6,1.5,141
-0.45,-1.5,111
-0.45,-1.35,105
-0.45,-1.2,105
-0.45,-1.05,105
-0.45,-0.9,115
-0.45,-0.75,105
-0.45,-0.6,106
-0.45,-0.45,98
-0.45,-0.3,95
-0.45,-0.15,114
-0.45,0.0,166
-0.45,0.15,195
-0.45,0.3,163
-0.45,0.45,176
-0.45,0.6,224
-0.45,0.75,236
-0.45,0.9,167
-0.45,1.05,145
-0.45,1.2,138
-0.45,1.35,117
-0.45,1.5,112
-0.3,-1.5,111
-0.3,-1.35,110
-0.3,-1.2,105
-0.3,-1.05,105
-0.3,-0.9,112
-0.3,-0.75,111
-0.3,-0.6,110
-0.3,-0.45,111
-0.3,-0.3,115
-0.3,-0.15,128
-0.3,0.0,154
-0.3,0.15,178
-0.3,0.3,238
-0.3,0.45,190
-0.3,0.6,180
-0.3,0.75,126
-0.3,0.9,132
-0.3,1.05,134
-0.3,1.2,131
-0.3,1.35,128
-0.3,1.5,127
-0.15,-1.5,106
-0.15,-1.35,105
-0.15,-1.2,96
-0.15,-1.05,96
-0.15,-0.9,97
-0.15,-0.75,113
-0.15,-0.6,114
-0.15,-0.45,117
-0.15,-0.3,124
-0.15,-0.15,128
-0.15,0.0,127
-0.15,0.15,103
-0.15,0.3,97
-0.15,0.45,139
-0.15,0.6,124
-0.15,0.75,116
-0.15,0.9,123
-0.15,1.05,121
-0.15,1.2,119
-0.15,1.35,117
-0.15,1.5,115
0.0,-1.5,93
0.0,-1.35,92
0.0,-1.2,81
0.0,-1.05,81
0.0,-0.9,81
0.0,-0.75,81
0.0,-0.6,84
0.0,-0.45,87
0.0,-0.3,105
0.0,-0.15,114
0.0,0.0,142
0.0,0.15,89
0.0,0.3,35
0.0,0.45,90
0.0,0.6,102
0.0,0.75,108
0.0,0.9,108
0.0,1.05,103
0.0,1.2,100
0.0,1.35,98
0.0,1.5,98
0.15,-1.5,90
0.15,-1.35,89
0.15,-1.2,92
0.15,-1.05,91
0.15,-0.9,81
0.15,-0.75,84
0.15,-0.6,89
0.15,-0.45,95
0.15,-0.3,97
0.15,-0.15,102
0.15,0.0,114
0.15,0.15,222
0.15,0.3,96
0.15,0.45,76
0.15,0.6,71
0.15,0.75,76
0.15,0.9,80
0.15,1.05,89
0.15,1.2,94
0.15,1.35,90
0.15,1.5,89
0.3,-1.5,91
0.3,-1.35,92
0.3,-1.2,91
0.3,-1.05,84
0.3,-0.9,84
0.3,-0.75,73
0.3,-0.6,83
0.3,-0.45,97
0.3,-0.3,98
0.3,-0.15,90
0.3,0.0,47
0.3,0.15,69
0.3,0.3,68
0.3,0.45,40
0.3,0.6,24
0.3,0.75,51
0.3,0.9,59
0.3,1.05,67
0.3,1.2,74
0.3,1.35,79
0.3,1.5,83
0.45,-1.5,78
0.45,-1.35,77
0.45,-1.2,74
0.45,-1.05,70
0.45,-0.9,63
0.45,-0.75,61
0.45,-0.6,60
0.45,-0.45,105
0.45,-0.3,95
0.45,-0.15,105
0.45,0.0,86
0.45,0.15,66
0.45,0.3,56
0.45,0.45,29
0.45,0.6,0
0.45,0.75,12
0.45,0.9,47
0.45,1.05,53
0.45,1.2,61
0.45,1.35,66
0.45,1.5,69
0.6,-1.5,76
0.6,-1.35,74
0.6,-1.2,75
0.6,-1.05,69
0.6,-0.9,57
0.6,-0.75,31
0.6,-0.6,0
0.6,-0.45,89
0.6,-0.3,221
0.6,-0.15,125
0.6,0.0,47
0.6,0.15,58
0.6,0.3,60
0.6,0.45,43
0.6,0.6,29
0.6,0.75,17
0.6,0.9,38
0.6,1.05,50
0.6,1.2,62
0.6,1.35,67
0.6,1.5,70
0.75,-1.5,80
0.75,-1.35,80
0.75,-1.2,78
0.75,-1.05,73
0.75,-0.9,63
0.75,-0.75,43
0.75,-0.6,29
0.75,-0.45,78
0.75,-0.3,98
0.75,-0.15,76
0.75,0.0,56
0.75,0.15,62
0.75,0.3,69
0.75,0.45,65
0.75,0.6,80
0.75,0.75,71
0.75,0.9,66
0.75,1.05,68
0.75,1.2,70
0.75,1.35,71
0.75,1.5,71
0.9,-1.5,79
0.9,-1.35,79
0.9,-1.2,83
0.9,-1.05,82
0.9,-0.9,79
0.9,-0.75,74
0.9,-0.6,74
0.9,-0.45,76
0.9,-0.3,63
0.9,-0.15,39
0.9,0.0,17
0.9,0.15,55
0.9,0.3,85
0.9,0.45,110
0.9,0.6,134
0.9,0.75,103
0.9,0.9,86
0.9,1.05,75
0.9,1.2,71
0.9,1.35,71
0.9,1.5,70
1.05,-1.5,80
1.05,-1.35,82
1.05,-1.2,88
1.05,-1.05,91
1.05,-0.9,97
1.05,-0.75,106
1.05,-0.6,116
1.05,-0.45,97
1.05,-0.3,45
1.05,-0.15,2
1.05,0.0,25
1.05,0.15,65
1.05,0.3,94
1.05,0.45,129
1.05,0.6,166
1.05,0.75,96
1.05,0.9,84
1.05,1.05,72
1.05,1.2,66
1.05,1.35,66
1.05,1.5,62
1.2,-1.5,77
1.2,-1.35,75
1.2,-1.2,80
1.2,-1.05,91
1.2,-0.9,101
1.2,-0.75,128
1.2,-0.6,176
1.2,-0.45,171
1.2,-0.3,64
1.2,-0.15,41
1.2,0.0,0
1.2,0.15,94
1.2,0.3,246
1.2,0.45,142
1.2,0.6,110
1.2,0.75,83
1.2,0.9,47
1.2,1.05,50
1.2,1.2,57
1.2,1.35,61
1.2,1.5,60
1.35,-1.5,74
1.35,-1.35,74
1.35,-1.2,79
1.35,-1.05,76
1.35,-0.9,93
1.35,-0.75,127
1.35,-0.6,205
1.35,-0.45,223
1.35,-0.3,80
1.35,-0.15,47
1.35,0.0,50
1.35,0.15,73
1.35,0.3,90
1.35,0.45,79
1.35,0.6,79
1.35,0.75,50
1.35,0.9,0
1.35,1.05,30
1.35,1.2,54
1.35,1.35,67
1.35,1.5,53
1.5,-1.5,80
1.5,-1.35,82
1.5,-1.2,68
1.5,-1.05,71
1.5,-0.9,82
1.5,-0.75,111
1.5,-0.6,117
1.5,-0.45,99
1.5,-0.3,62
1.5,-0.15,34
1.5,0.0,37
1.5,0.15,23
1.5,0.3,61
1.5,0.45,52
1.5,0.6,56
1.5,0.75,53
1.5,0.9,27
1.5,1.05,36
1.5,1.2,56
1.5,1.35,65
1.5,1.5,70
1.65,-1.5,86
1.65,-1.35,87
1.65,-1.2,106
1.65,-1.05,89
1.65,-0.9,87
1.65,-0.75,91
1.65,-0.6,87
1.65,-0.45,68
1.65,-0.3,56
1.65,-0.15,47
1.65,0.0,17
1.65,0.15,45
1.65,0.3,32
1.65,0.45,59
1.65,0.6,52
1.65,0.75,56
1.65,0.9,55
1.65,1.05,68
1.65,1.2,64
1.65,1.35,69
1.65,1.5,77
1.8,-1.5,86
1.8,-1.35,85
1.8,-1.2,85
1.8,-1.05,94
1.8,-0.9,78
1.8,-0.75,74
1.8,-0.6,65
1.8,-0.45,46
1.8,-0.3,1
1.8,-0.15,48
1.8,0.0,50
1.8,0.15,57
1.8,0.3,88
1.8,0.45,76
1.8,0.6,53
1.8,0.75,88
1.8,0.9,86
1.8,1.05,86
1.8,1.2,89
1.8,1.35,98
1.8,1.5,94
1.95,-1.5,82
1.95,-1.35,94
1.95,-1.2,94
1.95,-1.05,90
1.95,-0.9,83
1.95,-0.75,63
1.95,-0.6,45
1.95,-0.45,46
1.95,-0.3,44
1.95,-0.15,57
1.95,0.0,81
1.95,0.15,5
1.95,0.3,110
1.95,0.45,150
1.95,0.6,142
1.95,0.75,82
1.95,0.9,60
1.95,1.05,85
1.95,1.2,93
1.95,1.35,96
1.95,1.5,98
2.1,-1.5,80
2.1,-1.35,78
2.1,-1.2,75
2.1,-1.05,86
2.1,-0.9,65
2.1,-0.75,56
2.1,-0.6,41
2.1,-0.45,42
2.1,-0.3,66
2.1,-0.15,133
2.1,0.0,58
2.1,0.15,63
2.1,0.3,75
2.1,0.45,133
2.1,0.6,233
2.1,0.75,67
2.1,0.9,48
2.1,1.05,86
2.1,1.2,98
2.1,1.35,101
2.1,1.5,103
2.25,-1.5,80
2.25,-1.35,81
2.25,-1.2,69
2.25,-1.05,81
2.25,-0.9,70
2.25,-0.75,54
2.25,-0.6,37
2.25,-0.45,19
2.25,-0.3,34
2.25,-0.15,42
2.25,0.0,96
2.25,0.15,112
2.25,0.3,77
2.25,0.45,38
2.25,0.6,128
2.25,0.75,119
2.25,0.9,109
2.25,1.05,111
2.25,1.2,113
2.25,1.35,113
2.25,1.5,113
2.4,-1.5,83
2.4,-1.35,89
2.4,-1.2,96
2.4,-1.05,99
2.4,-0.9,94
2.4,-0.75,70
2.4,-0.6,37
2.4,-0.45,7
2.4,-0.3,20
2.4,-0.15,45
2.4,0.0,132
2.4,0.15,208
2.4,0.3,114
2.4,0.45,57
2.4,0.6,119
2.4,0.75,144
2.4,0.9,113
2.4,1.05,113
2.4,1.2,113
2.4,1.35,113
2.4,1.5,113
2.55,-1.5,91
2.55,-1.35,102
2.55,-1.2,119
2.55,-1.05,143
2.55,-0.9,155
2.55,-0.75,110
2.55,-0.6,52
2.55,-0.45,22
2.55,-0.3,18
2.55,-0.15,49
2.55,0.0,135
2.55,0.15,157
2.55,0.3,76
2.55,0.45,130
2.55,0.6,161
2.55,0.75,119
2.55,0.9,76
2.55,1.05,98
2.55,1.2,111
2.55,1.35,113
2.55,1.5,113
2.7,-1.5,83
2.7,-1.35,107
2.7,-1.2,134
2.7,-1.05,189
2.7,-0.9,255
2.7,-0.75,191
2.7,-0.6,78
2.7,-0.45,34
2.7,-0.3,29
2.7,-0.15,100
2.7,0.0,66
2.7,0.15,66
2.7,0.3,43
2.7,0.45,59
2.7,0.6,164
2.7,0.75,175
2.7,0.9,90
2.7,1.05,96
2.7,1.2,94
2.7,1.35,104
2.7,1.5,105
2.85,-1.5,82
2.85,-1.35,98
2.85,-1.2,124
2.85,-1.05,168
2.85,-0.9,224
2.85,-0.75,163
2.85,-0.6,72
2.85,-0.45,33
2.85,-0.3,44
2.85,-0.15,51
2.85,0.0,39
2.85,0.15,55
2.85,0.3,29
2.85,0.45,28
2.85,0.6,111
2.85,0.75,60
2.85,0.9,50
2.85,1.05,86
2.85,1.2,98
2.85,1.35,99
2.85,1.5,101
3.0,-1.5,72
3.0,-1.35,83
3.0,-1.2,98
3.0,-1.05,120
3.0,-0.9,123
3.0,-0.75,92
3.0,-0.6,47
3.0,-0.45,13
3.0,-0.3,0
3.0,-0.15,34
3.0,0.0,61
3.0,0.15,58
3.0,0.3,49
3.0,0.45,49
3.0,0.6,56
3.0,0.75,52
3.0,0.9,40
3.0,1.05,58
3.0,1.2,64
3.0,1.35,80
3.0,1.5,83
3.15,-1.5,81
3.15,-1.35,86
3.15,-1.2,90
3.15,-1.05,95
3.15,-0.9,86
3.15,-0.75,62
3.15,-0.6,39
3.15,-0.45,13
3.15,-0.3,6
3.15,-0.15,25
3.15,0.0,229
3.15,0.15,66
3.15,0.3,53
3.15,0.45,40
3.15,0.6,64
3.15,0.75,54
3.15,0.9,38
3.15,1.05,34
3.15,1.2,46
3.15,1.35,47
3.15,1.5,48
3.3,-1.5,73
3.3,-1.35,73
3.3,-1.2,67
3.3,-1.05,63
3.3,-0.9,55
3.3,-0.75,39
3.3,-0.6,29
3.3,-0.45,27
3.3,-0.3,6
3.3,-0.15,31
3.3,0.0,145
3.3,0.15,97
3.3,0.3,7
3.3,0.45,42
3.3,0.6,42
3.3,0.75,49
3.3,0.9,36
3.3,1.05,31
3.3,1.2,30
3.3,1.35,29
3.3,1.5,46
3.45,-1.5,85
3.45,-1.35,83
3.45,-1.2,80
3.45,-1.05,55
3.45,-0.9,49
3.45,-0.75,36
3.45,-0.6,35
3.45,-0.45,34
3.45,-0.3,52
3.45,-0.15,96
3.45,0.0,35
3.45,0.15,107
3.45,0.3,28
3.45,0.45,0
3.45,0.6,42
3.45,0.75,48
3.45,0.9,32
3.45,1.05,29
3.45,1.2,31
3.45,1.35,24
3.45,1.5,23
3.6,-1.5,94
3.6,-1.35,94
3.6,-1.2,90
3.6,-1.05,85
3.6,-0.9,63
3.6,-0.75,60
3.6,-0.6,49
3.6,-0.45,27
3.6,-0.3,14
3.6,-0.15,49
3.6,0.0,14
3.6,0.15,132
3.6,0.3,117
3.6,0.45,122
3.6,0.6,45
3.6,0.75,39
3.6,0.9,10
3.6,1.05,29
3.6,1.2,22
3.6,1.35,18
3.6,1.5,18
3.75,-1.5,94
3.75,-1.35,92
3.75,-1.2,75
3.75,-1.05,95
3.75,-0.9,93
3.75,-0.75,91
3.75,-0.6,85
3.75,-0.45,60
3.75,-0.3,0
3.75,-0.15,57
3.75,0.0,46
3.75,0.15,18
3.75,0.3,143
3.75,0.45,74
3.75,0.6,39
3.75,0.75,52
3.75,0.9,32
3.75,1.05,32
3.75,1.2,23
3.75,1.35,24
3.75,1.5,25
3.9,-1.5,102
3.9,-1.35,106
3.9,-1.2,105
3.9,-1.05,105
3.9,-0.9,106
3.9,-0.75,108
3.9,-0.6,113
3.9,-0.45,116
3.9,-0.3,154
3.9,-0.15,81
3.9,0.0,42
3.9,0.15,62
3.9,0.3,64
3.9,0.45,103
3.9,0.6,63
3.9,0.75,41
3.9,0.9,36
3.9,1.05,31
3.9,1.2,32
3.9,1.35,34
3.9,1.5,24
4.05,-1.5,111
4.05,-1.35,111
4.05,-1.2,111
4.05,-1.05,111
4.05,-0.9,105
4.05,-0.75,108
4.05,-0.6,114
4.05,-0.45,134
4.05,-0.3,185
4.05,-0.15,115
4.05,0.0,69
4.05,0.15,63
4.05,0.3,52
4.05,0.45,51
4.05,0.6,64
4.05,0.75,6
4.05,0.9,20
4.05,1.05,23
4.05,1.2,33
4.05,1.35,37
4.05,1.5,32
4.2,-1.5,113
4.2,-1.35,119
4.2,-1.2,119
4.2,-1.05,119
4.2,-0.9,122
4.2,-0.75,118
4.2,-0.6,97
4.2,-0.45,90
4.2,-0.3,64
4.2,-0.15,63
4.2,0.0,27
4.2,0.15,50
4.2,0.3,76
4.2,0.45,56
4.2,0.6,33
4.2,0.75,16
4.2,0.9,0
4.2,1.05,21
4.2,1.2,27
4.2,1.35,32
4.2,1.5,39
4.35,-1.5,97
4.35,-1.35,99
4.35,-1.2,100
4.35,-1.05,101
4.35,-0.9,100
4.35,-0.75,91
4.35,-0.6,66
4.35,-0.45,49
4.35,-0.3,68
4.35,-0.15,114
4.35,0.0,133
4.35,0.15,39
4.35,0.3,136
4.35,0.45,57
4.35,0.6,50
4.35,0.75,54
4.35,0.9,33
4.35,1.05,30
4.35,1.2,35
4.35,1.35,52
4.35,1.5,55
4.5,-1.5,78
4.5,-1.35,75
4.5,-1.2,79
4.5,-1.05,85
4.5,-0.9,94
4.5,-0.75,102
4.5,-0.6,98
4.5,-0.45,56
4.5,-0.3,6
4.5,-0.15,70
4.5,0.0,66
4.5,0.15,59
4.5,0.3,169
4.5,0.45,118
4.5,0.6,69
4.5,0.75,66
4.5,0.9,70
4.5,1.05,57
4.5,1.2,56
4.5,1.35,56
4.5,1.5,73
4.65,-1.5,84
4.65,-1.35,103
4.65,-1.2,127
4.65,-1.05,134
4.65,-0.9,133
4.65,-0.75,189
4.65,-0.6,226
4.65,-0.45,91
4.65,-0.3,39
4.65,-0.15,76
4.65,0.0,69
4.65,0.15,96
4.65,0.3,110
4.65,0.45,66
4.65,0.6,66
4.65,0.75,88
4.65,0.9,77
4.65,1.05,103
4.65,1.2,83
4.65,1.35,85
4.65,1.5,85
4.8,-1.5,79
4.8,-1.35,83
4.8,-1.2,103
4.8,-1.05,111
4.8,-0.9,144
4.8,-0.75,177
4.8,-0.6,194
4.8,-0.45,93
4.8,-0.3,123
4.8,-0.15,36
4.8,0.0,16
4.8,0.15,64
4.8,0.3,79
4.8,0.45,123
4.8,0.6,231
4.8,0.75,136
4.8,0.9,125
4.8,1.05,114
4.8,1.2,113
4.8,1.35,115
4.8,1.5,117
4.95,-1.5,88
4.95,-1.35,76
4.95,-1.2,99
4.95,-1.05,104
4.95,-0.9,109
4.95,-0.75,112
4.95,-0.6,86
4.95,-0.45,73
4.95,-0.3,43
4.95,-0.15,232
4.95,0.0,44
4.95,0.15,49
4.95,0.3,39
4.95,0.45,152
4.95,0.6,116
4.95,0.75,123
4.95,0.9,120
4.95,1.05,117
4.95,1.2,117
4.95,1.35,117
4.95,1.5,117
5.1,-1.5,87
5.1,-1.35,88
5.1,-1.2,94
5.1,-1.05,95
5.1,-0.9,93
5.1,-0.75,70
5.1,-0.6,87
5.1,-0.45,87
5.1,-0.3,80
5.1,-0.15,212
5.1,0.0,75
5.1,0.15,79
5.1,0.3,142
5.1,0.45,86
5.1,0.6,44
5.1,0.75,113
5.1,0.9,105
5.1,1.05,112
5.1,1.2,112
5.1,1.35,110
5.1,1.5,109
5.25,-1.5,94
5.25,-1.35,94
5.25,-1.2,88
5.25,-1.05,87
5.25,-0.9,94
5.25,-0.75,70
5.25,-0.6,87
5.25,-0.45,79
5.25,-0.3,58
5.25,-0.15,68
5.25,0.0,68
5.25,0.15,48
5.25,0.3,29
5.25,0.45,255
5.25,0.6,124
5.25,0.75,110
5.25,0.9,107
5.25,1.05,82
5.25,1.2,82
5.25,1.35,85
5.25,1.5,90
5.4,-1.5,74
5.4,-1.35,73
5.4,-1.2,72
5.4,-1.05,54
5.4,-0.9,54
5.4,-0.75,56
5.4,-0.6,65
5.4,-0.45,76
5.4,-0.3,21
5.4,-0.15,177
5.4,0.0,115
5.4,0.15,101
5.4,0.3,116
5.4,0.45,87
5.4,0.6,166
5.4,0.75,74
5.4,0.9,84
5.4,1.05,82
5.4,1.2,108
5.4,1.35,114
5.4,1.5,105
5.55,-1.5,65
5.55,-1.35,43
5.55,-1.2,54
5.55,-1.05,55
5.55,-0.9,56
5.55,-0.75,58
5.55,-0.6,62
5.55,-0.45,74
5.55,-0.3,12
5.55,-0.15,94
5.55,0.0,59
5.55,0.15,59
5.55,0.3,76
5.55,0.45,1
5.55,0.6,55
5.55,0.75,41
5.55,0.9,45
5.55,1.05,52
5.55,1.2,75
5.55,1.35,87
5.55,1.5,91
5.7,-1.5,36
5.7,-1.35,36
5.7,-1.2,42
5.7,-1.05,42
5.7,-0.9,42
5.7,-0.75,47
5.7,-0.6,63
5.7,-0.45,45
5.7,-0.3,11
5.7,-0.15,121
5.7,0.0,59
5.7,0.15,95
5.7,0.3,255
5.7,0.45,107
5.7,0.6,70
5.7,0.75,48
5.7,0.9,7
5.7,1.05,42
5.7,1.2,67
5.7,1.35,73
5.7,1.5,80
5.85,-1.5,34
5.85,-1.35,40
5.85,-1.2,44
5.85,-1.05,43
5.85,-0.9,16
5.85,-0.75,36
5.85,-0.6,35
5.85,-0.45,43
5.85,-0.3,74
5.85,-0.15,105
5.85,0.0,43
5.85,0.15,148
5.85,0.3,116
5.85,0.45,134
5.85,0.6,66
5.85,0.75,72
5.85,0.9,87
5.85,1.05,113
5.85,1.2,98
5.85,1.35,101
5.85,1.5,100
6.0,-1.5,46
6.0,-1.35,45
6.0,-1.2,44
6.0,-1.05,37
6.0,-0.9,41
6.0,-0.75,39
6.0,-0.6,35
6.0,-0.45,32
6.0,-0.3,42
6.0,-0.15,89
6.0,0.0,79
6.0,0.15,116
6.0,0.3,72
6.0,0.45,184
6.0,0.6,184
6.0,0.75,118
6.0,0.9,180
6.0,1.05,154
6.0,1.2,119
6.0,1.35,109
6.0,1.5,105
6.15,-1.5,48
6.15,-1.35,48
6.15,-1.2,48
6.15,-1.05,47
6.15,-0.9,45
6.15,-0.75,55
6.15,-0.6,35
6.15,-0.45,8
6.15,-0.3,59
6.15,-0.15,89
6.15,0.0,83
6.15,0.15,92
6.15,0.3,255
6.15,0.45,28
6.15,0.6,46
6.15,0.75,112
6.15,0.9,168
6.15,1.05,94
6.15,1.2,112
6.15,1.35,108
6.15,1.5,105
6.3,-1.5,70
6.3,-1.35,51
6.3,-1.2,51
6.3,-1.05,52
6.3,-0.9,53
6.3,-0.75,53
6.3,-0.6,79
6.3,-0.45,68
6.3,-0.3,57
6.3,-0.15,45
6.3,0.0,45
6.3,0.15,21
6.3,0.3,41
6.3,0.45,47
6.3,0.6,101
6.3,0.75,111
6.3,0.9,139
6.3,1.05,108
6.3,1.2,120
6.3,1.35,119
6.3,1.5,107
6.45,-1.5,89
6.45,-1.35,81
6.45,-1.2,77
6.45,-1.05,76
6.45,-0.9,61
6.45,-0.75,65
6.45,-0.6,92
6.45,-0.45,96
6.45,-0.3,116
6.45,-0.15,69
6.45,0.0,69
6.45,0.15,85
6.45,0.3,61
6.45,0.45,155
6.45,0.6,134
6.45,0.75,107
6.45,0.9,128
6.45,1.05,118
6.45,1.2,133
6.45,1.35,121
6.45,1.5,126
6.6,-1.5,89
6.6,-1.35,88
6.6,-1.2,99
6.6,-1.05,82
6.6,-0.9,81
6.6,-0.75,76
6.6,-0.6,26
6.6,-0.45,125
6.6,-0.3,134
6.6,-0.15,164
6.6,0.0,68
6.6,0.15,72
6.6,0.3,25
6.6,0.45,73
6.6,0.6,93
6.6,0.75,103
6.6,0.9,127
6.6,1.05,129
6.6,1.2,132
6.6,1.35,134
6.6,1.5,136
6.75,-1.5,94
6.75,-1.35,94
6.75,-1.2,92
6.75,-1.05,90
6.75,-0.9,81
6.75,-0.75,81
6.75,-0.6,73
6.75,-0.45,44
6.75,-0.3,56
6.75,-0.15,54
6.75,0.0,191
6.75,0.15,169
6.75,0.3,49
6.75,0.45,77
6.75,0.6,96
6.75,0.75,123
6.75,0.9,142
6.75,1.05,141
6.75,1.2,129
6.75,1.35,141
6.75,1.5,151
6.9,-1.5,93
6.9,-1.35,94
6.9,-1.2,94
6.9,-1.05,93
6.9,-0.9,89
6.9,-0.75,75
6.9,-0.6,95
6.9,-0.45,184
6.9,-0.3,50
6.9,-0.15,54
6.9,0.0,89
6.9,0.15,3
6.9,0.3,47
6.9,0.45,77
6.9,0.6,121
6.9,0.75,255
6.9,0.9,180
6.9,1.05,154
6.9,1.2,136
6.9,1.35,129
6.9,1.5,134
7.05,-1.5,86
7.05,-1.35,88
7.05,-1.2,89
7.05,-1.05,89
7.05,-0.9,75
7.05,-0.75,64
7.05,-0.6,73
7.05,-0.45,77
7.05,-0.3,21
7.05,-0.15,72
7.05,0.0,48
7.05,0.15,61
7.05,0.3,15
7.05,0.45,70
7.05,0.6,115
7.05,0.75,176
7.05,0.9,182
7.05,1.05,167
7.05,1.2,164
7.05,1.35,151
7.05,1.5,143
7.2,-1.5,75
7.2,-1.35,80
7.2,-1.2,87
7.2,-1.05,97
7.2,-0.9,98
7.2,-0.75,48
7.2,-0.6,15
7.2,-0.45,33
7.2,-0.3,88
7.2,-0.15,6
7.2,0.0,34
7.2,0.15,21
7.2,0.3,25
7.2,0.45,18
7.2,0.6,30
7.2,0.75,121
7.2,0.9,178
7.2,1.05,152
7.2,1.2,153
7.2,1.35,150
7.2,1.5,149
7.35,-1.5,75
7.35,-1.35,77
7.35,-1.2,107
7.35,-1.05,102
7.35,-0.9,188
7.35,-0.75,145
7.35,-0.6,41
7.35,-0.45,41
7.35,-0.3,45
7.35,-0.15,47
7.35,0.0,47
7.35,0.15,60
7.35,0.3,41
7.35,0.45,55
7.35,0.6,171
7.35,0.75,125
7.35,0.9,111
7.35,1.05,120
7.35,1.2,127
7.35,1.35,131
7.35,1.5,131
7.5,-1.5,72
7.5,-1.35,77
7.5,-1.2,91
7.5,-1.05,112
7.5,-0.9,157
7.5,-0.75,119
7.5,-0.6,53
7.5,-0.45,73
7.5,-0.3,74
7.5,-0.15,56
7.5,0.0,58
7.5,0.15,27
7.5,0.3,62
7.5,0.45,55
7.5,0.6,68
7.5,0.75,51
7.5,0.9,80
7.5,1.05,99
7.5,1.2,97
7.5,1.35,98
7.5,1.5,116
7.65,-1.5,42
7.65,-1.35,46
7.65,-1.2,52
7.65,-1.05,58
7.65,-0.9,54
7.65,-0.75,22
7.65,-0.6,0
7.65,-0.45,0
7.65,-0.3,39
7.65,-0.15,30
7.65,0.0,8
7.65,0.15,128
7.65,0.3,27
7.65,0.45,70
7.65,0.6,59
7.65,0.75,52
7.65,0.9,79
7.65,1.05,71
7.65,1.2,97
7.65,1.35,81
7.65,1.5,82
7.8,-1.5,42
7.8,-1.35,43
7.8,-1.2,52
7.8,-1.05,49
7.8,-0.9,43
7.8,-0.75,27
7.8,-0.6,11
7.8,-0.45,0
7.8,-0.3,105
7.8,-0.15,180
7.8,0.0,57
7.8,0.15,31
7.8,0.3,41
7.8,0.45,64
7.8,0.6,80
7.8,0.75,78
7.8,0.9,60
7.8,1.05,47
7.8,1.2,61
7.8,1.35,62
7.8,1.5,63
7.95,-1.5,37
7.95,-1.35,52
7.95,-1.2,52
7.95,-1.05,49
7.95,-0.9,43
7.95,-0.75,24
7.95,-0.6,31
7.95,-0.45,40
7.95,-0.3,45
7.95,-0.15,23
7.95,0.0,71
7.95,0.15,94
7.95,0.3,70
7.95,0.45,97
7.95,0.6,67
7.95,0.75,61
7.95,0.9,52
7.95,1.05,49
7.95,1.2,47
7.95,1.35,46
7.95,1.5,43
8.1,-1.5,52
8.1,-1.35,52
8.1,-1.2,52
8.1,-1.05,37
8.1,-0.9,38
8.1,-0.75,44
8.1,-0.6,47
8.1,-0.45,73
8.1,-0.3,71
8.1,-0.15,48
8.1,0.0,20
8.1,0.15,34
8.1,0.3,56
8.1,0.45,35
8.1,0.6,41
8.1,0.75,57
8.1,0.9,35
8.1,1.05,41
8.1,1.2,42
8.1,1.35,43
8.1,1.5,44
8.25,-1.5,52
8.25,-1.35,37
8.25,-1.2,37
8.25,-1.05,37
8.25,-0.9,41
8.25,-0.75,47
8.25,-0.6,43
8.25,-0.45,100
8.25,-0.3,0
8.25,-0.15,16
8.25,0.0,27
8.25,0.15,19
8.25,0.3,52
8.25,0.45,43
8.25,0.6,20
8.25,0.75,29
8.25,0.9,25
8.25,1.05,33
8.25,1.2,35
8.25,1.35,28
8.25,1.5,28
8.4,-1.5,37
8.4,-1.35,37
8.4,-1.2,40
8.4,-1.05,40
8.4,-0.9,38
8.4,-0.75,32
8.4,-0.6,28
8.4,-0.45,23
8.4,-0.3,52
8.4,-0.15,4
8.4,0.0,53
8.4,0.15,0
8.4,0.3,9
8.4,0.45,81
8.4,0.6,84
8.4,0.75,22
8.4,0.9,25
8.4,1.05,28
8.4,1.2,30
8.4,1.35,22
8.4,1.5,22
8.55,-1.5,5
8.55,-1.35,5
8.55,-1.2,25
8.55,-1.05,25
8.55,-0.9,25
8.55,-0.75,25
8.55,-0.6,24
8.55,-0.45,15
8.55,-0.3,62
8.55,-0.15,37
8.55,0.0,83
8.55,0.15,38
8.55,0.3,0
8.55,0.45,84
8.55,0.6,23
8.55,0.75,42
8.55,0.9,74
8.55,1.05,71
8.55,1.2,66
8.55,1.35,37
8.55,1.5,37
8.7,-1.5,25
8.7,-1.35,25
8.7,-1.2,25
8.7,-1.05,25
8.7,-0.9,25
8.7,-0.75,26
8.7,-0.6,30
8.7,-0.45,85
8.7,-0.3,56
8.7,-0.15,73
8.7,0.0,83
8.7,0.15,118
8.7,0.3,14
8.7,0.45,252
8.7,0.6,252
8.7,0.75,118
8.7,0.9,98
8.7,1.05,88
8.7,1.2,68
8.7,1.35,67
8.7,1.5,37
8.85,-1.5,10
8.85,-1.35,10
8.85,-1.2,26
8.85,-1.05,26
8.85,-0.9,26
8.85,-0.75,39
8.85,-0.6,19
8.85,-0.45,27
8.85,-0.3,75
8.85,-0.15,140
8.85,0.0,99
8.85,0.15,118
8.85,0.3,61
8.85,0.45,240
8.85,0.6,70
8.85,0.75,100
8.85,0.9,77
8.85,1.05,86
8.85,1.2,88
8.85,1.35,82
8.85,1.5,82
9.0,-1.5,21
9.0,-1.35,20
9.0,-1.2,20
9.0,-1.05,19
9.0,-0.9,17
9.0,-0.75,12
9.0,-0.6,0
9.0,-0.45,53
9.0,-0.3,91
9.0,-0.15,64
9.0,0.0,77
9.0,0.15,124
9.0,0.3,108
9.0,0.45,58
9.0,0.6,62
9.0,0.75,12
9.0,0.9,12
9.0,1.05,35
9.0,1.2,48
9.0,1.35,54
9.0,1.5,56
9.15,-1.5,27
9.15,-1.35,26
9.15,-1.2,26
9.15,-1.05,30
9.15,-0.9,21
9.15,-0.75,26
9.15,-0.6,27
9.15,-0.45,39
9.15,-0.3,90
9.15,-0.15,58
9.15,0.0,30
9.15,0.15,56
9.15,0.3,62
9.15,0.45,60
9.15,0.6,38
9.15,0.75,67
9.15,0.9,47
9.15,1.05,53
9.15,1.2,63
9.15,1.35,68
9.15,1.5,59
9.3,-1.5,52
9.3,-1.35,52
9.3,-1.2,51
9.3,-1.05,37
9.3,-0.9,40
9.3,-0.75,37
9.3,-0.6,36
9.3,-0.45,61
9.3,-0.3,52
9.3,-0.15,91
9.3,0.0,69
9.3,0.15,62
9.3,0.3,44
9.3,0.45,65
9.3,0.6,129
9.3,0.75,245
9.3,0.9,73
9.3,1.05,72
9.3,1.2,72
9.3,1.35,73
9.3,1.5,70
9.45,-1.5,58
9.45,-1.35,58
9.45,-1.2,58
9.45,-1.05,59
9.45,-0.9,59
9.45,-0.75,55
9.45,-0.6,55
9.45,-0.45,91
9.45,-0.3,192
9.45,-0.15,71
9.45,0.0,57
9.45,0.15,28
9.45,0.3,35
9.45,0.45,39
9.45,0.6,124
9.45,0.75,122
9.45,0.9,64
9.45,1.05,71
9.45,1.2,75
9.45,1.35,75
9.45,1.5,84
9.6,-1.5,58
9.6,-1.35,58
9.6,-1.2,58
9.6,-1.05,58
9.6,-0.9,61
9.6,-0.75,69
9.6,-0.6,98
9.6,-0.45,239
9.6,-0.3,94
9.6,-0.15,111
9.6,0.0,63
9.6,0.15,55
9.6,0.3,101
9.6,0.45,54
9.6,0.6,42
9.6,0.75,76
9.6,0.9,64
9.6,1.05,83
9.6,1.2,84
9.6,1.35,84
9.6,1.5,84
9.75,-1.5,58
9.75,-1.35,58
9.75,-1.2,58
9.75,-1.05,62
9.75,-0.9,53
9.75,-0.75,55
9.75,-0.6,75
9.75,-0.45,50
9.75,-0.3,73
9.75,-0.15,77
9.75,0.0,54
9.75,0.15,5
9.75,0.3,68
9.75,0.45,144
9.75,0.6,86
9.75,0.75,29
9.75,0.9,50
9.75,1.05,84
9.75,1.2,83
9.75,1.35,83
9.75,1.5,83
9.9,-1.5,63
9.9,-1.35,61
9.9,-1.2,74
9.9,-1.05,75
9.9,-0.9,57
9.9,-0.75,33
9.9,-0.6,8
9.9,-0.45,80
9.9,-0.3,74
9.9,-0.15,95
9.9,0.0,64
9.9,0.15,42
9.9,0.3,13
9.9,0.45,128
9.9,0.6,102
9.9,0.75,116
9.9,0.9,102
9.9,1.05,84
9.9,1.2,99
9.9,1.35,100
9.9,1.5,83
10.05,-1.5,83
10.05,-1.35,80
10.05,-1.2,75
10.05,-1.05,73
10.05,-0.9,49
10.05,-0.75,0
10.05,-0.6,73
10.05,-0.45,208
10.05,-0.3,95
10.05,-0.15,26
10.05,0.0,51
10.05,0.15,71
10.05,0.3,63
10.05,0.45,25
10.05,0.6,124
10.05,0.75,224
10.05,0.9,131
10.05,1.05,109
10.05,1.2,102
10.05,1.35,99
10.05,1.5,83
10.2,-1.5,93
10.2,-1.35,90
10.2,-1.2,86
10.2,-1.05,80
10.2,-0.9,70
10.2,-0.75,71
10.2,-0.6,72
10.2,-0.45,255
10.2,-0.3,86
10.2,-0.15,45
10.2,0.0,72
10.2,0.15,60
10.2,0.3,57
10.2,0.45,153
10.2,0.6,96
10.2,0.75,98
10.2,0.9,107
10.2,1.05,100
10.2,1.2,94
10.2,1.35,90
10.2,1.5,87
10.35,-1.5,94
10.35,-1.35,91
10.35,-1.2,89
10.35,-1.05,86
10.35,-0.9,84
10.35,-0.75,87
10.35,-0.6,111
10.35,-0.45,158
10.35,-0.3,105
10.35,-0.15,175
10.35,0.0,223
10.35,0.15,116
10.35,0.3,81
10.35,0.45,82
10.35,0.6,85
10.35,0.75,78
10.35,0.9,115
10.35,1.05,103
10.35,1.2,102
10.35,1.35,100
10.35,1.5,100
10.5,-1.5,81
10.5,-1.35,79
10.5,-1.2,77
10.5,-1.05,74
10.5,-0.9,69
10.5,-0.75,36
10.5,-0.6,48
10.5,-0.45,79
10.5,-0.3,75
10.5,-0.15,107
10.5,0.0,160
10.5,0.15,128
10.5,0.3,130
10.5,0.45,244
10.5,0.6,30
10.5,0.75,96
10.5,0.9,107
10.5,1.05,106
10.5,1.2,106
10.5,1.35,106
10.5,1.5,106
10.65,-1.5,68
10.65,-1.35,67
10.65,-1.2,65
10.65,-1.05,62
10.65,-0.9,45
10.65,-0.75,42
10.65,-0.6,54
10.65,-0.45,75
10.65,-0.3,98
10.65,-0.15,128
10.65,0.0,134
10.65,0.15,81
10.65,0.3,132
10.65,0.45,131
10.65,0.6,133
10.65,0.75,116
10.65,0.9,81
10.65,1.05,76
10.65,1.2,84
10.65,1.35,90
10.65,1.5,95
10.8,-1.5,38
10.8,-1.35,38
10.8,-1.2,58
10.8,-1.05,73
10.8,-0.9,71
10.8,-0.75,80
10.8,-0.6,83
10.8,-0.45,78
10.8,-0.3,178
10.8,-0.15,172
10.8,0.0,162
10.8,0.15,20
10.8,0.3,115
10.8,0.45,133
10.8,0.6,219
10.8,0.75,52
10.8,0.9,12
10.8,1.05,52
10.8,1.2,67
10.8,1.35,89
10.8,1.5,95
10.95,-1.5,75
10.95,-1.35,74
10.95,-1.2,73
10.95,-1.05,73
10.95,-0.9,74
10.95,-0.75,77
10.95,-0.6,84
10.95,-0.45,90
10.95,-0.3,180
10.95,-0.15,106
10.95,0.0,115
10.95,0.15,69
10.95,0.3,92
10.95,0.45,92
10.95,0.6,110
10.95,0.75,64
10.95,0.9,38
10.95,1.05,56
10.95,1.2,65
10.95,1.35,73
10.95,1.5,76
11.1,-1.5,94
11.1,-1.35,93
11.1,-1.2,87
11.1,-1.05,85
11.1,-0.9,83
11.1,-0.75,77
11.1,-0.6,76
11.1,-0.45,75
11.1,-0.3,125
11.1,-0.15,135
11.1,0.0,55
11.1,0.15,94
11.1,0.3,132
11.1,0.45,255
11.1,0.6,146
11.1,0.75,108
11.1,0.9,87
11.1,1.05,81
11.1,1.2,86
11.1,1.35,91
11.1,1.5,95
11.25,-1.5,94
11.25,-1.35,94
11.25,-1.2,93
11.25,-1.05,109
11.25,-0.9,92
11.25,-0.75,83
11.25,-0.6,70
11.25,-0.45,69
11.25,-0.3,105
11.25,-0.15,153
11.25,0.0,52
11.25,0.15,118
11.25,0.3,135
11.25,0.45,143
11.25,0.6,127
11.25,0.75,105
11.25,0.9,97
11.25,1.05,97
11.25,1.2,98
11.25,1.35,100
11.25,1.5,115
11.4,-1.5,115
11.4,-1.35,115
11.4,-1.2,115
11.4,-1.05,114
11.4,-0.9,100
11.4,-0.75,114
11.4,-0.6,75
11.4,-0.45,26
11.4,-0.3,62
11.4,-0.15,32
11.4,0.0,64
11.4,0.15,230
11.4,0.3,118
11.4,0.45,119
11.4,0.6,68
11.4,0.75,80
11.4,0.9,106
11.4,1.05,112
11.4,1.2,113
11.4,1.35,114
11.4,1.5,115
11.55,-1.5,129
11.55,-1.35,129
11.55,-1.2,130
11.55,-1.05,131
11.55,-0.9,133
11.55,-0.75,139
11.55,-0.6,171
11.55,-0.45,176
11.55,-0.3,66
11.55,-0.15,17
11.55,0.0,83
11.55,0.15,124
11.55,0.3,95
11.55,0.45,226
11.55,0.6,118
11.55,0.75,105
11.55,0.9,129
11.55,1.05,138
11.55,1.2,135
11.55,1.35,134
11.55,1.5,121
11.7,-1.5,129
11.7,-1.35,129
11.7,-1.2,131
11.7,-1.05,139
11.7,-0.9,157
11.7,-0.75,163
11.7,-0.6,165
11.7,-0.45,158
11.7,-0.3,195
11.7,-0.15,203
11.7,0.0,154
11.7,0.15,154
11.7,0.3,218
11.7,0.45,244
11.7,0.6,203
11.7,0.75,169
11.7,0.9,163
11.7,1.05,164
11.7,1.2,149
11.7,1.35,143
11.7,1.5,141
11.85,-1.5,137
11.85,-1.35,139
11.85,-1.2,146
11.85,-1.05,149
11.85,-0.9,157
11.85,-0.75,173
11.85,-0.6,177
11.85,-0.45,30
11.85,-0.3,146
11.85,-0.15,219
11.85,0.0,113
11.85,0.15,171
11.85,0.3,255
11.85,0.45,253
11.85,0.6,232
11.85,0.75,189
11.85,0.9,169
11.85,1.05,153
11.85,1.2,152
11.85,1.35,149
11.85,1.5,131
12.0,-1.5,149
12.0,-1.35,153
12.0,-1.2,163
12.0,-1.05,163
12.0,-0.9,164
12.0,-0.75,182
12.0,-0.6,221
12.0,-0.45,126
12.0,-0.3,203
12.0,-0.15,153
12.0,0.0,104
12.0,0.15,187
12.0,0.3,234
12.0,0.45,219
12.0,0.6,197
12.0,0.75,175
12.0,0.9,158
12.0,1.05,152
12.0,1.2,147
12.0,1.35,136
12.0,1.5,131
12.15,-1.5,141
12.15,-1.35,126
12.15,-1.2,136
12.15,-1.05,124
12.15,-0.9,128
12.15,-0.75,165
12.15,-0.6,160
12.15,-0.45,237
12.15,-0.3,255
12.15,-0.15,184
12.15,0.0,155
12.15,0.15,177
12.15,0.3,223
12.15,0.45,154
12.15,0.6,152
12.15,0.75,145
12.15,0.9,141
12.15,1.05,137
12.15,1.2,128
12.15,1.35,123
12.15,1.5,118
12.3,-1.5,102
12.3,-1.35,109
12.3,-1.2,111
12.3,-1.05,120
12.3,-0.9,117
12.3,-0.75,120
12.3,-0.6,129
12.3,-0.45,142
12.3,-0.3,103
12.3,-0.15,155
12.3,0.0,119
12.3,0.15,112
12.3,0.3,20
12.3,0.45,58
12.3,0.6,87
12.3,0.75,103
12.3,0.9,113
12.3,1.05,102
12.3,1.2,100
12.3,1.35,96
12.3,1.5,104
12.45,-1.5,88
12.45,-1.35,105
12.45,-1.2,101
12.45,-1.05,103
12.45,-0.9,104
12.45,-0.75,101
12.45,-0.6,94
12.45,-0.45,192
12.45,-0.3,62
12.45,-0.15,80
12.45,0.0,74
12.45,0.15,60
12.45,0.3,57
12.45,0.45,56
12.45,0.6,36
12.45,0.75,59
12.45,0.9,86
12.45,1.05,97
12.45,1.2,85
12.45,1.35,81
12.45,1.5,76
12.6,-1.5,60
12.6,-1.35,70
12.6,-1.2,83
12.6,-1.05,74
12.6,-0.9,86
12.6,-0.75,75
12.6,-0.6,41
12.6,-0.45,22
12.6,-0.3,31
12.6,-0.15,11
12.6,0.0,30
12.6,0.15,48
12.6,0.3,60
12.6,0.45,48
12.6,0.6,1
12.6,0.75,38
12.6,0.9,66
12.6,1.05,75
12.6,1.2,71
12.6,1.35,62
12.6,1.5,55
12.75,-1.5,29
12.75,-1.35,40
12.75,-1.2,46
12.75,-1.05,62
12.75,-0.9,49
12.75,-0.75,48
12.75,-0.6,39
12.75,-0.45,39
12.75,-0.3,48
12.75,-0.15,12
12.75,0.0,29
12.75,0.15,45
12.75,0.3,56
12.75,0.45,58
12.75,0.6,42
12.75,0.75,44
12.75,0.9,57
12.75,1.05,58
12.75,1.2,58
12.75,1.35,40
12.75,1.5,28
12.9,-1.5,0
12.9,-1.35,11
12.9,-1.2,27
12.9,-1.05,36
12.9,-0.9,42
12.9,-0.75,43
12.9,-0.6,43
12.9,-0.45,49
12.9,-0.3,38
12.9,-0.15,24
12.9,0.0,58
12.9,0.15,46
12.9,0.3,51
12.9,0.45,58
12.9,0.6,55
12.9,0.75,47
12.9,0.9,50
12.9,1.05,54
12.9,1.2,38
12.9,1.35,16
12.9,1.5,0
13.05,-1.5,0
13.05,-1.35,3
13.05,-1.2,21
13.05,-1.05,33
13.05,-0.9,40
13.05,-0.75,42
13.05,-0.6,45
13.05,-0.45,52
13.05,-0.3,48
13.05,-0.15,34
13.05,0.0,43
13.05,0.15,45
13.05,0.3,50
13.05,0.45,56
13.05,0.6,51
13.05,0.75,48
13.05,0.9,43
13.05,1.05,35
13.05,1.2,27
13.05,1.35,8
13.05,1.5,0
