-3.0,-1.5,0
-3.0,-1.35,4
-3.0,-1.2,35
-3.0,-1.05,72
-3.0,-0.9,97
-3.0,-0.75,115
-3.0,-0.6,132
-3.0,-0.45,148
-3.0,-0.3,156
-3.0,-0.15,143
-3.0,0.0,109
-3.0,0.15,78
-3.0,0.3,82
-3.0,0.45,105
-3.0,0.6,123
-3.0,0.75,130
-3.0,0.9,121
-3.0,1.05,95
-3.0,1.2,54
-3.0,1.35,10
-3.0,1.5,0
-2.85,-1.5,3
-2.85,-1.35,15
-2.85,-1.2,44
-2.85,-1.05,72
-2.85,-0.9,98
-2.85,-0.75,114
-2.85,-0.6,132
-2.85,-0.45,164
-2.85,-0.3,198
-2.85,-0.15,177
-2.85,0.0,114
-2.85,0.15,63
-2.85,0.3,74
-2.85,0.45,111
-2.85,0.6,145
-2.85,0.75,154
-2.85,0.9,144
-2.85,1.05,114
-2.85,1.2,72
-2.85,1.35,31
-2.85,1.5,9
-2.7,-1.5,28
-2.7,-1.35,39
-2.7,-1.2,59
-2.7,-1.05,79
-2.7,-0.9,92
-2.7,-0.75,104
-2.7,-0.6,112
-2.7,-0.45,158
-2.7,-0.3,255
-2.7,-0.15,255
-2.7,0.0,102
-2.7,0.15,93
-2.7,0.3,100
-2.7,0.45,133
-2.7,0.6,183
-2.7,0.75,198
-2.7,0.9,175
-2.7,1.05,146
-2.7,1.2,107
-2.7,1.35,71
-2.7,1.5,47
-2.55,-1.5,52
-2.55,-1.35,61
-2.55,-1.2,73
-2.55,-1.05,84
-2.55,-0.9,89
-2.55,-0.75,84
-2.55,-0.6,62
-2.55,-0.45,46
-2.55,-0.3,240
-2.55,-0.15,217
-2.55,0.0,67
-2.55,0.15,92
-2.55,0.3,113
-2.55,0.45,153
-2.55,0.6,224
-2.55,0.75,243
-2.55,0.9,204
-2.55,1.05,164
-2.55,1.2,131
-2.55,1.35,98
-2.55,1.5,78
-2.4,-1.5,69
-2.4,-1.35,75
-2.4,-1.2,83
-2.4,-1.05,88
-2.4,-0.9,88
-2.4,-0.75,78
-2.4,-0.6,45
-2.4,-0.45,11
-2.4,-0.3,108
-2.4,-0.15,127
-2.4,0.0,69
-2.4,0.15,77
-2.4,0.3,112
-2.4,0.45,151
-2.4,0.6,208
-2.4,0.75,226
-2.4,0.9,197
-2.4,1.05,162
-2.4,1.2,130
-2.4,1.35,112
-2.4,1.5,100
-2.25,-1.5,80
-2.25,-1.35,84
-2.25,-1.2,89
-2.25,-1.05,91
-2.25,-0.9,91
-2.25,-0.75,85
-2.25,-0.6,74
-2.25,-0.45,74
-2.25,-0.3,103
-2.25,-0.15,108
-2.25,0.0,87
-2.25,0.15,92
-2.25,0.3,116
-2.25,0.45,143
-2.25,0.6,176
-2.25,0.75,189
-2.25,0.9,169
-2.25,1.05,146
-2.25,1.2,132
-2.25,1.35,121
-2.25,1.5,113
-2.1,-1.5,87
-2.1,-1.35,90
-2.1,-1.2,92
-2.1,-1.05,94
-2.1,-0.9,94
-2.1,-0.75,93
-2.1,-0.6,94
-2.1,-0.45,96
-2.1,-0.3,104
-2.1,-0.15,115
-2.1,0.0,115
-2.1,0.15,118
-2.1,0.3,123
-2.1,0.45,143
-2.1,0.6,144
-2.1,0.75,152
-2.1,0.9,154
-2.1,1.05,155
-2.1,1.2,148
-2.1,1.35,133
-2.1,1.5,128
-1.95,-1.5,87
-1.95,-1.35,89
-1.95,-1.2,94
-1.95,-1.05,95
-1.95,-0.9,95
-1.95,-0.75,95
-1.95,-0.6,95
-1.95,-0.45,95
-1.95,-0.3,104
-1.95,-0.15,119
-1.95,0.0,132
-1.95,0.15,125
-1.95,0.3,124
-1.95,0.45,129
-1.95,0.6,134
-1.95,0.75,148
-1.95,0.9,152
-1.95,1.05,148
-1.95,1.2,144
-1.95,1.35,141
-1.95,1.5,139
-1.8,-1.5,85
-1.8,-1.35,86
-1.8,-1.2,87
-1.8,-1.05,94
-1.8,-0.9,95
-1.8,-0.75,93
-1.8,-0.6,88
-1.8,-0.45,78
-1.8,-0.3,87
-1.8,-0.15,126
-1.8,0.0,157
-1.8,0.15,150
-1.8,0.3,132
-1.8,0.45,120
-1.8,0.6,130
-1.8,0.75,143
-1.8,0.9,147
-1.8,1.05,144
-1.8,1.2,138
-1.8,1.35,137
-1.8,1.5,141
-1.65,-1.5,85
-1.65,-1.35,85
-1.65,-1.2,85
-1.65,-1.05,90
-1.65,-0.9,88
-1.65,-0.75,87
-1.65,-0.6,74
-1.65,-0.45,72
-1.65,-0.3,72
-1.65,-0.15,116
-1.65,0.0,214
-1.65,0.15,209
-1.65,0.3,119
-1.65,0.45,68
-1.65,0.6,113
-1.65,0.75,147
-1.65,0.9,150
-1.65,1.05,132
-1.65,1.2,125
-1.65,1.35,133
-1.65,1.5,131
-1.5,-1.5,83
-1.5,-1.35,86
-1.5,-1.2,87
-1.5,-1.05,84
-1.5,-0.9,81
-1.5,-0.75,71
-1.5,-0.6,74
-1.5,-0.45,77
-1.5,-0.3,85
-1.5,-0.15,60
-1.5,0.0,190
-1.5,0.15,207
-1.5,0.3,90
-1.5,0.45,6
-1.5,0.6,115
-1.5,0.75,174
-1.5,0.9,175
-1.5,1.05,93
-1.5,1.2,94
-1.5,1.35,118
-1.5,1.5,122
-1.35,-1.5,69
-1.35,-1.35,69
-1.35,-1.2,69
-1.35,-1.05,68
-1.35,-0.9,66
-1.35,-0.75,62
-1.35,-0.6,66
-1.35,-0.45,80
-1.35,-0.3,85
-1.35,-0.15,95
-1.35,0.0,135
-1.35,0.15,150
-1.35,0.3,122
-1.35,0.45,108
-1.35,0.6,166
-1.35,0.75,211
-1.35,0.9,233
-1.35,1.05,90
-1.35,1.2,91
-1.35,1.35,112
-1.35,1.5,119
-1.2,-1.5,75
-1.2,-1.35,73
-1.2,-1.2,76
-1.2,-1.05,69
-1.2,-0.9,65
-1.2,-0.75,62
-1.2,-0.6,62
-1.2,-0.45,72
-1.2,-0.3,75
-1.2,-0.15,73
-1.2,0.0,93
-1.2,0.15,121
-1.2,0.3,130
-1.2,0.45,115
-1.2,0.6,108
-1.2,0.75,201
-1.2,0.9,193
-1.2,1.05,153
-1.2,1.2,130
-1.2,1.35,124
-1.2,1.5,122
-1.05,-1.5,75
-1.05,-1.35,89
-1.05,-1.2,85
-1.05,-1.05,73
-1.05,-0.9,68
-1.05,-0.75,62
-1.05,-0.6,63
-1.05,-0.45,66
-1.05,-0.3,71
-1.05,-0.15,60
-1.05,0.0,75
-1.05,0.15,113
-1.05,0.3,126
-1.05,0.45,125
-1.05,0.6,142
-1.05,0.75,206
-1.05,0.9,217
-1.05,1.05,179
-1.05,1.2,145
-1.05,1.35,131
-1.05,1.5,123
-0.9,-1.5,88
-0.9,-1.35,84
-0.9,-1.2,86
-0.9,-1.05,81
-0.9,-0.9,69
-0.9,-0.75,64
-0.9,-0.6,60
-0.9,-0.45,57
-0.9,-0.3,65
-0.9,-0.15,60
-0.9,0.0,78
-0.9,0.15,117
-0.9,0.3,128
-0.9,0.45,146
-0.9,0.6,166
-0.9,0.75,202
-0.9,0.9,212
-0.9,1.05,177
-0.9,1.2,152
-0.9,1.35,139
-0.9,1.5,130
-0.75,-1.5,66
-0.75,-1.35,65
-0.75,-1.2,62
-0.75,-1.05,76
-0.75,-0.9,63
-0.75,-0.75,62
-0.75,-0.6,41
-0.75,-0.45,21
-0.75,-0.3,39
-0.75,-0.15,72
-0.75,0.0,90
-0.75,0.15,127
-0.75,0.3,151
-0.75,0.45,131
-0.75,0.6,131
-0.75,0.75,142
-0.75,0.9,154
-0.75,1.05,149
-0.75,1.2,139
-0.75,1.35,127
-0.75,1.5,118
-0.6,-1.5,65
-0.6,-1.35,64
-0.6,-1.2,62
-0.6,-1.05,78
-0.6,-0.9,73
-0.6,-0.75,62
-0.6,-0.6,41
-0.6,-0.45,4
-0.6,-0.3,25
-0.6,-0.15,77
-0.6,0.0,64
-0.6,0.15,99
-0.6,0.3,169
-0.6,0.45,99
-0.6,0.6,101
-0.6,0.75,110
-0.6,0.9,120
-0.6,1.05,124
-0.6,1.2,118
-0.6,1.35,106
-0.6,1.5,102
-0.45,-1.5,64
-0.45,-1.35,64
-0.45,-1.2,70
-0.45,-1.05,68
-0.45,-0.9,78
-0.45,-0.75,77
-0.45,-0.6,64
-0.45,-0.45,53
-0.45,-0.3,63
-0.45,-0.15,78
-0.45,0.0,109
-0.45,0.15,230
-0.45,0.3,183
-0.45,0.45,129
-0.45,0.6,98
-0.45,0.75,102
-0.45,0.9,106
-0.45,1.05,108
-0.45,1.2,98
-0.45,1.35,77
-0.45,1.5,60
-0.3,-1.5,71
-0.3,-1.35,71
-0.3,-1.2,72
-0.3,-1.05,72
-0.3,-0.9,72
-0.3,-0.75,90
-0.3,-0.6,90
-0.3,-0.45,88
-0.3,-0.3,76
-0.3,-0.15,63
-0.3,0.0,94
-0.3,0.15,113
-0.3,0.3,122
-0.3,0.45,68
-0.3,0.6,94
-0.3,0.75,104
-0.3,0.9,102
-0.3,1.05,97
-0.3,1.2,92
-0.3,1.35,49
-0.3,1.5,18
-0.15,-1.5,77
-0.15,-1.35,78
-0.15,-1.2,80
-0.15,-1.05,82
-0.15,-0.9,82
-0.15,-0.75,87
-0.15,-0.6,96
-0.15,-0.45,100
-0.15,-0.3,88
-0.15,-0.15,81
-0.15,0.0,65
-0.15,0.15,73
-0.15,0.3,77
-0.15,0.45,66
-0.15,0.6,151
-0.15,0.75,137
-0.15,0.9,114
-0.15,1.05,107
-0.15,1.2,105
-0.15,1.35,42
-0.15,1.5,0
0.0,-1.5,79
0.0,-1.35,80
0.0,-1.2,83
0.0,-1.05,86
0.0,-0.9,92
0.0,-0.75,102
0.0,-0.6,118
0.0,-0.45,139
0.0,-0.3,139
0.0,-0.15,98
0.0,0.0,0
0.0,0.15,55
0.0,0.3,53
0.0,0.45,25
0.0,0.6,125
0.0,0.75,134
0.0,0.9,117
0.0,1.05,114
0.0,1.2,114
0.0,1.35,77
0.0,1.5,40
0.15,-1.5,79
0.15,-1.35,81
0.15,-1.2,84
0.15,-1.05,87
0.15,-0.9,93
0.15,-0.75,104
0.15,-0.6,129
0.15,-0.45,186
0.15,-0.3,223
0.15,-0.15,211
0.15,0.0,97
0.15,0.15,49
0.15,0.3,41
0.15,0.45,43
0.15,0.6,68
0.15,0.75,93
0.15,0.9,100
0.15,1.05,98
0.15,1.2,98
0.15,1.35,84
0.15,1.5,69
0.3,-1.5,79
0.3,-1.35,81
0.3,-1.2,83
0.3,-1.05,85
0.3,-0.9,90
0.3,-0.75,98
0.3,-0.6,106
0.3,-0.45,127
0.3,-0.3,133
0.3,-0.15,125
0.3,0.0,72
0.3,0.15,54
0.3,0.3,36
0.3,0.45,50
0.3,0.6,80
0.3,0.75,102
0.3,0.9,108
0.3,1.05,102
0.3,1.2,96
0.3,1.35,88
0.3,1.5,79
0.45,-1.5,76
0.45,-1.35,79
0.45,-1.2,84
0.45,-1.05,84
0.45,-0.9,85
0.45,-0.75,84
0.45,-0.6,76
0.45,-0.45,51
0.45,-0.3,0
0.45,-0.15,52
0.45,0.0,54
0.45,0.15,38
0.45,0.3,37
0.45,0.45,11
0.45,0.6,225
0.45,0.75,140
0.45,0.9,114
0.45,1.05,114
0.45,1.2,111
0.45,1.35,105
0.45,1.5,99
0.6,-1.5,79
0.6,-1.35,76
0.6,-1.2,80
0.6,-1.05,79
0.6,-0.9,77
0.6,-0.75,73
0.6,-0.6,64
0.6,-0.45,45
0.6,-0.3,24
0.6,-0.15,40
0.6,0.0,55
0.6,0.15,61
0.6,0.3,56
0.6,0.45,57
0.6,0.6,98
0.6,0.75,113
0.6,0.9,106
0.6,1.05,106
0.6,1.2,110
0.6,1.35,106
0.6,1.5,105
0.75,-1.5,77
0.75,-1.35,76
0.75,-1.2,75
0.75,-1.05,74
0.75,-0.9,71
0.75,-0.75,64
0.75,-0.6,58
0.75,-0.45,59
0.75,-0.3,52
0.75,-0.15,55
0.75,0.0,58
0.75,0.15,104
0.75,0.3,86
0.75,0.45,74
0.75,0.6,81
0.75,0.75,106
0.75,0.9,110
0.75,1.05,110
0.75,1.2,110
0.75,1.35,110
0.75,1.5,108
0.9,-1.5,74
0.9,-1.35,55
0.9,-1.2,55
0.9,-1.05,53
0.9,-0.9,52
0.9,-0.75,50
0.9,-0.6,38
0.9,-0.45,38
0.9,-0.3,49
0.9,-0.15,58
0.9,0.0,57
0.9,0.15,54
0.9,0.3,13
0.9,0.45,132
0.9,0.6,82
0.9,0.75,110
0.9,0.9,110
0.9,1.05,109
0.9,1.2,104
0.9,1.35,108
0.9,1.5,106
1.05,-1.5,54
1.05,-1.35,54
1.05,-1.2,35
1.05,-1.05,36
1.05,-0.9,36
1.05,-0.75,37
1.05,-0.6,39
1.05,-0.45,47
1.05,-0.3,50
1.05,-0.15,55
1.05,0.0,60
1.05,0.15,69
1.05,0.3,59
1.05,0.45,57
1.05,0.6,80
1.05,0.75,96
1.05,0.9,110
1.05,1.05,104
1.05,1.2,105
1.05,1.35,104
1.05,1.5,103
1.2,-1.5,36
1.2,-1.35,36
1.2,-1.2,36
1.2,-1.05,37
1.2,-0.9,41
1.2,-0.75,46
1.2,-0.6,46
1.2,-0.45,47
1.2,-0.3,50
1.2,-0.15,56
1.2,0.0,62
1.2,0.15,58
1.2,0.3,69
1.2,0.45,28
1.2,0.6,62
1.2,0.75,142
1.2,0.9,125
1.2,1.05,93
1.2,1.2,91
1.2,1.35,90
1.2,1.5,90
1.35,-1.5,46
1.35,-1.35,49
1.35,-1.2,49
1.35,-1.05,49
1.35,-0.9,52
1.35,-0.75,48
1.35,-0.6,46
1.35,-0.45,46
1.35,-0.3,46
1.35,-0.15,115
1.35,0.0,50
1.35,0.15,46
1.35,0.3,80
1.35,0.45,249
1.35,0.6,124
1.35,0.75,131
1.35,0.9,94
1.35,1.05,71
1.35,1.2,81
1.35,1.35,83
1.35,1.5,84
1.5,-1.5,46
1.5,-1.35,46
1.5,-1.2,46
1.5,-1.05,46
1.5,-0.9,52
1.5,-0.75,52
1.5,-0.6,50
1.5,-0.45,47
1.5,-0.3,34
1.5,-0.15,53
1.5,0.0,75
1.5,0.15,115
1.5,0.3,42
1.5,0.45,28
1.5,0.6,54
1.5,0.75,15
1.5,0.9,70
1.5,1.05,74
1.5,1.2,73
1.5,1.35,74
1.5,1.5,69
1.65,-1.5,45
1.65,-1.35,45
1.65,-1.2,45
1.65,-1.05,46
1.65,-0.9,46
1.65,-0.75,46
1.65,-0.6,52
1.65,-0.45,52
1.65,-0.3,50
1.65,-0.15,33
1.65,0.0,31
1.65,0.15,31
1.65,0.3,26
1.65,0.45,51
1.65,0.6,49
1.65,0.75,106
1.65,0.9,71
1.65,1.05,66
1.65,1.2,65
1.65,1.35,65
1.65,1.5,65
1.8,-1.5,45
1.8,-1.35,44
1.8,-1.2,36
1.8,-1.05,36
1.8,-0.9,37
1.8,-0.75,38
1.8,-0.6,40
1.8,-0.45,52
1.8,-0.3,60
1.8,-0.15,82
1.8,0.0,82
1.8,0.15,55
1.8,0.3,76
1.8,0.45,16
1.8,0.6,57
1.8,0.75,53
1.8,0.9,39
1.8,1.05,47
1.8,1.2,49
1.8,1.35,50
1.8,1.5,50
1.95,-1.5,35
1.95,-1.35,35
1.95,-1.2,35
1.95,-1.05,35
1.95,-0.9,35
1.95,-0.75,39
1.95,-0.6,43
1.95,-0.45,42
1.95,-0.3,54
1.95,-0.15,70
1.95,0.0,58
1.95,0.15,116
1.95,0.3,41
1.95,0.45,63
1.95,0.6,54
1.95,0.75,32
1.95,0.9,25
1.95,1.05,35
1.95,1.2,45
1.95,1.35,47
1.95,1.5,48
2.1,-1.5,34
2.1,-1.35,34
2.1,-1.2,34
2.1,-1.05,34
2.1,-0.9,34
2.1,-0.75,36
2.1,-0.6,35
2.1,-0.45,41
2.1,-0.3,22
2.1,-0.15,0
2.1,0.0,35
2.1,0.15,30
2.1,0.3,57
2.1,0.45,63
2.1,0.6,61
2.1,0.75,5
2.1,0.9,1
2.1,1.05,47
2.1,1.2,51
2.1,1.35,45
2.1,1.5,52
2.25,-1.5,34
2.25,-1.35,34
2.25,-1.2,33
2.25,-1.05,33
2.25,-0.9,32
2.25,-0.75,28
2.25,-0.6,26
2.25,-0.45,14
2.25,-0.3,14
2.25,-0.15,9
2.25,0.0,29
2.25,0.15,58
2.25,0.3,144
2.25,0.45,71
2.25,0.6,72
2.25,0.75,39
2.25,0.9,25
2.25,1.05,43
2.25,1.2,51
2.25,1.35,57
2.25,1.5,47
2.4,-1.5,38
2.4,-1.35,38
2.4,-1.2,38
2.4,-1.05,29
2.4,-0.9,29
2.4,-0.75,29
2.4,-0.6,29
2.4,-0.45,31
2.4,-0.3,67
2.4,-0.15,43
2.4,0.0,16
2.4,0.15,5
2.4,0.3,0
2.4,0.45,80
2.4,0.6,111
2.4,0.75,75
2.4,0.9,61
2.4,1.05,55
2.4,1.2,55
2.4,1.35,56
2.4,1.5,57
2.55,-1.5,44
2.55,-1.35,43
2.55,-1.2,43
2.55,-1.05,42
2.55,-0.9,41
2.55,-0.75,40
2.55,-0.6,40
2.55,-0.45,50
2.55,-0.3,71
2.55,-0.15,53
2.55,0.0,17
2.55,0.15,53
2.55,0.3,63
2.55,0.45,118
2.55,0.6,99
2.55,0.75,88
2.55,0.9,69
2.55,1.05,57
2.55,1.2,57
2.55,1.35,57
2.55,1.5,55
2.7,-1.5,44
2.7,-1.35,49
2.7,-1.2,48
2.7,-1.05,47
2.7,-0.9,48
2.7,-0.75,47
2.7,-0.6,36
2.7,-0.45,9
2.7,-0.3,50
2.7,-0.15,54
2.7,0.0,38
2.7,0.15,63
2.7,0.3,54
2.7,0.45,74
2.7,0.6,64
2.7,0.75,68
2.7,0.9,27
2.7,1.05,52
2.7,1.2,55
2.7,1.35,45
2.7,1.5,41
2.85,-1.5,54
2.85,-1.35,54
2.85,-1.2,48
2.85,-1.05,48
2.85,-0.9,47
2.85,-0.75,48
2.85,-0.6,40
2.85,-0.45,31
2.85,-0.3,75
2.85,-0.15,57
2.85,0.0,68
2.85,0.15,111
2.85,0.3,54
2.85,0.45,78
2.85,0.6,78
2.85,0.75,64
2.85,0.9,61
2.85,1.05,64
2.85,1.2,59
2.85,1.35,61
2.85,1.5,61
3.0,-1.5,70
3.0,-1.35,79
3.0,-1.2,73
3.0,-1.05,71
3.0,-0.9,61
3.0,-0.75,55
3.0,-0.6,54
3.0,-0.45,57
3.0,-0.3,58
3.0,-0.15,58
3.0,0.0,59
3.0,0.15,66
3.0,0.3,179
3.0,0.45,225
3.0,0.6,75
3.0,0.75,43
3.0,0.9,62
3.0,1.05,64
3.0,1.2,65
3.0,1.35,59
3.0,1.5,59
3.15,-1.5,72
3.15,-1.35,72
3.15,-1.2,80
3.15,-1.05,80
3.15,-0.9,79
3.15,-0.75,78
3.15,-0.6,76
3.15,-0.45,70
3.15,-0.3,47
3.15,-0.15,92
3.15,0.0,93
3.15,0.15,44
3.15,0.3,94
3.15,0.45,110
3.15,0.6,208
3.15,0.75,75
3.15,0.9,81
3.15,1.05,68
3.15,1.2,68
3.15,1.35,69
3.15,1.5,68
3.3,-1.5,83
3.3,-1.35,83
3.3,-1.2,83
3.3,-1.05,84
3.3,-0.9,84
3.3,-0.75,82
3.3,-0.6,79
3.3,-0.45,81
3.3,-0.3,80
3.3,-0.15,45
3.3,0.0,30
3.3,0.15,61
3.3,0.3,70
3.3,0.45,102
3.3,0.6,83
3.3,0.75,57
3.3,0.9,77
3.3,1.05,82
3.3,1.2,83
3.3,1.35,83
3.3,1.5,83
3.45,-1.5,95
3.45,-1.35,95
3.45,-1.2,96
3.45,-1.05,96
3.45,-0.9,97
3.45,-0.75,98
3.45,-0.6,104
3.45,-0.45,112
3.45,-0.3,112
3.45,-0.15,90
3.45,0.0,50
3.45,0.15,42
3.45,0.3,102
3.45,0.45,100
3.45,0.6,140
3.45,0.75,84
3.45,0.9,86
3.45,1.05,87
3.45,1.2,86
3.45,1.35,87
3.45,1.5,83
3.6,-1.5,106
3.6,-1.35,106
3.6,-1.2,106
3.6,-1.05,102
3.6,-0.9,107
3.6,-0.75,97
3.6,-0.6,97
3.6,-0.45,112
3.6,-0.3,53
3.6,-0.15,79
3.6,0.0,57
3.6,0.15,74
3.6,0.3,69
3.6,0.45,60
3.6,0.6,241
3.6,0.75,117
3.6,0.9,101
3.6,1.05,96
3.6,1.2,96
3.6,1.35,96
3.6,1.5,83
3.75,-1.5,90
3.75,-1.35,101
3.75,-1.2,111
3.75,-1.05,112
3.75,-0.9,112
3.75,-0.75,100
3.75,-0.6,103
3.75,-0.45,98
3.75,-0.3,112
3.75,-0.15,67
3.75,0.0,41
3.75,0.15,75
3.75,0.3,97
3.75,0.45,73
3.75,0.6,161
3.75,0.75,73
3.75,0.9,45
3.75,1.05,77
3.75,1.2,84
3.75,1.35,92
3.75,1.5,95
3.9,-1.5,116
3.9,-1.35,115
3.9,-1.2,114
3.9,-1.05,114
3.9,-0.9,98
3.9,-0.75,98
3.9,-0.6,98
3.9,-0.45,112
3.9,-0.3,109
3.9,-0.15,51
3.9,0.0,47
3.9,0.15,234
3.9,0.3,49
3.9,0.45,34
3.9,0.6,89
3.9,0.75,89
3.9,0.9,57
3.9,1.05,72
3.9,1.2,92
3.9,1.35,90
3.9,1.5,92
4.05,-1.5,126
4.05,-1.35,126
4.05,-1.2,125
4.05,-1.05,124
4.05,-0.9,121
4.05,-0.75,113
4.05,-0.6,102
4.05,-0.45,117
4.05,-0.3,131
4.05,-0.15,202
4.05,0.0,75
4.05,0.15,74
4.05,0.3,98
4.05,0.45,119
4.05,0.6,217
4.05,0.75,68
4.05,0.9,79
4.05,1.05,84
4.05,1.2,65
4.05,1.35,65
4.05,1.5,68
4.2,-1.5,129
4.2,-1.35,129
4.2,-1.2,132
4.2,-1.05,123
4.2,-0.9,121
4.2,-0.75,117
4.2,-0.6,105
4.2,-0.45,61
4.2,-0.3,56
4.2,-0.15,48
4.2,0.0,72
4.2,0.15,50
4.2,0.3,112
4.2,0.45,16
4.2,0.6,90
4.2,0.75,42
4.2,0.9,56
4.2,1.05,59
4.2,1.2,70
4.2,1.35,70
4.2,1.5,70
4.35,-1.5,131
4.35,-1.35,131
4.35,-1.2,131
4.35,-1.05,132
4.35,-0.9,132
4.35,-0.75,150
4.35,-0.6,147
4.35,-0.45,145
4.35,-0.3,140
4.35,-0.15,155
4.35,0.0,83
4.35,0.15,98
4.35,0.3,36
4.35,0.45,118
4.35,0.6,59
4.35,0.75,58
4.35,0.9,64
4.35,1.05,56
4.35,1.2,52
4.35,1.35,51
4.35,1.5,48
4.5,-1.5,112
4.5,-1.35,114
4.5,-1.2,115
4.5,-1.05,122
4.5,-0.9,126
4.5,-0.75,166
4.5,-0.6,182
4.5,-0.45,255
4.5,-0.3,179
4.5,-0.15,72
4.5,0.0,57
4.5,0.15,205
4.5,0.3,219
4.5,0.45,79
4.5,0.6,31
4.5,0.75,65
4.5,0.9,59
4.5,1.05,46
4.5,1.2,34
4.5,1.35,35
4.5,1.5,45
4.65,-1.5,122
4.65,-1.35,123
4.65,-1.2,125
4.65,-1.05,127
4.65,-0.9,129
4.65,-0.75,154
4.65,-0.6,149
4.65,-0.45,96
4.65,-0.3,155
4.65,-0.15,91
4.65,0.0,100
4.65,0.15,65
4.65,0.3,56
4.65,0.45,25
4.65,0.6,59
4.65,0.75,100
4.65,0.9,60
4.65,1.05,14
4.65,1.2,10
4.65,1.35,29
4.65,1.5,38
4.8,-1.5,115
4.8,-1.35,115
4.8,-1.2,115
4.8,-1.05,115
4.8,-0.9,119
4.8,-0.75,128
4.8,-0.6,127
4.8,-0.45,60
4.8,-0.3,41
4.8,-0.15,87
4.8,0.0,56
4.8,0.15,121
4.8,0.3,111
4.8,0.45,114
4.8,0.6,60
4.8,0.75,53
4.8,0.9,44
4.8,1.05,31
4.8,1.2,25
4.8,1.35,34
4.8,1.5,40
4.95,-1.5,115
4.95,-1.35,116
4.95,-1.2,116
4.95,-1.05,116
4.95,-0.9,122
4.95,-0.75,139
4.95,-0.6,222
4.95,-0.45,88
4.95,-0.3,198
4.95,-0.15,50
4.95,0.0,101
4.95,0.15,118
4.95,0.3,156
4.95,0.45,115
4.95,0.6,87
4.95,0.75,19
4.95,0.9,33
4.95,1.05,36
4.95,1.2,49
4.95,1.35,48
4.95,1.5,54
5.1,-1.5,115
5.1,-1.35,115
5.1,-1.2,115
5.1,-1.05,116
5.1,-0.9,141
5.1,-0.75,146
5.1,-0.6,162
5.1,-0.45,169
5.1,-0.3,224
5.1,-0.15,210
5.1,0.0,101
5.1,0.15,50
5.1,0.3,184
5.1,0.45,166
5.1,0.6,119
5.1,0.75,67
5.1,0.9,57
5.1,1.05,0
5.1,1.2,36
5.1,1.35,54
5.1,1.5,60
5.25,-1.5,115
5.25,-1.35,143
5.25,-1.2,143
5.25,-1.05,158
5.25,-0.9,158
5.25,-0.75,158
5.25,-0.6,152
5.25,-0.45,159
5.25,-0.3,192
5.25,-0.15,92
5.25,0.0,149
5.25,0.15,56
5.25,0.3,50
5.25,0.45,0
5.25,0.6,100
5.25,0.75,134
5.25,0.9,89
5.25,1.05,48
5.25,1.2,49
5.25,1.35,51
5.25,1.5,52
5.4,-1.5,110
5.4,-1.35,111
5.4,-1.2,111
5.4,-1.05,111
5.4,-0.9,135
5.4,-0.75,121
5.4,-0.6,119
5.4,-0.45,101
5.4,-0.3,255
5.4,-0.15,224
5.4,0.0,120
5.4,0.15,209
5.4,0.3,45
5.4,0.45,86
5.4,0.6,79
5.4,0.75,228
5.4,0.9,122
5.4,1.05,68
5.4,1.2,54
5.4,1.35,50
5.4,1.5,47
5.55,-1.5,91
5.55,-1.35,91
5.55,-1.2,90
5.55,-1.05,76
5.55,-0.9,77
5.55,-0.75,79
5.55,-0.6,83
5.55,-0.45,85
5.55,-0.3,58
5.55,-0.15,85
5.55,0.0,111
5.55,0.15,60
5.55,0.3,37
5.55,0.45,176
5.55,0.6,24
5.55,0.75,37
5.55,0.9,53
5.55,1.05,50
5.55,1.2,49
5.55,1.35,47
5.55,1.5,46
5.7,-1.5,64
5.7,-1.35,64
5.7,-1.2,47
5.7,-1.05,46
5.7,-0.9,45
5.7,-0.75,43
5.7,-0.6,34
5.7,-0.45,29
5.7,-0.3,29
5.7,-0.15,59
5.7,0.0,87
5.7,0.15,60
5.7,0.3,3
5.7,0.45,66
5.7,0.6,30
5.7,0.75,14
5.7,0.9,15
5.7,1.05,21
5.7,1.2,40
5.7,1.35,42
5.7,1.5,43
5.85,-1.5,65
5.85,-1.35,64
5.85,-1.2,62
5.85,-1.05,59
5.85,-0.9,46
5.85,-0.75,23
5.85,-0.6,29
5.85,-0.45,56
5.85,-0.3,59
5.85,-0.15,77
5.85,0.0,35
5.85,0.15,26
5.85,0.3,92
5.85,0.45,106
5.85,0.6,59
5.85,0.75,5
5.85,0.9,9
5.85,1.05,17
5.85,1.2,23
5.85,1.35,26
5.85,1.5,28
6.0,-1.5,66
6.0,-1.35,73
6.0,-1.2,60
6.0,-1.05,54
6.0,-0.9,51
6.0,-0.75,40
6.0,-0.6,6
6.0,-0.45,60
6.0,-0.3,87
6.0,-0.15,56
6.0,0.0,41
6.0,0.15,57
6.0,0.3,31
6.0,0.45,15
6.0,0.6,7
6.0,0.75,21
6.0,0.9,23
6.0,1.05,23
6.0,1.2,25
6.0,1.35,26
6.0,1.5,44
6.15,-1.5,90
6.15,-1.35,94
6.15,-1.2,92
6.15,-1.05,93
6.15,-0.9,88
6.15,-0.75,78
6.15,-0.6,68
6.15,-0.45,72
6.15,-0.3,80
6.15,-0.15,95
6.15,0.0,112
6.15,0.15,119
6.15,0.3,222
6.15,0.45,15
6.15,0.6,70
6.15,0.75,57
6.15,0.9,30
6.15,1.05,24
6.15,1.2,25
6.15,1.35,25
6.15,1.5,25
6.3,-1.5,97
6.3,-1.35,97
6.3,-1.2,97
6.3,-1.05,97
6.3,-0.9,97
6.3,-0.75,92
6.3,-0.6,137
6.3,-0.45,159
6.3,-0.3,189
6.3,-0.15,94
6.3,0.0,56
6.3,0.15,46
6.3,0.3,61
6.3,0.45,35
6.3,0.6,70
6.3,0.75,52
6.3,0.9,29
6.3,1.05,30
6.3,1.2,26
6.3,1.35,25
6.3,1.5,25
6.45,-1.5,97
6.45,-1.35,97
6.45,-1.2,97
6.45,-1.05,113
6.45,-0.9,107
6.45,-0.75,122
6.45,-0.6,146
6.45,-0.45,128
6.45,-0.3,91
6.45,-0.15,80
6.45,0.0,64
6.45,0.15,61
6.45,0.3,87
6.45,0.45,86
6.45,0.6,17
6.45,0.75,13
6.45,0.9,24
6.45,1.05,33
6.45,1.2,32
6.45,1.35,37
6.45,1.5,29
6.6,-1.5,97
6.6,-1.35,97
6.6,-1.2,115
6.6,-1.05,115
6.6,-0.9,115
6.6,-0.75,98
6.6,-0.6,91
6.6,-0.45,54
6.6,-0.3,65
6.6,-0.15,43
6.6,0.0,50
6.6,0.15,221
6.6,0.3,65
6.6,0.45,129
6.6,0.6,64
6.6,0.75,31
6.6,0.9,36
6.6,1.05,39
6.6,1.2,49
6.6,1.35,52
6.6,1.5,45
6.75,-1.5,107
6.75,-1.35,107
6.75,-1.2,106
6.75,-1.05,106
6.75,-0.9,106
6.75,-0.75,103
6.75,-0.6,92
6.75,-0.45,56
6.75,-0.3,52
6.75,-0.15,29
6.75,0.0,144
6.75,0.15,69
6.75,0.3,16
6.75,0.45,90
6.75,0.6,48
6.75,0.75,55
6.75,0.9,55
6.75,1.05,53
6.75,1.2,54
6.75,1.35,54
6.75,1.5,54
6.9,-1.5,112
6.9,-1.35,112
6.9,-1.2,112
6.9,-1.05,112
6.9,-0.9,104
6.9,-0.75,106
6.9,-0.6,118
6.9,-0.45,121
6.9,-0.3,85
6.9,-0.15,62
6.9,0.0,20
6.9,0.15,90
6.9,0.3,0
6.9,0.45,55
6.9,0.6,41
6.9,0.75,41
6.9,0.9,55
6.9,1.05,55
6.9,1.2,53
6.9,1.35,30
6.9,1.5,30
7.05,-1.5,124
7.05,-1.35,124
7.05,-1.2,124
7.05,-1.05,125
7.05,-0.9,114
7.05,-0.75,117
7.05,-0.6,131
7.05,-0.45,191
7.05,-0.3,156
7.05,-0.15,70
7.05,0.0,65
7.05,0.15,60
7.05,0.3,24
7.05,0.45,41
7.05,0.6,60
7.05,0.75,42
7.05,0.9,50
7.05,1.05,49
7.05,1.2,48
7.05,1.35,43
7.05,1.5,42
7.2,-1.5,124
7.2,-1.35,125
7.2,-1.2,127
7.2,-1.05,145
7.2,-0.9,146
7.2,-0.75,143
7.2,-0.6,137
7.2,-0.45,172
7.2,-0.3,122
7.2,-0.15,130
7.2,0.0,78
7.2,0.15,41
7.2,0.3,54
7.2,0.45,45
7.2,0.6,41
7.2,0.75,67
7.2,0.9,55
7.2,1.05,54
7.2,1.2,52
7.2,1.35,53
7.2,1.5,51
7.35,-1.5,139
7.35,-1.35,139
7.35,-1.2,125
7.35,-1.05,139
7.35,-0.9,150
7.35,-0.75,155
7.35,-0.6,155
7.35,-0.45,156
7.35,-0.3,37
7.35,-0.15,6
7.35,0.0,35
7.35,0.15,37
7.35,0.3,44
7.35,0.45,67
7.35,0.6,219
7.35,0.75,75
7.35,0.9,59
7.35,1.05,52
7.35,1.2,53
7.35,1.35,53
7.35,1.5,51
7.5,-1.5,139
7.5,-1.35,139
7.5,-1.2,139
7.5,-1.05,129
7.5,-0.9,129
7.5,-0.75,155
7.5,-0.6,143
7.5,-0.45,215
7.5,-0.3,136
7.5,-0.15,49
7.5,0.0,33
7.5,0.15,46
7.5,0.3,41
7.5,0.45,49
7.5,0.6,55
7.5,0.75,8
7.5,0.9,51
7.5,1.05,65
7.5,1.2,70
7.5,1.35,73
7.5,1.5,88
7.65,-1.5,122
7.65,-1.35,121
7.65,-1.2,124
7.65,-1.05,120
7.65,-0.9,108
7.65,-0.75,91
7.65,-0.6,86
7.65,-0.45,86
7.65,-0.3,72
7.65,-0.15,65
7.65,0.0,58
7.65,0.15,89
7.65,0.3,102
7.65,0.45,53
7.65,0.6,76
7.65,0.75,47
7.65,0.9,69
7.65,1.05,77
7.65,1.2,82
7.65,1.35,86
7.65,1.5,88
7.8,-1.5,103
7.8,-1.35,103
7.8,-1.2,102
7.8,-1.05,99
7.8,-0.9,93
7.8,-0.75,73
7.8,-0.6,51
7.8,-0.45,255
7.8,-0.3,54
7.8,-0.15,85
7.8,0.0,12
7.8,0.15,133
7.8,0.3,81
7.8,0.45,141
7.8,0.6,229
7.8,0.75,107
7.8,0.9,79
7.8,1.05,85
7.8,1.2,86
7.8,1.35,88
7.8,1.5,90
7.95,-1.5,105
7.95,-1.35,106
7.95,-1.2,106
7.95,-1.05,91
7.95,-0.9,86
7.95,-0.75,71
7.95,-0.6,48
7.95,-0.45,73
7.95,-0.3,54
7.95,-0.15,75
7.95,0.0,141
7.95,0.15,17
7.95,0.3,173
7.95,0.45,99
7.95,0.6,99
7.95,0.75,121
7.95,0.9,82
7.95,1.05,73
7.95,1.2,86
7.95,1.35,91
7.95,1.5,76
8.1,-1.5,111
8.1,-1.35,111
8.1,-1.2,115
8.1,-1.05,122
8.1,-0.9,125
8.1,-0.75,90
8.1,-0.6,56
8.1,-0.45,39
8.1,-0.3,39
8.1,-0.15,8
8.1,0.0,80
8.1,0.15,70
8.1,0.3,219
8.1,0.45,146
8.1,0.6,223
8.1,0.75,208
8.1,0.9,41
8.1,1.05,65
8.1,1.2,88
8.1,1.35,98
8.1,1.5,88
8.25,-1.5,101
8.25,-1.35,105
8.25,-1.2,114
8.25,-1.05,127
8.25,-0.9,185
8.25,-0.75,180
8.25,-0.6,59
8.25,-0.45,160
8.25,-0.3,46
8.25,-0.15,13
8.25,0.0,62
8.25,0.15,55
8.25,0.3,100
8.25,0.45,24
8.25,0.6,29
8.25,0.75,66
8.25,0.9,81
8.25,1.05,67
8.25,1.2,69
8.25,1.35,70
8.25,1.5,71
8.4,-1.5,107
8.4,-1.35,110
8.4,-1.2,117
8.4,-1.05,128
8.4,-0.9,155
8.4,-0.75,139
8.4,-0.6,94
8.4,-0.45,65
8.4,-0.3,111
8.4,-0.15,111
8.4,0.0,42
8.4,0.15,88
8.4,0.3,255
8.4,0.45,67
8.4,0.6,56
8.4,0.75,57
8.4,0.9,58
8.4,1.05,58
8.4,1.2,57
8.4,1.35,57
8.4,1.5,71
8.55,-1.5,126
8.55,-1.35,126
8.55,-1.2,113
8.55,-1.05,110
8.55,-0.9,92
8.55,-0.75,0
8.55,-0.6,180
8.55,-0.45,77
8.55,-0.3,38
8.55,-0.15,19
8.55,0.0,7
8.55,0.15,44
8.55,0.3,48
8.55,0.45,2
8.55,0.6,41
8.55,0.75,26
8.55,0.9,48
8.55,1.05,45
8.55,1.2,52
8.55,1.35,52
8.55,1.5,56
8.7,-1.5,128
8.7,-1.35,128
8.7,-1.2,128
8.7,-1.05,122
8.7,-0.9,102
8.7,-0.75,96
8.7,-0.6,106
8.7,-0.45,71
8.7,-0.3,66
8.7,-0.15,73
8.7,0.0,140
8.7,0.15,40
8.7,0.3,85
8.7,0.45,51
8.7,0.6,26
8.7,0.75,39
8.7,0.9,52
8.7,1.05,43
8.7,1.2,40
8.7,1.35,50
8.7,1.5,51
8.85,-1.5,128
8.85,-1.35,128
8.85,-1.2,128
8.85,-1.05,128
8.85,-0.9,121
8.85,-0.75,107
8.85,-0.6,84
8.85,-0.45,50
8.85,-0.3,60
8.85,-0.15,37
8.85,0.0,111
8.85,0.15,14
8.85,0.3,75
8.85,0.45,38
8.85,0.6,31
8.85,0.75,36
8.85,0.9,51
8.85,1.05,54
8.85,1.2,54
8.85,1.35,54
8.85,1.5,52
9.0,-1.5,119
9.0,-1.35,120
9.0,-1.2,120
9.0,-1.05,111
9.0,-0.9,131
9.0,-0.75,136
9.0,-0.6,137
9.0,-0.45,97
9.0,-0.3,93
9.0,-0.15,56
9.0,0.0,143
9.0,0.15,27
9.0,0.3,72
9.0,0.45,32
9.0,0.6,48
9.0,0.75,60
9.0,0.9,52
9.0,1.05,51
9.0,1.2,54
9.0,1.35,53
9.0,1.5,53
9.15,-1.5,112
9.15,-1.35,100
9.15,-1.2,103
9.15,-1.05,109
9.15,-0.9,139
9.15,-0.75,162
9.15,-0.6,184
9.15,-0.45,72
9.15,-0.3,76
9.15,-0.15,57
9.15,0.0,114
9.15,0.15,59
9.15,0.3,28
9.15,0.45,3
9.15,0.6,153
9.15,0.75,85
9.15,0.9,53
9.15,1.05,51
9.15,1.2,63
9.15,1.35,62
9.15,1.5,57
9.3,-1.5,75
9.3,-1.35,64
9.3,-1.2,73
9.3,-1.05,78
9.3,-0.9,90
9.3,-0.75,131
9.3,-0.6,143
9.3,-0.45,38
9.3,-0.3,0
9.3,-0.15,43
9.3,0.0,39
9.3,0.15,23
9.3,0.3,47
9.3,0.45,48
9.3,0.6,3
9.3,0.75,58
9.3,0.9,62
9.3,1.05,62
9.3,1.2,65
9.3,1.35,65
9.3,1.5,65
9.45,-1.5,58
9.45,-1.35,59
9.45,-1.2,60
9.45,-1.05,65
9.45,-0.9,69
9.45,-0.75,57
9.45,-0.6,23
9.45,-0.45,0
9.45,-0.3,4
9.45,-0.15,176
9.45,0.0,0
9.45,0.15,45
9.45,0.3,144
9.45,0.45,90
9.45,0.6,78
9.45,0.75,25
9.45,0.9,55
9.45,1.05,60
9.45,1.2,63
9.45,1.35,64
9.45,1.5,65
9.6,-1.5,47
9.6,-1.35,37
9.6,-1.2,37
9.6,-1.05,41
9.6,-0.9,37
9.6,-0.75,30
9.6,-0.6,24
9.6,-0.45,28
9.6,-0.3,33
9.6,-0.15,72
9.6,0.0,4
9.6,0.15,53
9.6,0.3,80
9.6,0.45,128
9.6,0.6,140
9.6,0.75,32
9.6,0.9,48
9.6,1.05,49
9.6,1.2,53
9.6,1.35,66
9.6,1.5,50
9.75,-1.5,52
9.75,-1.35,50
9.75,-1.2,27
9.75,-1.05,27
9.75,-0.9,27
9.75,-0.75,27
9.75,-0.6,11
9.75,-0.45,62
9.75,-0.3,108
9.75,-0.15,45
9.75,0.0,10
9.75,0.15,71
9.75,0.3,255
9.75,0.45,55
9.75,0.6,60
9.75,0.75,54
9.75,0.9,60
9.75,1.05,66
9.75,1.2,66
9.75,1.35,66
9.75,1.5,67
9.9,-1.5,57
9.9,-1.35,42
9.9,-1.2,40
9.9,-1.05,42
9.9,-0.9,37
9.9,-0.75,31
9.9,-0.6,26
9.9,-0.45,50
9.9,-0.3,63
9.9,-0.15,35
9.9,0.0,41
9.9,0.15,54
9.9,0.3,78
9.9,0.45,55
9.9,0.6,90
9.9,0.75,66
9.9,0.9,65
9.9,1.05,64
9.9,1.2,64
9.9,1.35,78
9.9,1.5,79
10.05,-1.5,54
10.05,-1.35,66
10.05,-1.2,66
10.05,-1.05,66
10.05,-0.9,61
10.05,-0.75,45
10.05,-0.6,17
10.05,-0.45,64
10.05,-0.3,76
10.05,-0.15,146
10.05,0.0,72
10.05,0.15,55
10.05,0.3,0
10.05,0.45,34
10.05,0.6,90
10.05,0.75,73
10.05,0.9,69
10.05,1.05,64
10.05,1.2,64
10.05,1.35,64
10.05,1.5,80
10.2,-1.5,54
10.2,-1.35,54
10.2,-1.2,54
10.2,-1.05,54
10.2,-0.9,69
10.2,-0.75,68
10.2,-0.6,76
10.2,-0.45,92
10.2,-0.3,140
10.2,-0.15,113
10.2,0.0,90
10.2,0.15,41
10.2,0.3,5
10.2,0.45,3
10.2,0.6,215
10.2,0.75,89
10.2,0.9,50
10.2,1.05,68
10.2,1.2,80
10.2,1.35,86
10.2,1.5,73
10.35,-1.5,72
10.35,-1.35,73
10.35,-1.2,73
10.35,-1.05,74
10.35,-0.9,81
10.35,-0.75,91
10.35,-0.6,135
10.35,-0.45,93
10.35,-0.3,72
10.35,-0.15,71
10.35,0.0,121
10.35,0.15,87
10.35,0.3,49
10.35,0.45,38
10.35,0.6,37
10.35,0.75,78
10.35,0.9,0
10.35,1.05,62
10.35,1.2,87
10.35,1.35,89
10.35,1.5,92
10.5,-1.5,87
10.5,-1.35,87
10.5,-1.2,87
10.5,-1.05,88
10.5,-0.9,93
10.5,-0.75,96
10.5,-0.6,105
10.5,-0.45,71
10.5,-0.3,67
10.5,-0.15,64
10.5,0.0,159
10.5,0.15,61
10.5,0.3,56
10.5,0.45,51
10.5,0.6,107
10.5,0.75,122
10.5,0.9,90
10.5,1.05,83
10.5,1.2,86
10.5,1.35,87
10.5,1.5,92
10.65,-1.5,96
10.65,-1.35,95
10.65,-1.2,87
10.65,-1.05,86
10.65,-0.9,85
10.65,-0.75,73
10.65,-0.6,71
10.65,-0.45,130
10.65,-0.3,110
10.65,-0.15,118
10.65,0.0,238
10.65,0.15,255
10.65,0.3,106
10.65,0.45,72
10.65,0.6,152
10.65,0.75,227
10.65,0.9,130
10.65,1.05,101
10.65,1.2,92
10.65,1.35,96
10.65,1.5,95
10.8,-1.5,117
10.8,-1.35,99
10.8,-1.2,96
10.8,-1.05,95
10.8,-0.9,72
10.8,-0.75,72
10.8,-0.6,86
10.8,-0.45,123
10.8,-0.3,142
10.8,-0.15,107
10.8,0.0,189
10.8,0.15,239
10.8,0.3,161
10.8,0.45,72
10.8,0.6,80
10.8,0.75,125
10.8,0.9,123
10.8,1.05,112
10.8,1.2,108
10.8,1.35,106
10.8,1.5,104
10.95,-1.5,96
10.95,-1.35,95
10.95,-1.2,93
10.95,-1.05,91
10.95,-0.9,84
10.95,-0.75,69
10.95,-0.6,63
10.95,-0.45,17
10.95,-0.3,73
10.95,-0.15,54
10.95,0.0,126
10.95,0.15,199
10.95,0.3,184
10.95,0.45,116
10.95,0.6,108
10.95,0.75,126
10.95,0.9,135
10.95,1.05,134
10.95,1.2,127
10.95,1.35,124
10.95,1.5,85
11.1,-1.5,72
11.1,-1.35,73
11.1,-1.2,74
11.1,-1.05,75
11.1,-0.9,78
11.1,-0.75,77
11.1,-0.6,75
11.1,-0.45,44
11.1,-0.3,29
11.1,-0.15,134
11.1,0.0,86
11.1,0.15,150
11.1,0.3,231
11.1,0.45,251
11.1,0.6,162
11.1,0.75,143
11.1,0.9,143
11.1,1.05,143
11.1,1.2,127
11.1,1.35,108
11.1,1.5,102
11.25,-1.5,71
11.25,-1.35,73
11.25,-1.2,75
11.25,-1.05,83
11.25,-0.9,86
11.25,-0.75,77
11.25,-0.6,84
11.25,-0.45,164
11.25,-0.3,54
11.25,-0.15,78
11.25,0.0,210
11.25,0.15,107
11.25,0.3,113
11.25,0.45,216
11.25,0.6,145
11.25,0.75,115
11.25,0.9,121
11.25,1.05,122
11.25,1.2,124
11.25,1.35,120
11.25,1.5,92
11.4,-1.5,60
11.4,-1.35,63
11.4,-1.2,68
11.4,-1.05,91
11.4,-0.9,99
11.4,-0.75,107
11.4,-0.6,92
11.4,-0.45,102
11.4,-0.3,60
11.4,-0.15,81
11.4,0.0,150
11.4,0.15,113
11.4,0.3,120
11.4,0.45,73
11.4,0.6,72
11.4,0.75,102
11.4,0.9,102
11.4,1.05,106
11.4,1.2,132
11.4,1.35,128
11.4,1.5,132
11.55,-1.5,81
11.55,-1.35,81
11.55,-1.2,82
11.55,-1.05,84
11.55,-0.9,96
11.55,-0.75,107
11.55,-0.6,72
11.55,-0.45,85
11.55,-0.3,100
11.55,-0.15,117
11.55,0.0,91
11.55,0.15,81
11.55,0.3,105
11.55,0.45,95
11.55,0.6,32
11.55,0.75,94
11.55,0.9,115
11.55,1.05,126
11.55,1.2,135
11.55,1.35,140
11.55,1.5,144
11.7,-1.5,69
11.7,-1.35,75
11.7,-1.2,73
11.7,-1.05,61
11.7,-0.9,61
11.7,-0.75,58
11.7,-0.6,28
11.7,-0.45,71
11.7,-0.3,118
11.7,-0.15,109
11.7,0.0,78
11.7,0.15,155
11.7,0.3,255
11.7,0.45,76
11.7,0.6,77
11.7,0.75,117
11.7,0.9,132
11.7,1.05,135
11.7,1.2,126
11.7,1.35,129
11.7,1.5,129
11.85,-1.5,63
11.85,-1.35,75
11.85,-1.2,73
11.85,-1.05,65
11.85,-0.9,52
11.85,-0.75,41
11.85,-0.6,62
11.85,-0.45,76
11.85,-0.3,109
11.85,-0.15,126
11.85,0.0,93
11.85,0.15,91
11.85,0.3,87
11.85,0.45,77
11.85,0.6,132
11.85,0.75,182
11.85,0.9,132
11.85,1.05,134
11.85,1.2,135
11.85,1.35,132
11.85,1.5,124
12.0,-1.5,42
12.0,-1.35,56
12.0,-1.2,65
12.0,-1.05,48
12.0,-0.9,34
12.0,-0.75,9
12.0,-0.6,57
12.0,-0.45,95
12.0,-0.3,158
12.0,-0.15,100
12.0,0.0,71
12.0,0.15,0
12.0,0.3,51
12.0,0.45,57
12.0,0.6,105
12.0,0.75,114
12.0,0.9,145
12.0,1.05,164
12.0,1.2,152
12.0,1.35,130
12.0,1.5,115
12.15,-1.5,50
12.15,-1.35,51
12.15,-1.2,53
12.15,-1.05,60
12.15,-0.9,42
12.15,-0.75,5
12.15,-0.6,79
12.15,-0.45,130
12.15,-0.3,68
12.15,-0.15,97
12.15,0.0,62
12.15,0.15,14
12.15,0.3,38
12.15,0.45,21
12.15,0.6,80
12.15,0.75,150
12.15,0.9,255
12.15,1.05,255
12.15,1.2,191
12.15,1.35,137
12.15,1.5,115
12.3,-1.5,47
12.3,-1.35,48
12.3,-1.2,50
12.3,-1.05,50
12.3,-0.9,51
12.3,-0.75,71
12.3,-0.6,120
12.3,-0.45,138
12.3,-0.3,75
12.3,-0.15,242
12.3,0.0,57
12.3,0.15,63
12.3,0.3,63
12.3,0.45,43
12.3,0.6,65
12.3,0.75,149
12.3,0.9,255
12.3,1.05,255
12.3,1.2,185
12.3,1.35,140
12.3,1.5,115
12.45,-1.5,43
12.45,-1.35,43
12.45,-1.2,43
12.45,-1.05,54
12.45,-0.9,55
12.45,-0.75,92
12.45,-0.6,119
12.45,-0.45,191
12.45,-0.3,181
12.45,-0.15,112
12.45,0.0,102
12.45,0.15,60
12.45,0.3,144
12.45,0.45,33
12.45,0.6,33
12.45,0.75,76
12.45,0.9,156
12.45,1.05,171
12.45,1.2,141
12.45,1.35,114
12.45,1.5,96
12.6,-1.5,43
12.6,-1.35,49
12.6,-1.2,54
12.6,-1.05,58
12.6,-0.9,58
12.6,-0.75,62
12.6,-0.6,98
12.6,-0.45,107
12.6,-0.3,51
12.6,-0.15,80
12.6,0.0,84
12.6,0.15,31
12.6,0.3,6
12.6,0.45,11
12.6,0.6,14
12.6,0.75,29
12.6,0.9,58
12.6,1.05,79
12.6,1.2,89
12.6,1.35,77
12.6,1.5,65
12.75,-1.5,23
12.75,-1.35,32
12.75,-1.2,36
12.75,-1.05,33
12.75,-0.9,18
12.75,-0.75,8
12.75,-0.6,50
12.75,-0.45,107
12.75,-0.3,92
12.75,-0.15,91
12.75,0.0,62
12.75,0.15,16
12.75,0.3,6
12.75,0.45,0
12.75,0.6,3
12.75,0.75,3
12.75,0.9,24
12.75,1.05,41
12.75,1.2,46
12.75,1.35,44
12.75,1.5,32
12.9,-1.5,0
12.9,-1.35,10
12.9,-1.2,25
12.9,-1.05,27
12.9,-0.9,7
12.9,-0.75,18
12.9,-0.6,55
12.9,-0.45,67
12.9,-0.3,75
12.9,-0.15,137
12.9,0.0,77
12.9,0.15,31
12.9,0.3,6
12.9,0.45,3
12.9,0.6,6
12.9,0.75,3
12.9,0.9,8
12.9,1.05,24
12.9,1.2,27
12.9,1.35,12
12.9,1.5,0
13.05,-1.5,0
13.05,-1.35,7
13.05,-1.2,26
13.05,-1.05,32
13.05,-0.9,32
13.05,-0.75,44
13.05,-0.6,54
13.05,-0.45,45
13.05,-0.3,51
13.05,-0.15,95
13.05,0.0,78
13.05,0.15,30
13.05,0.3,22
13.05,0.45,14
13.05,0.6,14
13.05,0.75,3
13.05,0.9,4
13.05,1.05,18
13.05,1.2,20
13.05,1.35,5
13.05,1.5,0
