-3.0,-1.5,0
-3.0,-1.35,0
-3.0,-1.2,13
-3.0,-1.05,31
-3.0,-0.9,52
-3.0,-0.75,71
-3.0,-0.6,86
-3.0,-0.45,98
-3.0,-0.3,106
-3.0,-0.15,110
-3.0,0.0,111
-3.0,0.15,109
-3.0,0.3,103
-3.0,0.45,94
-3.0,0.6,76
-3.0,0.75,61
-3.0,0.9,44
-3.0,1.05,26
-3.0,1.2,10
-3.0,1.35,0
-3.0,1.5,0
-2.85,-1.5,0
-2.85,-1.35,5
-2.85,-1.2,19
-2.85,-1.05,38
-2.85,-0.9,59
-2.85,-0.75,78
-2.85,-0.6,94
-2.85,-0.45,106
-2.85,-0.3,113
-2.85,-0.15,117
-2.85,0.0,118
-2.85,0.15,116
-2.85,0.3,110
-2.85,0.45,101
-2.85,0.6,83
-2.85,0.75,68
-2.85,0.9,50
-2.85,1.05,31
-2.85,1.2,14
-2.85,1.35,3
-2.85,1.5,0
-2.7,-1.5,14
-2.7,-1.35,20
-2.7,-1.2,33
-2.7,-1.05,52
-2.7,-0.9,72
-2.7,-0.75,90
-2.7,-0.6,104
-2.7,-0.45,115
-2.7,-0.3,122
-2.7,-0.15,126
-2.7,0.0,127
-2.7,0.15,125
-2.7,0.3,119
-2.7,0.45,110
-2.7,0.6,92
-2.7,0.75,77
-2.7,0.9,61
-2.7,1.05,43
-2.7,1.2,26
-2.7,1.35,15
-2.7,1.5,10
-2.55,-1.5,37
-2.55,-1.35,43
-2.55,-1.2,55
-2.55,-1.05,71
-2.55,-0.9,89
-2.55,-0.75,104
-2.55,-0.6,117
-2.55,-0.45,127
-2.55,-0.3,133
-2.55,-0.15,136
-2.55,0.0,137
-2.55,0.15,134
-2.55,0.3,129
-2.55,0.45,121
-2.55,0.6,103
-2.55,0.75,90
-2.55,0.9,75
-2.55,1.05,59
-2.55,1.2,44
-2.55,1.35,33
-2.55,1.5,28
-2.4,-1.5,62
-2.4,-1.35,68
-2.4,-1.2,79
-2.4,-1.05,93
-2.4,-0.9,107
-2.4,-0.75,120
-2.4,-0.6,131
-2.4,-0.45,140
-2.4,-0.3,145
-2.4,-0.15,148
-2.4,0.0,148
-2.4,0.15,145
-2.4,0.3,140
-2.4,0.45,133
-2.4,0.6,116
-2.4,0.75,104
-2.4,0.9,90
-2.4,1.05,76
-2.4,1.2,64
-2.4,1.35,54
-2.4,1.5,48
-2.25,-1.5,87
-2.25,-1.35,93
-2.25,-1.2,102
-2.25,-1.05,114
-2.25,-0.9,126
-2.25,-0.75,137
-2.25,-0.6,146
-2.25,-0.45,153
-2.25,-0.3,158
-2.25,-0.15,160
-2.25,0.0,159
-2.25,0.15,157
-2.25,0.3,152
-2.25,0.45,137
-2.25,0.6,128
-2.25,0.75,117
-2.25,0.9,106
-2.25,1.05,94
-2.25,1.2,83
-2.25,1.35,74
-2.25,1.5,68
-2.1,-1.5,108
-2.1,-1.35,114
-2.1,-1.2,123
-2.1,-1.05,132
-2.1,-0.9,142
-2.1,-0.75,152
-2.1,-0.6,160
-2.1,-0.45,167
-2.1,-0.3,171
-2.1,-0.15,172
-2.1,0.0,172
-2.1,0.15,169
-2.1,0.3,163
-2.1,0.45,149
-2.1,0.6,140
-2.1,0.75,130
-2.1,0.9,120
-2.1,1.05,109
-2.1,1.2,99
-2.1,1.35,91
-2.1,1.5,85
-1.95,-1.5,127
-1.95,-1.35,132
-1.95,-1.2,139
-1.95,-1.05,148
-1.95,-0.9,157
-1.95,-0.75,166
-1.95,-0.6,174
-1.95,-0.45,180
-1.95,-0.3,184
-1.95,-0.15,186
-1.95,0.0,184
-1.95,0.15,181
-1.95,0.3,175
-1.95,0.45,161
-1.95,0.6,152
-1.95,0.75,142
-1.95,0.9,132
-1.95,1.05,121
-1.95,1.2,112
-1.95,1.35,104
-1.95,1.5,98
-1.8,-1.5,139
-1.8,-1.35,146
-1.8,-1.2,154
-1.8,-1.05,161
-1.8,-0.9,170
-1.8,-0.75,179
-1.8,-0.6,187
-1.8,-0.45,194
-1.8,-0.3,199
-1.8,-0.15,200
-1.8,0.0,197
-1.8,0.15,192
-1.8,0.3,186
-1.8,0.45,171
-1.8,0.6,162
-1.8,0.75,151
-1.8,0.9,141
-1.8,1.05,131
-1.8,1.2,122
-1.8,1.35,114
-1.8,1.5,107
-1.65,-1.5,148
-1.65,-1.35,155
-1.65,-1.2,162
-1.65,-1.05,171
-1.65,-0.9,181
-1.65,-0.75,190
-1.65,-0.6,200
-1.65,-0.45,209
-1.65,-0.3,214
-1.65,-0.15,215
-1.65,0.0,211
-1.65,0.15,204
-1.65,0.3,196
-1.65,0.45,181
-1.65,0.6,170
-1.65,0.75,159
-1.65,0.9,148
-1.65,1.05,139
-1.65,1.2,129
-1.65,1.35,121
-1.65,1.5,114
-1.5,-1.5,154
-1.5,-1.35,160
-1.5,-1.2,168
-1.5,-1.05,177
-1.5,-0.9,187
-1.5,-0.75,199
-1.5,-0.6,213
-1.5,-0.45,226
-1.5,-0.3,233
-1.5,-0.15,232
-1.5,0.0,224
-1.5,0.15,213
-1.5,0.3,203
-1.5,0.45,188
-1.5,0.6,178
-1.5,0.75,165
-1.5,0.9,153
-1.5,1.05,142
-1.5,1.2,132
-1.5,1.35,123
-1.5,1.5,116
-1.35,-1.5,157
-1.35,-1.35,163
-1.35,-1.2,170
-1.35,-1.05,179
-1.35,-0.9,191
-1.35,-0.75,205
-1.35,-0.6,223
-1.35,-0.45,242
-1.35,-0.3,255
-1.35,-0.15,255
-1.35,0.0,235
-1.35,0.15,218
-1.35,0.3,208
-1.35,0.45,194
-1.35,0.6,181
-1.35,0.75,168
-1.35,0.9,154
-1.35,1.05,142
-1.35,1.2,131
-1.35,1.35,122
-1.35,1.5,115
-1.2,-1.5,158
-1.2,-1.35,163
-1.2,-1.2,170
-1.2,-1.05,179
-1.2,-0.9,190
-1.2,-0.75,206
-1.2,-0.6,228
-1.2,-0.45,255
-1.2,-0.3,255
-1.2,-0.15,255
-1.2,0.0,238
-1.2,0.15,213
-1.2,0.3,208
-1.2,0.45,196
-1.2,0.6,182
-1.2,0.75,167
-1.2,0.9,152
-1.2,1.05,138
-1.2,1.2,126
-1.2,1.35,117
-1.2,1.5,110
-1.05,-1.5,157
-1.05,-1.35,162
-1.05,-1.2,167
-1.05,-1.05,175
-1.05,-0.9,186
-1.05,-0.75,201
-1.05,-0.6,224
-1.05,-0.45,255
-1.05,-0.3,255
-1.05,-0.15,255
-1.05,0.0,228
-1.05,0.15,205
-1.05,0.3,207
-1.05,0.45,196
-1.05,0.6,180
-1.05,0.75,163
-1.05,0.9,147
-1.05,1.05,131
-1.05,1.2,118
-1.05,1.35,108
-1.05,1.5,102
-0.9,-1.5,155
-0.9,-1.35,158
-0.9,-1.2,162
-0.9,-1.05,170
-0.9,-0.9,179
-0.9,-0.75,192
-0.9,-0.6,210
-0.9,-0.45,233
-0.9,-0.3,255
-0.9,-0.15,255
-0.9,0.0,226
-0.9,0.15,210
-0.9,0.3,204
-0.9,0.45,190
-0.9,0.6,175
-0.9,0.75,158
-0.9,0.9,140
-0.9,1.05,120
-0.9,1.2,105
-0.9,1.35,95
-0.9,1.5,90
-0.75,-1.5,153
-0.75,-1.35,154
-0.75,-1.2,156
-0.75,-1.05,159
-0.75,-0.9,167
-0.75,-0.75,179
-0.75,-0.6,194
-0.75,-0.45,209
-0.75,-0.3,219
-0.75,-0.15,220
-0.75,0.0,213
-0.75,0.15,205
-0.75,0.3,192
-0.75,0.45,179
-0.75,0.6,165
-0.75,0.75,147
-0.75,0.9,128
-0.75,1.05,108
-0.75,1.2,90
-0.75,1.35,78
-0.75,1.5,76
-0.6,-1.5,148
-0.6,-1.35,147
-0.6,-1.2,146
-0.6,-1.05,147
-0.6,-0.9,152
-0.6,-0.75,167
-0.6,-0.6,186
-0.6,-0.45,198
-0.6,-0.3,203
-0.6,-0.15,202
-0.6,0.0,199
-0.6,0.15,192
-0.6,0.3,178
-0.6,0.45,167
-0.6,0.6,153
-0.6,0.75,137
-0.6,0.9,116
-0.6,1.05,93
-0.6,1.2,73
-0.6,1.35,61
-0.6,1.5,61
-0.45,-1.5,143
-0.45,-1.35,141
-0.45,-1.2,137
-0.45,-1.05,131
-0.45,-0.9,129
-0.45,-0.75,152
-0.45,-0.6,190
-0.45,-0.45,205
-0.45,-0.3,203
-0.45,-0.15,200
-0.45,0.0,191
-0.45,0.15,181
-0.45,0.3,165
-0.45,0.45,154
-0.45,0.6,142
-0.45,0.75,127
-0.45,0.9,107
-0.45,1.05,83
-0.45,1.2,61
-0.45,1.35,49
-0.45,1.5,52
-0.3,-1.5,140
-0.3,-1.35,136
-0.3,-1.2,130
-0.3,-1.05,119
-0.3,-0.9,102
-0.3,-0.75,136
-0.3,-0.6,227
-0.3,-0.45,240
-0.3,-0.3,205
-0.3,-0.15,199
-0.3,0.0,183
-0.3,0.15,169
-0.3,0.3,151
-0.3,0.45,141
-0.3,0.6,131
-0.3,0.75,117
-0.3,0.9,102
-0.3,1.05,81
-0.3,1.2,61
-0.3,1.35,50
-0.3,1.5,52
-0.15,-1.5,132
-0.15,-1.35,134
-0.15,-1.2,128
-0.15,-1.05,120
-0.15,-0.9,113
-0.15,-0.75,136
-0.15,-0.6,243
-0.15,-0.45,255
-0.15,-0.3,202
-0.15,-0.15,180
-0.15,0.0,163
-0.15,0.15,151
-0.15,0.3,134
-0.15,0.45,125
-0.15,0.6,118
-0.15,0.75,112
-0.15,0.9,100
-0.15,1.05,85
-0.15,1.2,70
-0.15,1.35,61
-0.15,1.5,61
0.0,-1.5,129
0.0,-1.35,128
0.0,-1.2,125
0.0,-1.05,121
0.0,-0.9,114
0.0,-0.75,83
0.0,-0.6,67
0.0,-0.45,166
0.0,-0.3,165
0.0,-0.15,145
0.0,0.0,129
0.0,0.15,114
0.0,0.3,111
0.0,0.45,100
0.0,0.6,97
0.0,0.75,92
0.0,0.9,86
0.0,1.05,89
0.0,1.2,80
0.0,1.35,74
0.0,1.5,72
0.15,-1.5,128
0.15,-1.35,126
0.15,-1.2,124
0.15,-1.05,120
0.15,-0.9,108
0.15,-0.75,91
0.15,-0.6,89
0.15,-0.45,118
0.15,-0.3,120
0.15,-0.15,97
0.15,0.0,79
0.15,0.15,84
0.15,0.3,91
0.15,0.45,94
0.15,0.6,89
0.15,0.75,87
0.15,0.9,84
0.15,1.05,80
0.15,1.2,76
0.15,1.35,73
0.15,1.5,72
0.3,-1.5,117
0.3,-1.35,117
0.3,-1.2,116
0.3,-1.05,115
0.3,-0.9,111
0.3,-0.75,105
0.3,-0.6,102
0.3,-0.45,104
0.3,-0.3,98
0.3,-0.15,72
0.3,0.0,48
0.3,0.15,66
0.3,0.3,81
0.3,0.45,87
0.3,0.6,88
0.3,0.75,87
0.3,0.9,86
0.3,1.05,79
0.3,1.2,78
0.3,1.35,76
0.3,1.5,65
0.45,-1.5,116
0.45,-1.35,116
0.45,-1.2,116
0.45,-1.05,115
0.45,-0.9,113
0.45,-0.75,105
0.45,-0.6,89
0.45,-0.45,87
0.45,-0.3,91
0.45,-0.15,76
0.45,0.0,62
0.45,0.15,70
0.45,0.3,79
0.45,0.45,82
0.45,0.6,82
0.45,0.75,82
0.45,0.9,82
0.45,1.05,71
0.45,1.2,71
0.45,1.35,59
0.45,1.5,59
0.6,-1.5,106
0.6,-1.35,108
0.6,-1.2,110
0.6,-1.05,112
0.6,-0.9,115
0.6,-0.75,110
0.6,-0.6,68
0.6,-0.45,69
0.6,-0.3,92
0.6,-0.15,80
0.6,0.0,73
0.6,0.15,72
0.6,0.3,70
0.6,0.45,69
0.6,0.6,68
0.6,0.75,67
0.6,0.9,62
0.6,1.05,63
0.6,1.2,59
0.6,1.35,56
0.6,1.5,56
0.75,-1.5,104
0.75,-1.35,106
0.75,-1.2,110
0.75,-1.05,115
0.75,-0.9,126
0.75,-0.75,146
0.75,-0.6,187
0.75,-0.45,162
0.75,-0.3,89
0.75,-0.15,69
0.75,0.0,67
0.75,0.15,71
0.75,0.3,70
0.75,0.45,65
0.75,0.6,57
0.75,0.75,58
0.75,0.9,60
0.75,1.05,62
0.75,1.2,47
0.75,1.35,46
0.75,1.5,46
0.9,-1.5,89
0.9,-1.35,92
0.9,-1.2,95
0.9,-1.05,104
0.9,-0.9,120
0.9,-0.75,157
0.9,-0.6,246
0.9,-0.45,193
0.9,-0.3,60
0.9,-0.15,54
0.9,0.0,65
0.9,0.15,72
0.9,0.3,70
0.9,0.45,56
0.9,0.6,50
0.9,0.75,55
0.9,0.9,48
0.9,1.05,47
0.9,1.2,47
0.9,1.35,46
0.9,1.5,45
1.05,-1.5,86
1.05,-1.35,86
1.05,-1.2,100
1.05,-1.05,105
1.05,-0.9,114
1.05,-0.75,131
1.05,-0.6,141
1.05,-0.45,104
1.05,-0.3,60
1.05,-0.15,51
1.05,0.0,72
1.05,0.15,81
1.05,0.3,72
1.05,0.45,58
1.05,0.6,48
1.05,0.75,48
1.05,0.9,48
1.05,1.05,47
1.05,1.2,46
1.05,1.35,45
1.05,1.5,45
1.2,-1.5,86
1.2,-1.35,88
1.2,-1.2,91
1.2,-1.05,96
1.2,-0.9,99
1.2,-0.75,100
1.2,-0.6,97
1.2,-0.45,78
1.2,-0.3,50
1.2,-0.15,63
1.2,0.0,91
1.2,0.15,88
1.2,0.3,69
1.2,0.45,58
1.2,0.6,53
1.2,0.75,46
1.2,0.9,47
1.2,1.05,46
1.2,1.2,45
1.2,1.35,44
1.2,1.5,44
1.35,-1.5,84
1.35,-1.35,82
1.35,-1.2,83
1.35,-1.05,84
1.35,-0.9,84
1.35,-0.75,81
1.35,-0.6,76
1.35,-0.45,71
1.35,-0.3,63
1.35,-0.15,61
1.35,0.0,72
1.35,0.15,73
1.35,0.3,64
1.35,0.45,59
1.35,0.6,46
1.35,0.75,44
1.35,0.9,43
1.35,1.05,42
1.35,1.2,42
1.35,1.35,42
1.35,1.5,44
1.5,-1.5,79
1.5,-1.35,78
1.5,-1.2,72
1.5,-1.05,71
1.5,-0.9,71
1.5,-0.75,69
1.5,-0.6,67
1.5,-0.45,58
1.5,-0.3,64
1.5,-0.15,56
1.5,0.0,62
1.5,0.15,56
1.5,0.3,54
1.5,0.45,49
1.5,0.6,47
1.5,0.75,40
1.5,0.9,43
1.5,1.05,42
1.5,1.2,42
1.5,1.35,44
1.5,1.5,44
1.65,-1.5,65
1.65,-1.35,64
1.65,-1.2,57
1.65,-1.05,55
1.65,-0.9,56
1.65,-0.75,58
1.65,-0.6,56
1.65,-0.45,57
1.65,-0.3,113
1.65,-0.15,66
1.65,0.0,54
1.65,0.15,53
1.65,0.3,47
1.65,0.45,38
1.65,0.6,41
1.65,0.75,40
1.65,0.9,40
1.65,1.05,40
1.65,1.2,44
1.65,1.35,44
1.65,1.5,44
1.8,-1.5,56
1.8,-1.35,54
1.8,-1.2,60
1.8,-1.05,53
1.8,-0.9,50
1.8,-0.75,53
1.8,-0.6,58
1.8,-0.45,88
1.8,-0.3,95
1.8,-0.15,29
1.8,0.0,44
1.8,0.15,46
1.8,0.3,41
1.8,0.45,33
1.8,0.6,32
1.8,0.75,31
1.8,0.9,32
1.8,1.05,42
1.8,1.2,40
1.8,1.35,41
1.8,1.5,41
1.95,-1.5,57
1.95,-1.35,55
1.95,-1.2,51
1.95,-1.05,46
1.95,-0.9,42
1.95,-0.75,49
1.95,-0.6,58
1.95,-0.45,70
1.95,-0.3,71
1.95,-0.15,22
1.95,0.0,35
1.95,0.15,34
1.95,0.3,36
1.95,0.45,31
1.95,0.6,29
1.95,0.75,29
1.95,0.9,36
1.95,1.05,38
1.95,1.2,40
1.95,1.35,37
1.95,1.5,41
2.1,-1.5,65
2.1,-1.35,61
2.1,-1.2,50
2.1,-1.05,37
2.1,-0.9,24
2.1,-0.75,42
2.1,-0.6,48
2.1,-0.45,53
2.1,-0.3,79
2.1,-0.15,87
2.1,0.0,63
2.1,0.15,49
2.1,0.3,34
2.1,0.45,22
2.1,0.6,22
2.1,0.75,31
2.1,0.9,36
2.1,1.05,36
2.1,1.2,34
2.1,1.35,35
2.1,1.5,41
2.25,-1.5,69
2.25,-1.35,67
2.25,-1.2,61
2.25,-1.05,42
2.25,-0.9,0
2.25,-0.75,39
2.25,-0.6,38
2.25,-0.45,51
2.25,-0.3,82
2.25,-0.15,100
2.25,0.0,74
2.25,0.15,64
2.25,0.3,45
2.25,0.45,4
2.25,0.6,16
2.25,0.75,27
2.25,0.9,29
2.25,1.05,34
2.25,1.2,39
2.25,1.35,40
2.25,1.5,40
2.4,-1.5,76
2.4,-1.35,74
2.4,-1.2,76
2.4,-1.05,77
2.4,-0.9,71
2.4,-0.75,62
2.4,-0.6,31
2.4,-0.45,23
2.4,-0.3,43
2.4,-0.15,74
2.4,0.0,40
2.4,0.15,35
2.4,0.3,36
2.4,0.45,41
2.4,0.6,30
2.4,0.75,33
2.4,0.9,39
2.4,1.05,41
2.4,1.2,45
2.4,1.35,45
2.4,1.5,45
2.55,-1.5,81
2.55,-1.35,83
2.55,-1.2,86
2.55,-1.05,99
2.55,-0.9,70
2.55,-0.75,151
2.55,-0.6,48
2.55,-0.45,31
2.55,-0.3,46
2.55,-0.15,67
2.55,0.0,62
2.55,0.15,23
2.55,0.3,26
2.55,0.45,37
2.55,0.6,41
2.55,0.75,45
2.55,0.9,48
2.55,1.05,48
2.55,1.2,48
2.55,1.35,47
2.55,1.5,50
2.7,-1.5,82
2.7,-1.35,83
2.7,-1.2,86
2.7,-1.05,89
2.7,-0.9,91
2.7,-0.75,106
2.7,-0.6,53
2.7,-0.45,5
2.7,-0.3,52
2.7,-0.15,40
2.7,0.0,27
2.7,0.15,21
2.7,0.3,22
2.7,0.45,45
2.7,0.6,60
2.7,0.75,63
2.7,0.9,56
2.7,1.05,52
2.7,1.2,53
2.7,1.35,52
2.7,1.5,51
2.85,-1.5,78
2.85,-1.35,82
2.85,-1.2,82
2.85,-1.05,81
2.85,-0.9,83
2.85,-0.75,158
2.85,-0.6,55
2.85,-0.45,53
2.85,-0.3,67
2.85,-0.15,173
2.85,0.0,182
2.85,0.15,40
2.85,0.3,41
2.85,0.45,44
2.85,0.6,94
2.85,0.75,77
2.85,0.9,63
2.85,1.05,60
2.85,1.2,55
2.85,1.35,57
2.85,1.5,52
3.0,-1.5,79
3.0,-1.35,78
3.0,-1.2,76
3.0,-1.05,73
3.0,-0.9,59
3.0,-0.75,55
3.0,-0.6,5
3.0,-0.45,70
3.0,-0.3,105
3.0,-0.15,83
3.0,0.0,51
3.0,0.15,87
3.0,0.3,70
3.0,0.45,56
3.0,0.6,64
3.0,0.75,70
3.0,0.9,62
3.0,1.05,59
3.0,1.2,58
3.0,1.35,56
3.0,1.5,56
3.15,-1.5,80
3.15,-1.35,83
3.15,-1.2,64
3.15,-1.05,76
3.15,-0.9,69
3.15,-0.75,62
3.15,-0.6,100
3.15,-0.45,213
3.15,-0.3,135
3.15,-0.15,39
3.15,0.0,83
3.15,0.15,95
3.15,0.3,108
3.15,0.45,65
3.15,0.6,69
3.15,0.75,70
3.15,0.9,61
3.15,1.05,58
3.15,1.2,57
3.15,1.35,56
3.15,1.5,56
3.3,-1.5,104
3.3,-1.35,110
3.3,-1.2,112
3.3,-1.05,101
3.3,-0.9,83
3.3,-0.75,125
3.3,-0.6,161
3.3,-0.45,255
3.3,-0.3,50
3.3,-0.15,38
3.3,0.0,55
3.3,0.15,108
3.3,0.3,59
3.3,0.45,49
3.3,0.6,55
3.3,0.75,61
3.3,0.9,64
3.3,1.05,64
3.3,1.2,56
3.3,1.35,56
3.3,1.5,56
3.45,-1.5,98
3.45,-1.35,96
3.45,-1.2,98
3.45,-1.05,114
3.45,-0.9,133
3.45,-0.75,114
3.45,-0.6,169
3.45,-0.45,197
3.45,-0.3,133
3.45,-0.15,91
3.45,0.0,144
3.45,0.15,21
3.45,0.3,47
3.45,0.45,50
3.45,0.6,50
3.45,0.75,52
3.45,0.9,53
3.45,1.05,56
3.45,1.2,57
3.45,1.35,57
3.45,1.5,57
3.6,-1.5,77
3.6,-1.35,78
3.6,-1.2,87
3.6,-1.05,93
3.6,-0.9,96
3.6,-0.75,32
3.6,-0.6,142
3.6,-0.45,60
3.6,-0.3,60
3.6,-0.15,62
3.6,0.0,105
3.6,0.15,34
3.6,0.3,57
3.6,0.45,77
3.6,0.6,50
3.6,0.75,58
3.6,0.9,64
3.6,1.05,66
3.6,1.2,68
3.6,1.35,57
3.6,1.5,57
3.75,-1.5,62
3.75,-1.35,54
3.75,-1.2,71
3.75,-1.05,67
3.75,-0.9,74
3.75,-0.75,59
3.75,-0.6,62
3.75,-0.45,155
3.75,-0.3,114
3.75,-0.15,55
3.75,0.0,61
3.75,0.15,54
3.75,0.3,149
3.75,0.45,87
3.75,0.6,69
3.75,0.75,63
3.75,0.9,67
3.75,1.05,68
3.75,1.2,79
3.75,1.35,80
3.75,1.5,64
3.9,-1.5,56
3.9,-1.35,52
3.9,-1.2,51
3.9,-1.05,46
3.9,-0.9,46
3.9,-0.75,37
3.9,-0.6,149
3.9,-0.45,74
3.9,-0.3,36
3.9,-0.15,51
3.9,0.0,40
3.9,0.15,72
3.9,0.3,53
3.9,0.45,55
3.9,0.6,61
3.9,0.75,71
3.9,0.9,82
3.9,1.05,85
3.9,1.2,90
3.9,1.35,92
3.9,1.5,93
4.05,-1.5,60
4.05,-1.35,60
4.05,-1.2,55
4.05,-1.05,54
4.05,-0.9,53
4.05,-0.75,56
4.05,-0.6,127
4.05,-0.45,51
4.05,-0.3,99
4.05,-0.15,49
4.05,0.0,135
4.05,0.15,126
4.05,0.3,46
4.05,0.45,47
4.05,0.6,65
4.05,0.75,100
4.05,0.9,104
4.05,1.05,105
4.05,1.2,106
4.05,1.35,91
4.05,1.5,94
4.2,-1.5,60
4.2,-1.35,60
4.2,-1.2,61
4.2,-1.05,60
4.2,-0.9,65
4.2,-0.75,72
4.2,-0.6,64
4.2,-0.45,33
4.2,-0.3,46
4.2,-0.15,38
4.2,0.0,55
4.2,0.15,41
4.2,0.3,67
4.2,0.45,88
4.2,0.6,112
4.2,0.75,115
4.2,0.9,123
4.2,1.05,111
4.2,1.2,108
4.2,1.35,105
4.2,1.5,103
4.35,-1.5,65
4.35,-1.35,65
4.35,-1.2,65
4.35,-1.05,65
4.35,-0.9,61
4.35,-0.75,87
4.35,-0.6,42
4.35,-0.45,146
4.35,-0.3,33
4.35,-0.15,14
4.35,0.0,255
4.35,0.15,143
4.35,0.3,144
4.35,0.45,169
4.35,0.6,105
4.35,0.75,130
4.35,0.9,128
4.35,1.05,119
4.35,1.2,114
4.35,1.35,103
4.35,1.5,103
4.5,-1.5,64
4.5,-1.35,64
4.5,-1.2,60
4.5,-1.05,62
4.5,-0.9,55
4.5,-0.75,144
4.5,-0.6,20
4.5,-0.45,45
4.5,-0.3,19
4.5,-0.15,45
4.5,0.0,49
4.5,0.15,27
4.5,0.3,114
4.5,0.45,191
4.5,0.6,173
4.5,0.75,134
4.5,0.9,121
4.5,1.05,115
4.5,1.2,112
4.5,1.35,110
4.5,1.5,110
4.65,-1.5,67
4.65,-1.35,72
4.65,-1.2,51
4.65,-1.05,59
4.65,-0.9,57
4.65,-0.75,20
4.65,-0.6,42
4.65,-0.45,77
4.65,-0.3,37
4.65,-0.15,19
4.65,0.0,27
4.65,0.15,103
4.65,0.3,116
4.65,0.45,39
4.65,0.6,81
4.65,0.75,102
4.65,0.9,96
4.65,1.05,108
4.65,1.2,109
4.65,1.35,119
4.65,1.5,121
4.8,-1.5,48
4.8,-1.35,60
4.8,-1.2,59
4.8,-1.05,64
4.8,-0.9,68
4.8,-0.75,12
4.8,-0.6,50
4.8,-0.45,68
4.8,-0.3,101
4.8,-0.15,121
4.8,0.0,80
4.8,0.15,4
4.8,0.3,70
4.8,0.45,56
4.8,0.6,61
4.8,0.75,78
4.8,0.9,75
4.8,1.05,80
4.8,1.2,85
4.8,1.35,85
4.8,1.5,90
4.95,-1.5,48
4.95,-1.35,48
4.95,-1.2,49
4.95,-1.05,65
4.95,-0.9,67
4.95,-0.75,96
4.95,-0.6,29
4.95,-0.45,7
4.95,-0.3,152
4.95,-0.15,41
4.95,0.0,38
4.95,0.15,34
4.95,0.3,41
4.95,0.45,80
4.95,0.6,48
4.95,0.75,48
4.95,0.9,48
4.95,1.05,58
4.95,1.2,79
4.95,1.35,84
4.95,1.5,87
5.1,-1.5,64
5.1,-1.35,47
5.1,-1.2,47
5.1,-1.05,46
5.1,-0.9,41
5.1,-0.75,0
5.1,-0.6,35
5.1,-0.45,93
5.1,-0.3,61
5.1,-0.15,11
5.1,0.0,31
5.1,0.15,46
5.1,0.3,43
5.1,0.45,63
5.1,0.6,55
5.1,0.75,48
5.1,0.9,49
5.1,1.05,49
5.1,1.2,50
5.1,1.35,63
5.1,1.5,64
5.25,-1.5,66
5.25,-1.35,65
5.25,-1.2,67
5.25,-1.05,61
5.25,-0.9,55
5.25,-0.75,45
5.25,-0.6,36
5.25,-0.45,35
5.25,-0.3,44
5.25,-0.15,47
5.25,0.0,36
5.25,0.15,19
5.25,0.3,54
5.25,0.45,45
5.25,0.6,32
5.25,0.75,27
5.25,0.9,46
5.25,1.05,43
5.25,1.2,43
5.25,1.35,43
5.25,1.5,43
5.4,-1.5,88
5.4,-1.35,90
5.4,-1.2,87
5.4,-1.05,80
5.4,-0.9,75
5.4,-0.75,197
5.4,-0.6,106
5.4,-0.45,41
5.4,-0.3,106
5.4,-0.15,0
5.4,0.0,22
5.4,0.15,58
5.4,0.3,0
5.4,0.45,36
5.4,0.6,31
5.4,0.75,30
5.4,0.9,32
5.4,1.05,32
5.4,1.2,32
5.4,1.35,32
5.4,1.5,32
5.55,-1.5,89
5.55,-1.35,90
5.55,-1.2,89
5.55,-1.05,93
5.55,-0.9,96
5.55,-0.75,167
5.55,-0.6,118
5.55,-0.45,94
5.55,-0.3,255
5.55,-0.15,44
5.55,0.0,41
5.55,0.15,36
5.55,0.3,67
5.55,0.45,40
5.55,0.6,34
5.55,0.75,33
5.55,0.9,35
5.55,1.05,35
5.55,1.2,36
5.55,1.35,35
5.55,1.5,35
5.7,-1.5,115
5.7,-1.35,98
5.7,-1.2,97
5.7,-1.05,97
5.7,-0.9,95
5.7,-0.75,108
5.7,-0.6,96
5.7,-0.45,57
5.7,-0.3,39
5.7,-0.15,45
5.7,0.0,58
5.7,0.15,28
5.7,0.3,37
5.7,0.45,46
5.7,0.6,37
5.7,0.75,39
5.7,0.9,39
5.7,1.05,43
5.7,1.2,43
5.7,1.35,40
5.7,1.5,40
5.85,-1.5,97
5.85,-1.35,97
5.85,-1.2,96
5.85,-1.05,91
5.85,-0.9,76
5.85,-0.75,75
5.85,-0.6,76
5.85,-0.45,56
5.85,-0.3,39
5.85,-0.15,91
5.85,0.0,22
5.85,0.15,7
5.85,0.3,23
5.85,0.45,37
5.85,0.6,50
5.85,0.75,53
5.85,0.9,43
5.85,1.05,40
5.85,1.2,44
5.85,1.35,44
5.85,1.5,44
6.0,-1.5,95
6.0,-1.35,73
6.0,-1.2,72
6.0,-1.05,71
6.0,-0.9,67
6.0,-0.75,51
6.0,-0.6,55
6.0,-0.45,44
6.0,-0.3,18
6.0,-0.15,39
6.0,0.0,26
6.0,0.15,10
6.0,0.3,68
6.0,0.45,56
6.0,0.6,53
6.0,0.75,53
6.0,0.9,52
6.0,1.05,52
6.0,1.2,52
6.0,1.35,51
6.0,1.5,44
6.15,-1.5,67
6.15,-1.35,52
6.15,-1.2,49
6.15,-1.05,46
6.15,-0.9,46
6.15,-0.75,40
6.15,-0.6,40
6.15,-0.45,81
6.15,-0.3,44
6.15,-0.15,48
6.15,0.0,37
6.15,0.15,45
6.15,0.3,30
6.15,0.45,72
6.15,0.6,56
6.15,0.75,49
6.15,0.9,46
6.15,1.05,45
6.15,1.2,48
6.15,1.35,52
6.15,1.5,44
6.3,-1.5,56
6.3,-1.35,56
6.3,-1.2,52
6.3,-1.05,44
6.3,-0.9,44
6.3,-0.75,51
6.3,-0.6,44
6.3,-0.45,18
6.3,-0.3,48
6.3,-0.15,32
6.3,0.0,24
6.3,0.15,59
6.3,0.3,44
6.3,0.45,55
6.3,0.6,57
6.3,0.75,54
6.3,0.9,53
6.3,1.05,49
6.3,1.2,44
6.3,1.35,44
6.3,1.5,44
6.45,-1.5,49
6.45,-1.35,49
6.45,-1.2,49
6.45,-1.05,53
6.45,-0.9,51
6.45,-0.75,53
6.45,-0.6,55
6.45,-0.45,23
6.45,-0.3,65
6.45,-0.15,65
6.45,0.0,68
6.45,0.15,88
6.45,0.3,48
6.45,0.45,57
6.45,0.6,55
6.45,0.75,55
6.45,0.9,55
6.45,1.05,55
6.45,1.2,55
6.45,1.35,55
6.45,1.5,55
6.6,-1.5,69
6.6,-1.35,69
6.6,-1.2,68
6.6,-1.05,51
6.6,-0.9,50
6.6,-0.75,45
6.6,-0.6,44
6.6,-0.45,63
6.6,-0.3,50
6.6,-0.15,23
6.6,0.0,46
6.6,0.15,95
6.6,0.3,27
6.6,0.45,51
6.6,0.6,56
6.6,0.75,55
6.6,0.9,55
6.6,1.05,55
6.6,1.2,55
6.6,1.35,56
6.6,1.5,56
6.75,-1.5,52
6.75,-1.35,52
6.75,-1.2,69
6.75,-1.05,67
6.75,-0.9,60
6.75,-0.75,52
6.75,-0.6,31
6.75,-0.45,42
6.75,-0.3,37
6.75,-0.15,103
6.75,0.0,66
6.75,0.15,52
6.75,0.3,50
6.75,0.45,53
6.75,0.6,55
6.75,0.75,56
6.75,0.9,56
6.75,1.05,56
6.75,1.2,56
6.75,1.35,56
6.75,1.5,56
6.9,-1.5,71
6.9,-1.35,71
6.9,-1.2,71
6.9,-1.05,70
6.9,-0.9,67
6.9,-0.75,51
6.9,-0.6,45
6.9,-0.45,84
6.9,-0.3,62
6.9,-0.15,115
6.9,0.0,67
6.9,0.15,50
6.9,0.3,80
6.9,0.45,55
6.9,0.6,53
6.9,0.75,53
6.9,0.9,53
6.9,1.05,55
6.9,1.2,56
6.9,1.35,56
6.9,1.5,54
7.05,-1.5,72
7.05,-1.35,72
7.05,-1.2,72
7.05,-1.05,72
7.05,-0.9,73
7.05,-0.75,83
7.05,-0.6,35
7.05,-0.45,41
7.05,-0.3,44
7.05,-0.15,66
7.05,0.0,50
7.05,0.15,50
7.05,0.3,66
7.05,0.45,65
7.05,0.6,57
7.05,0.75,53
7.05,0.9,53
7.05,1.05,53
7.05,1.2,54
7.05,1.35,54
7.05,1.5,55
7.2,-1.5,56
7.2,-1.35,56
7.2,-1.2,56
7.2,-1.05,73
7.2,-0.9,59
7.2,-0.75,56
7.2,-0.6,55
7.2,-0.45,55
7.2,-0.3,112
7.2,-0.15,72
7.2,0.0,50
7.2,0.15,58
7.2,0.3,55
7.2,0.45,57
7.2,0.6,56
7.2,0.75,54
7.2,0.9,54
7.2,1.05,54
7.2,1.2,54
7.2,1.35,55
7.2,1.5,55
7.35,-1.5,57
7.35,-1.35,57
7.35,-1.2,57
7.35,-1.05,56
7.35,-0.9,54
7.35,-0.75,49
7.35,-0.6,40
7.35,-0.45,67
7.35,-0.3,129
7.35,-0.15,73
7.35,0.0,67
7.35,0.15,85
7.35,0.3,89
7.35,0.45,77
7.35,0.6,74
7.35,0.75,69
7.35,0.9,67
7.35,1.05,67
7.35,1.2,71
7.35,1.35,72
7.35,1.5,72
7.5,-1.5,55
7.5,-1.35,55
7.5,-1.2,51
7.5,-1.05,51
7.5,-0.9,31
7.5,-0.75,28
7.5,-0.6,16
7.5,-0.45,23
7.5,-0.3,49
7.5,-0.15,76
7.5,0.0,157
7.5,0.15,218
7.5,0.3,120
7.5,0.45,101
7.5,0.6,95
7.5,0.75,76
7.5,0.9,73
7.5,1.05,71
7.5,1.2,71
7.5,1.35,72
7.5,1.5,72
7.65,-1.5,64
7.65,-1.35,64
7.65,-1.2,61
7.65,-1.05,53
7.65,-0.9,58
7.65,-0.75,49
7.65,-0.6,35
7.65,-0.45,31
7.65,-0.3,76
7.65,-0.15,58
7.65,0.0,105
7.65,0.15,148
7.65,0.3,138
7.65,0.45,106
7.65,0.6,97
7.65,0.75,93
7.65,0.9,92
7.65,1.05,73
7.65,1.2,72
7.65,1.35,72
7.65,1.5,72
7.8,-1.5,63
7.8,-1.35,61
7.8,-1.2,85
7.8,-1.05,81
7.8,-0.9,75
7.8,-0.75,59
7.8,-0.6,63
7.8,-0.45,92
7.8,-0.3,93
7.8,-0.15,131
7.8,0.0,124
7.8,0.15,147
7.8,0.3,168
7.8,0.45,162
7.8,0.6,115
7.8,0.75,109
7.8,0.9,109
7.8,1.05,90
7.8,1.2,73
7.8,1.35,72
7.8,1.5,72
7.95,-1.5,100
7.95,-1.35,99
7.95,-1.2,97
7.95,-1.05,93
7.95,-0.9,87
7.95,-0.75,75
7.95,-0.6,149
7.95,-0.45,156
7.95,-0.3,175
7.95,-0.15,255
7.95,0.0,190
7.95,0.15,162
7.95,0.3,170
7.95,0.45,155
7.95,0.6,135
7.95,0.75,129
7.95,0.9,127
7.95,1.05,112
7.95,1.2,106
7.95,1.35,106
7.95,1.5,90
8.1,-1.5,109
8.1,-1.35,106
8.1,-1.2,106
8.1,-1.05,104
8.1,-0.9,112
8.1,-0.75,118
8.1,-0.6,140
8.1,-0.45,142
8.1,-0.3,117
8.1,-0.15,206
8.1,0.0,219
8.1,0.15,180
8.1,0.3,150
8.1,0.45,125
8.1,0.6,112
8.1,0.75,123
8.1,0.9,125
8.1,1.05,132
8.1,1.2,135
8.1,1.35,118
8.1,1.5,119
8.25,-1.5,106
8.25,-1.35,117
8.25,-1.2,122
8.25,-1.05,121
8.25,-0.9,115
8.25,-0.75,113
8.25,-0.6,98
8.25,-0.45,117
8.25,-0.3,162
8.25,-0.15,184
8.25,0.0,194
8.25,0.15,179
8.25,0.3,141
8.25,0.45,66
8.25,0.6,62
8.25,0.75,100
8.25,0.9,112
8.25,1.05,123
8.25,1.2,118
8.25,1.35,118
8.25,1.5,119
8.4,-1.5,127
8.4,-1.35,132
8.4,-1.2,139
8.4,-1.05,147
8.4,-0.9,136
8.4,-0.75,105
8.4,-0.6,77
8.4,-0.45,110
8.4,-0.3,179
8.4,-0.15,202
8.4,0.0,192
8.4,0.15,160
8.4,0.3,128
8.4,0.45,76
8.4,0.6,69
8.4,0.75,101
8.4,0.9,123
8.4,1.05,120
8.4,1.2,126
8.4,1.35,130
8.4,1.5,119
8.55,-1.5,114
8.55,-1.35,122
8.55,-1.2,140
8.55,-1.05,178
8.55,-0.9,183
8.55,-0.75,110
8.55,-0.6,78
8.55,-0.45,75
8.55,-0.3,90
8.55,-0.15,160
8.55,0.0,162
8.55,0.15,146
8.55,0.3,126
8.55,0.45,105
8.55,0.6,101
8.55,0.75,107
8.55,0.9,121
8.55,1.05,128
8.55,1.2,152
8.55,1.35,148
8.55,1.5,148
8.7,-1.5,110
8.7,-1.35,121
8.7,-1.2,142
8.7,-1.05,167
8.7,-0.9,160
8.7,-0.75,106
8.7,-0.6,90
8.7,-0.45,121
8.7,-0.3,179
8.7,-0.15,127
8.7,0.0,105
8.7,0.15,108
8.7,0.3,109
8.7,0.45,119
8.7,0.6,117
8.7,0.75,118
8.7,0.9,122
8.7,1.05,126
8.7,1.2,129
8.7,1.35,132
8.7,1.5,144
8.85,-1.5,106
8.85,-1.35,111
8.85,-1.2,118
8.85,-1.05,122
8.85,-0.9,109
8.85,-0.75,86
8.85,-0.6,63
8.85,-0.45,57
8.85,-0.3,126
8.85,-0.15,51
8.85,0.0,39
8.85,0.15,71
8.85,0.3,97
8.85,0.45,106
8.85,0.6,109
8.85,0.75,110
8.85,0.9,125
8.85,1.05,128
8.85,1.2,131
8.85,1.35,133
8.85,1.5,135
9.0,-1.5,102
9.0,-1.35,102
9.0,-1.2,110
9.0,-1.05,106
9.0,-0.9,98
9.0,-0.75,78
9.0,-0.6,65
9.0,-0.45,52
9.0,-0.3,80
9.0,-0.15,63
9.0,0.0,51
9.0,0.15,64
9.0,0.3,85
9.0,0.45,96
9.0,0.6,100
9.0,0.75,113
9.0,0.9,114
9.0,1.05,116
9.0,1.2,117
9.0,1.35,134
9.0,1.5,135
9.15,-1.5,102
9.15,-1.35,102
9.15,-1.2,100
9.15,-1.05,85
9.15,-0.9,78
9.15,-0.75,70
9.15,-0.6,67
9.15,-0.45,73
9.15,-0.3,98
9.15,-0.15,125
9.15,0.0,102
9.15,0.15,89
9.15,0.3,91
9.15,0.45,99
9.15,0.6,102
9.15,0.75,104
9.15,0.9,105
9.15,1.05,105
9.15,1.2,118
9.15,1.35,119
9.15,1.5,120
9.3,-1.5,99
9.3,-1.35,86
9.3,-1.2,83
9.3,-1.05,76
9.3,-0.9,66
9.3,-0.75,50
9.3,-0.6,39
9.3,-0.45,64
9.3,-0.3,123
9.3,-0.15,202
9.3,0.0,155
9.3,0.15,115
9.3,0.3,94
9.3,0.45,99
9.3,0.6,105
9.3,0.75,105
9.3,0.9,106
9.3,1.05,107
9.3,1.2,107
9.3,1.35,107
9.3,1.5,120
9.45,-1.5,85
9.45,-1.35,82
9.45,-1.2,80
9.45,-1.05,69
9.45,-0.9,56
9.45,-0.75,29
9.45,-0.6,0
9.45,-0.45,31
9.45,-0.3,100
9.45,-0.15,147
9.45,0.0,137
9.45,0.15,114
9.45,0.3,101
9.45,0.45,93
9.45,0.6,91
9.45,0.75,106
9.45,0.9,107
9.45,1.05,113
9.45,1.2,114
9.45,1.35,114
9.45,1.5,115
9.6,-1.5,85
9.6,-1.35,82
9.6,-1.2,78
9.6,-1.05,70
9.6,-0.9,59
9.6,-0.75,39
9.6,-0.6,22
9.6,-0.45,41
9.6,-0.3,80
9.6,-0.15,109
9.6,0.0,113
9.6,0.15,107
9.6,0.3,101
9.6,0.45,99
9.6,0.6,92
9.6,0.75,91
9.6,0.9,107
9.6,1.05,107
9.6,1.2,114
9.6,1.35,114
9.6,1.5,115
9.75,-1.5,85
9.75,-1.35,82
9.75,-1.2,80
9.75,-1.05,74
9.75,-0.9,66
9.75,-0.75,55
9.75,-0.6,53
9.75,-0.45,63
9.75,-0.3,77
9.75,-0.15,95
9.75,0.0,100
9.75,0.15,100
9.75,0.3,98
9.75,0.45,99
9.75,0.6,97
9.75,0.75,91
9.75,0.9,91
9.75,1.05,107
9.75,1.2,107
9.75,1.35,114
9.75,1.5,115
9.9,-1.5,84
9.9,-1.35,85
9.9,-1.2,82
9.9,-1.05,78
9.9,-0.9,74
9.9,-0.75,69
9.9,-0.6,70
9.9,-0.45,76
9.9,-0.3,80
9.9,-0.15,91
9.9,0.0,95
9.9,0.15,96
9.9,0.3,96
9.9,0.45,97
9.9,0.6,97
9.9,0.75,96
9.9,0.9,91
9.9,1.05,91
9.9,1.2,107
9.9,1.35,108
9.9,1.5,108
10.05,-1.5,85
10.05,-1.35,85
10.05,-1.2,83
10.05,-1.05,81
10.05,-0.9,72
10.05,-0.75,73
10.05,-0.6,77
10.05,-0.45,82
10.05,-0.3,87
10.05,-0.15,89
10.05,0.0,90
10.05,0.15,90
10.05,0.3,89
10.05,0.45,88
10.05,0.6,93
10.05,0.75,92
10.05,0.9,92
10.05,1.05,92
10.05,1.2,91
10.05,1.35,91
10.05,1.5,91
10.2,-1.5,85
10.2,-1.35,85
10.2,-1.2,84
10.2,-1.05,75
10.2,-0.9,76
10.2,-0.75,79
10.2,-0.6,83
10.2,-0.45,90
10.2,-0.3,94
10.2,-0.15,93
10.2,0.0,91
10.2,0.15,89
10.2,0.3,88
10.2,0.45,87
10.2,0.6,91
10.2,0.75,83
10.2,0.9,82
10.2,1.05,81
10.2,1.2,81
10.2,1.35,91
10.2,1.5,91
10.35,-1.5,85
10.35,-1.35,84
10.35,-1.2,76
10.35,-1.05,76
10.35,-0.9,78
10.35,-0.75,81
10.35,-0.6,87
10.35,-0.45,94
10.35,-0.3,99
10.35,-0.15,97
10.35,0.0,92
10.35,0.15,88
10.35,0.3,86
10.35,0.45,85
10.35,0.6,84
10.35,0.75,81
10.35,0.9,81
10.35,1.05,80
10.35,1.2,80
10.35,1.35,80
10.35,1.5,91
10.5,-1.5,84
10.5,-1.35,83
10.5,-1.2,75
10.5,-1.05,76
10.5,-0.9,77
10.5,-0.75,80
10.5,-0.6,86
10.5,-0.45,93
10.5,-0.3,98
10.5,-0.15,96
10.5,0.0,90
10.5,0.15,86
10.5,0.3,84
10.5,0.45,83
10.5,0.6,82
10.5,0.75,80
10.5,0.9,79
10.5,1.05,79
10.5,1.2,79
10.5,1.35,79
10.5,1.5,78
10.65,-1.5,82
10.65,-1.35,74
10.65,-1.2,74
10.65,-1.05,74
10.65,-0.9,75
10.65,-0.75,77
10.65,-0.6,81
10.65,-0.45,86
10.65,-0.3,89
10.65,-0.15,88
10.65,0.0,85
10.65,0.15,82
10.65,0.3,81
10.65,0.45,80
10.65,0.6,80
10.65,0.75,80
10.65,0.9,78
10.65,1.05,67
10.65,1.2,66
10.65,1.35,65
10.65,1.5,76
10.8,-1.5,70
10.8,-1.35,63
10.8,-1.2,63
10.8,-1.05,71
10.8,-0.9,71
10.8,-0.75,71
10.8,-0.6,73
10.8,-0.45,75
10.8,-0.3,77
10.8,-0.15,77
10.8,0.0,77
10.8,0.15,76
10.8,0.3,76
10.8,0.45,77
10.8,0.6,73
10.8,0.75,73
10.8,0.9,73
10.8,1.05,65
10.8,1.2,64
10.8,1.35,63
10.8,1.5,74
10.95,-1.5,68
10.95,-1.35,61
10.95,-1.2,61
10.95,-1.05,61
10.95,-0.9,61
10.95,-0.75,60
10.95,-0.6,60
10.95,-0.45,63
10.95,-0.3,64
10.95,-0.15,66
10.95,0.0,68
10.95,0.15,70
10.95,0.3,69
10.95,0.45,70
10.95,0.6,70
10.95,0.75,70
10.95,0.9,70
10.95,1.05,63
10.95,1.2,62
10.95,1.35,61
10.95,1.5,61
11.1,-1.5,59
11.1,-1.35,59
11.1,-1.2,58
11.1,-1.05,58
11.1,-0.9,57
11.1,-0.75,55
11.1,-0.6,54
11.1,-0.45,53
11.1,-0.3,53
11.1,-0.15,55
11.1,0.0,56
11.1,0.15,62
11.1,0.3,64
11.1,0.45,66
11.1,0.6,67
11.1,0.75,68
11.1,0.9,68
11.1,1.05,68
11.1,1.2,60
11.1,1.35,59
11.1,1.5,58
11.25,-1.5,57
11.25,-1.35,57
11.25,-1.2,56
11.25,-1.05,55
11.25,-0.9,54
11.25,-0.75,52
11.25,-0.6,50
11.25,-0.45,49
11.25,-0.3,48
11.25,-0.15,50
11.25,0.0,52
11.25,0.15,55
11.25,0.3,56
11.25,0.45,57
11.25,0.6,58
11.25,0.75,65
11.25,0.9,65
11.25,1.05,65
11.25,1.2,58
11.25,1.35,57
11.25,1.5,56
11.4,-1.5,55
11.4,-1.35,55
11.4,-1.2,54
11.4,-1.05,53
11.4,-0.9,52
11.4,-0.75,50
11.4,-0.6,48
11.4,-0.45,48
11.4,-0.3,48
11.4,-0.15,48
11.4,0.0,50
11.4,0.15,53
11.4,0.3,54
11.4,0.45,55
11.4,0.6,55
11.4,0.75,55
11.4,0.9,55
11.4,1.05,54
11.4,1.2,53
11.4,1.35,54
11.4,1.5,53
11.55,-1.5,52
11.55,-1.35,52
11.55,-1.2,52
11.55,-1.05,52
11.55,-0.9,50
11.55,-0.75,49
11.55,-0.6,48
11.55,-0.45,48
11.55,-0.3,48
11.55,-0.15,49
11.55,0.0,50
11.55,0.15,51
11.55,0.3,52
11.55,0.45,53
11.55,0.6,53
11.55,0.75,53
11.55,0.9,52
11.55,1.05,51
11.55,1.2,50
11.55,1.35,49
11.55,1.5,50
11.7,-1.5,49
11.7,-1.35,50
11.7,-1.2,46
11.7,-1.05,48
11.7,-0.9,49
11.7,-0.75,49
11.7,-0.6,48
11.7,-0.45,48
11.7,-0.3,48
11.7,-0.15,49
11.7,0.0,50
11.7,0.15,50
11.7,0.3,51
11.7,0.45,51
11.7,0.6,51
11.7,0.75,50
11.7,0.9,49
11.7,1.05,47
11.7,1.2,46
11.7,1.35,45
11.7,1.5,45
11.85,-1.5,40
11.85,-1.35,41
11.85,-1.2,43
11.85,-1.05,46
11.85,-0.9,47
11.85,-0.75,48
11.85,-0.6,48
11.85,-0.45,48
11.85,-0.3,48
11.85,-0.15,49
11.85,0.0,49
11.85,0.15,49
11.85,0.3,50
11.85,0.45,49
11.85,0.6,48
11.85,0.75,47
11.85,0.9,45
11.85,1.05,43
11.85,1.2,42
11.85,1.35,40
11.85,1.5,38
12.0,-1.5,35
12.0,-1.35,37
12.0,-1.2,39
12.0,-1.05,43
12.0,-0.9,45
12.0,-0.75,46
12.0,-0.6,47
12.0,-0.45,47
12.0,-0.3,48
12.0,-0.15,48
12.0,0.0,48
12.0,0.15,48
12.0,0.3,48
12.0,0.45,47
12.0,0.6,46
12.0,0.75,44
12.0,0.9,41
12.0,1.05,39
12.0,1.2,36
12.0,1.35,34
12.0,1.5,33
12.15,-1.5,29
12.15,-1.35,31
12.15,-1.2,34
12.15,-1.05,39
12.15,-0.9,41
12.15,-0.75,43
12.15,-0.6,45
12.15,-0.45,46
12.15,-0.3,46
12.15,-0.15,47
12.15,0.0,47
12.15,0.15,46
12.15,0.3,46
12.15,0.45,44
12.15,0.6,42
12.15,0.75,40
12.15,0.9,37
12.15,1.05,33
12.15,1.2,30
12.15,1.35,28
12.15,1.5,26
12.3,-1.5,22
12.3,-1.35,24
12.3,-1.2,27
12.3,-1.05,33
12.3,-0.9,37
12.3,-0.75,40
12.3,-0.6,42
12.3,-0.45,43
12.3,-0.3,44
12.3,-0.15,45
12.3,0.0,45
12.3,0.15,44
12.3,0.3,43
12.3,0.45,41
12.3,0.6,39
12.3,0.75,35
12.3,0.9,32
12.3,1.05,27
12.3,1.2,24
12.3,1.35,20
12.3,1.5,19
12.45,-1.5,14
12.45,-1.35,16
12.45,-1.2,21
12.45,-1.05,26
12.45,-0.9,31
12.45,-0.75,35
12.45,-0.6,38
12.45,-0.45,40
12.45,-0.3,42
12.45,-0.15,42
12.45,0.0,42
12.45,0.15,42
12.45,0.3,40
12.45,0.45,38
12.45,0.6,35
12.45,0.75,31
12.45,0.9,26
12.45,1.05,21
12.45,1.2,16
12.45,1.35,13
12.45,1.5,11
12.6,-1.5,6
12.6,-1.35,8
12.6,-1.2,13
12.6,-1.05,19
12.6,-0.9,25
12.6,-0.75,30
12.6,-0.6,34
12.6,-0.45,37
12.6,-0.3,39
12.6,-0.15,40
12.6,0.0,40
12.6,0.15,39
12.6,0.3,38
12.6,0.45,35
12.6,0.6,31
12.6,0.75,26
12.6,0.9,21
12.6,1.05,15
12.6,1.2,9
12.6,1.35,6
12.6,1.5,4
12.75,-1.5,0
12.75,-1.35,1
12.75,-1.2,6
12.75,-1.05,13
12.75,-0.9,20
12.75,-0.75,26
12.75,-0.6,31
12.75,-0.45,34
12.75,-0.3,36
12.75,-0.15,37
12.75,0.0,38
12.75,0.15,37
12.75,0.3,35
12.75,0.45,32
12.75,0.6,28
12.75,0.75,23
12.75,0.9,16
12.75,1.05,10
12.75,1.2,4
12.75,1.35,0
12.75,1.5,0
12.9,-1.5,0
12.9,-1.35,0
12.9,-1.2,2
12.9,-1.05,9
12.9,-0.9,16
12.9,-0.75,23
12.9,-0.6,28
12.9,-0.45,31
12.9,-0.3,34
12.9,-0.15,35
12.9,0.0,35
12.9,0.15,35
12.9,0.3,33
12.9,0.45,30
12.9,0.6,25
12.9,0.75,20
12.9,0.9,13
12.9,1.05,7
12.9,1.2,1
12.9,1.35,0
12.9,1.5,0
13.05,-1.5,0
13.05,-1.35,0
13.05,-1.2,1
13.05,-1.05,7
13.05,-0.9,14
13.05,-0.75,20
13.05,-0.6,26
13.05,-0.45,29
13.05,-0.3,32
13.05,-0.15,33
13.05,0.0,34
13.05,0.15,33
13.05,0.3,31
13.05,0.45,28
13.05,0.6,23
13.05,0.75,18
13.05,0.9,12
13.05,1.05,5
13.05,1.2,0
13.05,1.35,0
13.05,1.5,0
