-3.0,-1.5,0
-3.0,-1.35,20
-3.0,-1.2,67
-3.0,-1.05,90
-3.0,-0.9,101
-3.0,-0.75,108
-3.0,-0.6,114
-3.0,-0.45,121
-3.0,-0.3,127
-3.0,-0.15,132
-3.0,0.0,144
-3.0,0.15,141
-3.0,0.3,141
-3.0,0.45,137
-3.0,0.6,129
-3.0,0.75,118
-3.0,0.9,99
-3.0,1.05,71
-3.0,1.2,37
-3.0,1.35,7
-3.0,1.5,0
-2.85,-1.5,18
-2.85,-1.35,42
-2.85,-1.2,80
-2.85,-1.05,104
-2.85,-0.9,107
-2.85,-0.75,107
-2.85,-0.6,115
-2.85,-0.45,122
-2.85,-0.3,129
-2.85,-0.15,134
-2.85,0.0,146
-2.85,0.15,145
-2.85,0.3,144
-2.85,0.45,140
-2.85,0.6,133
-2.85,0.75,123
-2.85,0.9,106
-2.85,1.05,77
-2.85,1.2,46
-2.85,1.35,18
-2.85,1.5,7
-2.7,-1.5,56
-2.7,-1.35,70
-2.7,-1.2,88
-2.7,-1.05,104
-2.7,-0.9,108
-2.7,-0.75,108
-2.7,-0.6,116
-2.7,-0.45,123
-2.7,-0.3,129
-2.7,-0.15,136
-2.7,0.0,147
-2.7,0.15,148
-2.7,0.3,146
-2.7,0.45,143
-2.7,0.6,133
-2.7,0.75,125
-2.7,0.9,111
-2.7,1.05,91
-2.7,1.2,66
-2.7,1.35,44
-2.7,1.5,29
-2.55,-1.5,78
-2.55,-1.35,80
-2.55,-1.2,81
-2.55,-1.05,92
-2.55,-0.9,105
-2.55,-0.75,107
-2.55,-0.6,117
-2.55,-0.45,120
-2.55,-0.3,127
-2.55,-0.15,140
-2.55,0.0,154
-2.55,0.15,152
-2.55,0.3,148
-2.55,0.45,140
-2.55,0.6,136
-2.55,0.75,130
-2.55,0.9,120
-2.55,1.05,106
-2.55,1.2,89
-2.55,1.35,66
-2.55,1.5,56
-2.4,-1.5,83
-2.4,-1.35,77
-2.4,-1.2,59
-2.4,-1.05,69
-2.4,-0.9,101
-2.4,-0.75,120
-2.4,-0.6,114
-2.4,-0.45,110
-2.4,-0.3,116
-2.4,-0.15,149
-2.4,0.0,179
-2.4,0.15,159
-2.4,0.3,145
-2.4,0.45,140
-2.4,0.6,138
-2.4,0.75,134
-2.4,0.9,128
-2.4,1.05,118
-2.4,1.2,98
-2.4,1.35,86
-2.4,1.5,78
-2.25,-1.5,91
-2.25,-1.35,79
-2.25,-1.2,64
-2.25,-1.05,76
-2.25,-0.9,110
-2.25,-0.75,127
-2.25,-0.6,118
-2.25,-0.45,84
-2.25,-0.3,87
-2.25,-0.15,128
-2.25,0.0,213
-2.25,0.15,139
-2.25,0.3,131
-2.25,0.45,136
-2.25,0.6,138
-2.25,0.75,138
-2.25,0.9,134
-2.25,1.05,118
-2.25,1.2,109
-2.25,1.35,100
-2.25,1.5,93
-2.1,-1.5,91
-2.1,-1.35,99
-2.1,-1.2,95
-2.1,-1.05,105
-2.1,-0.9,131
-2.1,-0.75,140
-2.1,-0.6,131
-2.1,-0.45,91
-2.1,-0.3,87
-2.1,-0.15,104
-2.1,0.0,114
-2.1,0.15,67
-2.1,0.3,118
-2.1,0.45,134
-2.1,0.6,140
-2.1,0.75,141
-2.1,0.9,129
-2.1,1.05,123
-2.1,1.2,116
-2.1,1.35,106
-2.1,1.5,99
-1.95,-1.5,102
-1.95,-1.35,105
-1.95,-1.2,128
-1.95,-1.05,137
-1.95,-0.9,148
-1.95,-0.75,160
-1.95,-0.6,161
-1.95,-0.45,161
-1.95,-0.3,183
-1.95,-0.15,167
-1.95,0.0,141
-1.95,0.15,115
-1.95,0.3,127
-1.95,0.45,139
-1.95,0.6,144
-1.95,0.75,137
-1.95,0.9,131
-1.95,1.05,122
-1.95,1.2,115
-1.95,1.35,109
-1.95,1.5,104
-1.8,-1.5,102
-1.8,-1.35,135
-1.8,-1.2,145
-1.8,-1.05,158
-1.8,-0.9,170
-1.8,-0.75,174
-1.8,-0.6,189
-1.8,-0.45,188
-1.8,-0.3,255
-1.8,-0.15,255
-1.8,0.0,167
-1.8,0.15,127
-1.8,0.3,143
-1.8,0.45,148
-1.8,0.6,140
-1.8,0.75,138
-1.8,0.9,130
-1.8,1.05,121
-1.8,1.2,114
-1.8,1.35,109
-1.8,1.5,104
-1.65,-1.5,117
-1.65,-1.35,137
-1.65,-1.2,153
-1.65,-1.05,178
-1.65,-0.9,207
-1.65,-0.75,206
-1.65,-0.6,170
-1.65,-0.45,79
-1.65,-0.3,186
-1.65,-0.15,215
-1.65,0.0,195
-1.65,0.15,184
-1.65,0.3,164
-1.65,0.45,149
-1.65,0.6,139
-1.65,0.75,130
-1.65,0.9,124
-1.65,1.05,118
-1.65,1.2,110
-1.65,1.35,106
-1.65,1.5,102
-1.5,-1.5,124
-1.5,-1.35,133
-1.5,-1.2,151
-1.5,-1.05,184
-1.5,-0.9,254
-1.5,-0.75,255
-1.5,-0.6,137
-1.5,-0.45,58
-1.5,-0.3,122
-1.5,-0.15,172
-1.5,0.0,201
-1.5,0.15,201
-1.5,0.3,166
-1.5,0.45,144
-1.5,0.6,131
-1.5,0.75,121
-1.5,0.9,113
-1.5,1.05,108
-1.5,1.2,103
-1.5,1.35,100
-1.5,1.5,81
-1.35,-1.5,125
-1.35,-1.35,132
-1.35,-1.2,146
-1.35,-1.05,170
-1.35,-0.9,206
-1.35,-0.75,205
-1.35,-0.6,80
-1.35,-0.45,11
-1.35,-0.3,93
-1.35,-0.15,125
-1.35,0.0,153
-1.35,0.15,155
-1.35,0.3,137
-1.35,0.45,118
-1.35,0.6,103
-1.35,0.75,92
-1.35,0.9,86
-1.35,1.05,83
-1.35,1.2,66
-1.35,1.35,60
-1.35,1.5,60
-1.2,-1.5,111
-1.2,-1.35,113
-1.2,-1.2,122
-1.2,-1.05,137
-1.2,-0.9,141
-1.2,-0.75,111
-1.2,-0.6,64
-1.2,-0.45,64
-1.2,-0.3,90
-1.2,-0.15,92
-1.2,0.0,96
-1.2,0.15,105
-1.2,0.3,96
-1.2,0.45,94
-1.2,0.6,82
-1.2,0.75,63
-1.2,0.9,56
-1.2,1.05,57
-1.2,1.2,59
-1.2,1.35,61
-1.2,1.5,61
-1.05,-1.5,94
-1.05,-1.35,87
-1.05,-1.2,92
-1.05,-1.05,115
-1.05,-0.9,121
-1.05,-0.75,99
-1.05,-0.6,70
-1.05,-0.45,90
-1.05,-0.3,96
-1.05,-0.15,58
-1.05,0.0,72
-1.05,0.15,79
-1.05,0.3,70
-1.05,0.45,62
-1.05,0.6,54
-1.05,0.75,52
-1.05,0.9,54
-1.05,1.05,59
-1.05,1.2,61
-1.05,1.35,56
-1.05,1.5,60
-0.9,-1.5,75
-0.9,-1.35,63
-0.9,-1.2,61
-0.9,-1.05,99
-0.9,-0.9,123
-0.9,-0.75,113
-0.9,-0.6,53
-0.9,-0.45,124
-0.9,-0.3,122
-0.9,-0.15,87
-0.9,0.0,89
-0.9,0.15,70
-0.9,0.3,43
-0.9,0.45,39
-0.9,0.6,32
-0.9,0.75,31
-0.9,0.9,36
-0.9,1.05,45
-0.9,1.2,54
-0.9,1.35,50
-0.9,1.5,55
-0.75,-1.5,63
-0.75,-1.35,61
-0.75,-1.2,70
-0.75,-1.05,107
-0.75,-0.9,145
-0.75,-0.75,171
-0.75,-0.6,212
-0.75,-0.45,208
-0.75,-0.3,174
-0.75,-0.15,64
-0.75,0.0,92
-0.75,0.15,60
-0.75,0.3,1
-0.75,0.45,17
-0.75,0.6,13
-0.75,0.75,8
-0.75,0.9,23
-0.75,1.05,39
-0.75,1.2,51
-0.75,1.35,47
-0.75,1.5,51
-0.6,-1.5,65
-0.6,-1.35,64
-0.6,-1.2,88
-0.6,-1.05,115
-0.6,-0.9,164
-0.6,-0.75,230
-0.6,-0.6,255
-0.6,-0.45,255
-0.6,-0.3,255
-0.6,-0.15,179
-0.6,0.0,127
-0.6,0.15,73
-0.6,0.3,34
-0.6,0.45,15
-0.6,0.6,1
-0.6,0.75,1
-0.6,0.9,20
-0.6,1.05,36
-0.6,1.2,46
-0.6,1.35,53
-0.6,1.5,57
-0.45,-1.5,82
-0.45,-1.35,86
-0.45,-1.2,106
-0.45,-1.05,134
-0.45,-0.9,168
-0.45,-0.75,219
-0.45,-0.6,255
-0.45,-0.45,255
-0.45,-0.3,228
-0.45,-0.15,224
-0.45,0.0,140
-0.45,0.15,18
-0.45,0.3,49
-0.45,0.45,44
-0.45,0.6,31
-0.45,0.75,30
-0.45,0.9,36
-0.45,1.05,45
-0.45,1.2,52
-0.45,1.35,57
-0.45,1.5,58
-0.3,-1.5,97
-0.3,-1.35,102
-0.3,-1.2,113
-0.3,-1.05,129
-0.3,-0.9,149
-0.3,-0.75,177
-0.3,-0.6,214
-0.3,-0.45,189
-0.3,-0.3,48
-0.3,-0.15,180
-0.3,0.0,104
-0.3,0.15,47
-0.3,0.3,65
-0.3,0.45,80
-0.3,0.6,76
-0.3,0.75,63
-0.3,0.9,58
-0.3,1.05,58
-0.3,1.2,58
-0.3,1.35,58
-0.3,1.5,55
-0.15,-1.5,96
-0.15,-1.35,94
-0.15,-1.2,106
-0.15,-1.05,112
-0.15,-0.9,124
-0.15,-0.75,128
-0.15,-0.6,70
-0.15,-0.45,91
-0.15,-0.3,62
-0.15,-0.15,58
-0.15,0.0,3
-0.15,0.15,62
-0.15,0.3,80
-0.15,0.45,168
-0.15,0.6,109
-0.15,0.75,83
-0.15,0.9,69
-0.15,1.05,51
-0.15,1.2,47
-0.15,1.35,46
-0.15,1.5,45
0.0,-1.5,92
0.0,-1.35,85
0.0,-1.2,73
0.0,-1.05,63
0.0,-0.9,86
0.0,-0.75,109
0.0,-0.6,96
0.0,-0.45,86
0.0,-0.3,60
0.0,-0.15,56
0.0,0.0,52
0.0,0.15,71
0.0,0.3,112
0.0,0.45,168
0.0,0.6,120
0.0,0.75,89
0.0,0.9,66
0.0,1.05,57
0.0,1.2,52
0.0,1.35,49
0.0,1.5,48
0.15,-1.5,89
0.15,-1.35,78
0.15,-1.2,52
0.15,-1.05,5
0.15,-0.9,52
0.15,-0.75,83
0.15,-0.6,223
0.15,-0.45,136
0.15,-0.3,96
0.15,-0.15,98
0.15,0.0,83
0.15,0.15,60
0.15,0.3,78
0.15,0.45,104
0.15,0.6,99
0.15,0.75,88
0.15,0.9,78
0.15,1.05,69
0.15,1.2,64
0.15,1.35,61
0.15,1.5,56
0.3,-1.5,83
0.3,-1.35,76
0.3,-1.2,59
0.3,-1.05,38
0.3,-0.9,78
0.3,-0.75,122
0.3,-0.6,223
0.3,-0.45,143
0.3,-0.3,124
0.3,-0.15,200
0.3,0.0,133
0.3,0.15,74
0.3,0.3,78
0.3,0.45,88
0.3,0.6,92
0.3,0.75,85
0.3,0.9,74
0.3,1.05,69
0.3,1.2,65
0.3,1.35,59
0.3,1.5,57
0.45,-1.5,83
0.45,-1.35,73
0.45,-1.2,70
0.45,-1.05,78
0.45,-0.9,95
0.45,-0.75,111
0.45,-0.6,102
0.45,-0.45,90
0.45,-0.3,103
0.45,-0.15,117
0.45,0.0,113
0.45,0.15,91
0.45,0.3,83
0.45,0.45,79
0.45,0.6,81
0.45,0.75,81
0.45,0.9,78
0.45,1.05,80
0.45,1.2,75
0.45,1.35,74
0.45,1.5,73
0.6,-1.5,76
0.6,-1.35,76
0.6,-1.2,78
0.6,-1.05,83
0.6,-0.9,93
0.6,-0.75,101
0.6,-0.6,101
0.6,-0.45,78
0.6,-0.3,53
0.6,-0.15,80
0.6,0.0,82
0.6,0.15,83
0.6,0.3,79
0.6,0.45,76
0.6,0.6,88
0.6,0.75,93
0.6,0.9,98
0.6,1.05,101
0.6,1.2,92
0.6,1.35,92
0.6,1.5,92
0.75,-1.5,78
0.75,-1.35,78
0.75,-1.2,83
0.75,-1.05,85
0.75,-0.9,89
0.75,-0.75,91
0.75,-0.6,90
0.75,-0.45,93
0.75,-0.3,79
0.75,-0.15,60
0.75,0.0,73
0.75,0.15,71
0.75,0.3,62
0.75,0.45,63
0.75,0.6,79
0.75,0.75,88
0.75,0.9,92
0.75,1.05,86
0.75,1.2,88
0.75,1.35,86
0.75,1.5,84
0.9,-1.5,73
0.9,-1.35,74
0.9,-1.2,75
0.9,-1.05,76
0.9,-0.9,80
0.9,-0.75,83
0.9,-0.6,83
0.9,-0.45,93
0.9,-0.3,88
0.9,-0.15,67
0.9,0.0,62
0.9,0.15,62
0.9,0.3,55
0.9,0.45,58
0.9,0.6,66
0.9,0.75,71
0.9,0.9,79
0.9,1.05,79
0.9,1.2,83
0.9,1.35,84
0.9,1.5,85
1.05,-1.5,71
1.05,-1.35,70
1.05,-1.2,54
1.05,-1.05,52
1.05,-0.9,55
1.05,-0.75,55
1.05,-0.6,56
1.05,-0.45,69
1.05,-0.3,93
1.05,-0.15,93
1.05,0.0,98
1.05,0.15,49
1.05,0.3,35
1.05,0.45,63
1.05,0.6,70
1.05,0.75,70
1.05,0.9,70
1.05,1.05,69
1.05,1.2,69
1.05,1.35,64
1.05,1.5,59
1.2,-1.5,62
1.2,-1.35,49
1.2,-1.2,49
1.2,-1.05,51
1.2,-0.9,50
1.2,-0.75,46
1.2,-0.6,42
1.2,-0.45,19
1.2,-0.3,52
1.2,-0.15,75
1.2,0.0,151
1.2,0.15,71
1.2,0.3,66
1.2,0.45,80
1.2,0.6,78
1.2,0.75,74
1.2,0.9,68
1.2,1.05,66
1.2,1.2,61
1.2,1.35,59
1.2,1.5,58
1.35,-1.5,61
1.35,-1.35,63
1.35,-1.2,61
1.35,-1.05,49
1.35,-0.9,49
1.35,-0.75,47
1.35,-0.6,32
1.35,-0.45,19
1.35,-0.3,34
1.35,-0.15,47
1.35,0.0,47
1.35,0.15,97
1.35,0.3,192
1.35,0.45,110
1.35,0.6,82
1.35,0.75,73
1.35,0.9,51
1.35,1.05,47
1.35,1.2,44
1.35,1.35,42
1.35,1.5,41
1.5,-1.5,63
1.5,-1.35,59
1.5,-1.2,55
1.5,-1.05,52
1.5,-0.9,51
1.5,-0.75,46
1.5,-0.6,26
1.5,-0.45,5
1.5,-0.3,1
1.5,-0.15,24
1.5,0.0,26
1.5,0.15,64
1.5,0.3,106
1.5,0.45,82
1.5,0.6,59
1.5,0.75,49
1.5,0.9,43
1.5,1.05,43
1.5,1.2,41
1.5,1.35,40
1.5,1.5,39
1.65,-1.5,63
1.65,-1.35,59
1.65,-1.2,56
1.65,-1.05,53
1.65,-0.9,48
1.65,-0.75,43
1.65,-0.6,35
1.65,-0.45,25
1.65,-0.3,22
1.65,-0.15,36
1.65,0.0,0
1.65,0.15,47
1.65,0.3,49
1.65,0.45,46
1.65,0.6,40
1.65,0.75,36
1.65,0.9,36
1.65,1.05,38
1.65,1.2,37
1.65,1.35,37
1.65,1.5,37
1.8,-1.5,70
1.8,-1.35,70
1.8,-1.2,69
1.8,-1.05,60
1.8,-0.9,54
1.8,-0.75,48
1.8,-0.6,42
1.8,-0.45,42
1.8,-0.3,36
1.8,-0.15,18
1.8,0.0,15
1.8,0.15,49
1.8,0.3,21
1.8,0.45,19
1.8,0.6,26
1.8,0.75,37
1.8,0.9,39
1.8,1.05,36
1.8,1.2,36
1.8,1.35,37
1.8,1.5,38
1.95,-1.5,83
1.95,-1.35,87
1.95,-1.2,90
1.95,-1.05,89
1.95,-0.9,78
1.95,-0.75,62
1.95,-0.6,46
1.95,-0.45,35
1.95,-0.3,27
1.95,-0.15,25
1.95,0.0,38
1.95,0.15,36
1.95,0.3,10
1.95,0.45,11
1.95,0.6,26
1.95,0.75,32
1.95,0.9,37
1.95,1.05,41
1.95,1.2,47
1.95,1.35,50
1.95,1.5,52
2.1,-1.5,97
2.1,-1.35,99
2.1,-1.2,111
2.1,-1.05,125
2.1,-0.9,115
2.1,-0.75,61
2.1,-0.6,49
2.1,-0.45,23
2.1,-0.3,9
2.1,-0.15,2
2.1,0.0,108
2.1,0.15,68
2.1,0.3,10
2.1,0.45,1
2.1,0.6,14
2.1,0.75,19
2.1,0.9,31
2.1,1.05,38
2.1,1.2,44
2.1,1.35,48
2.1,1.5,51
2.25,-1.5,104
2.25,-1.35,120
2.25,-1.2,140
2.25,-1.05,178
2.25,-0.9,244
2.25,-0.75,105
2.25,-0.6,51
2.25,-0.45,27
2.25,-0.3,57
2.25,-0.15,31
2.25,0.0,123
2.25,0.15,70
2.25,0.3,50
2.25,0.45,21
2.25,0.6,7
2.25,0.75,7
2.25,0.9,19
2.25,1.05,27
2.25,1.2,32
2.25,1.35,35
2.25,1.5,37
2.4,-1.5,104
2.4,-1.35,117
2.4,-1.2,137
2.4,-1.05,178
2.4,-0.9,221
2.4,-0.75,119
2.4,-0.6,58
2.4,-0.45,83
2.4,-0.3,3
2.4,-0.15,51
2.4,0.0,68
2.4,0.15,95
2.4,0.3,77
2.4,0.45,44
2.4,0.6,18
2.4,0.75,13
2.4,0.9,25
2.4,1.05,32
2.4,1.2,35
2.4,1.35,32
2.4,1.5,31
2.55,-1.5,105
2.55,-1.35,112
2.55,-1.2,123
2.55,-1.05,135
2.55,-0.9,131
2.55,-0.75,94
2.55,-0.6,50
2.55,-0.45,0
2.55,-0.3,33
2.55,-0.15,43
2.55,0.0,95
2.55,0.15,73
2.55,0.3,66
2.55,0.45,47
2.55,0.6,32
2.55,0.75,26
2.55,0.9,24
2.55,1.05,24
2.55,1.2,24
2.55,1.35,28
2.55,1.5,30
2.7,-1.5,105
2.7,-1.35,106
2.7,-1.2,111
2.7,-1.05,112
2.7,-0.9,106
2.7,-0.75,86
2.7,-0.6,55
2.7,-0.45,29
2.7,-0.3,34
2.7,-0.15,24
2.7,0.0,47
2.7,0.15,47
2.7,0.3,48
2.7,0.45,50
2.7,0.6,45
2.7,0.75,35
2.7,0.9,30
2.7,1.05,26
2.7,1.2,34
2.7,1.35,36
2.7,1.5,37
2.85,-1.5,111
2.85,-1.35,105
2.85,-1.2,107
2.85,-1.05,107
2.85,-0.9,115
2.85,-0.75,120
2.85,-0.6,75
2.85,-0.45,50
2.85,-0.3,40
2.85,-0.15,37
2.85,0.0,52
2.85,0.15,15
2.85,0.3,41
2.85,0.45,47
2.85,0.6,42
2.85,0.75,40
2.85,0.9,35
2.85,1.05,44
2.85,1.2,42
2.85,1.35,44
2.85,1.5,45
3.0,-1.5,125
3.0,-1.35,125
3.0,-1.2,125
3.0,-1.05,124
3.0,-0.9,144
3.0,-0.75,207
3.0,-0.6,79
3.0,-0.45,52
3.0,-0.3,53
3.0,-0.15,62
3.0,0.0,63
3.0,0.15,52
3.0,0.3,36
3.0,0.45,39
3.0,0.6,37
3.0,0.75,47
3.0,0.9,47
3.0,1.05,50
3.0,1.2,52
3.0,1.35,46
3.0,1.5,44
3.15,-1.5,125
3.15,-1.35,125
3.15,-1.2,125
3.15,-1.05,124
3.15,-0.9,130
3.15,-0.75,131
3.15,-0.6,33
3.15,-0.45,63
3.15,-0.3,68
3.15,-0.15,71
3.15,0.0,88
3.15,0.15,54
3.15,0.3,29
3.15,0.45,29
3.15,0.6,43
3.15,0.75,50
3.15,0.9,57
3.15,1.05,54
3.15,1.2,52
3.15,1.35,51
3.15,1.5,50
3.3,-1.5,140
3.3,-1.35,138
3.3,-1.2,118
3.3,-1.05,110
3.3,-0.9,109
3.3,-0.75,99
3.3,-0.6,82
3.3,-0.45,80
3.3,-0.3,73
3.3,-0.15,90
3.3,0.0,127
3.3,0.15,64
3.3,0.3,19
3.3,0.45,37
3.3,0.6,43
3.3,0.75,54
3.3,0.9,62
3.3,1.05,64
3.3,1.2,63
3.3,1.35,54
3.3,1.5,51
3.45,-1.5,141
3.45,-1.35,124
3.45,-1.2,124
3.45,-1.05,123
3.45,-0.9,105
3.45,-0.75,100
3.45,-0.6,97
3.45,-0.45,87
3.45,-0.3,94
3.45,-0.15,55
3.45,0.0,125
3.45,0.15,14
3.45,0.3,53
3.45,0.45,54
3.45,0.6,49
3.45,0.75,65
3.45,0.9,84
3.45,1.05,90
3.45,1.2,85
3.45,1.35,80
3.45,1.5,78
3.6,-1.5,127
3.6,-1.35,129
3.6,-1.2,130
3.6,-1.05,131
3.6,-0.9,129
3.6,-0.75,108
3.6,-0.6,99
3.6,-0.45,107
3.6,-0.3,200
3.6,-0.15,19
3.6,0.0,62
3.6,0.15,74
3.6,0.3,54
3.6,0.45,54
3.6,0.6,6
3.6,0.75,126
3.6,0.9,140
3.6,1.05,109
3.6,1.2,94
3.6,1.35,87
3.6,1.5,83
3.75,-1.5,140
3.75,-1.35,142
3.75,-1.2,137
3.75,-1.05,144
3.75,-0.9,144
3.75,-0.75,137
3.75,-0.6,91
3.75,-0.45,74
3.75,-0.3,50
3.75,-0.15,34
3.75,0.0,67
3.75,0.15,87
3.75,0.3,67
3.75,0.45,82
3.75,0.6,83
3.75,0.75,175
3.75,0.9,150
3.75,1.05,111
3.75,1.2,96
3.75,1.35,94
3.75,1.5,87
3.9,-1.5,142
3.9,-1.35,146
3.9,-1.2,152
3.9,-1.05,156
3.9,-0.9,182
3.9,-0.75,211
3.9,-0.6,105
3.9,-0.45,43
3.9,-0.3,15
3.9,-0.15,39
3.9,0.0,67
3.9,0.15,67
3.9,0.3,87
3.9,0.45,107
3.9,0.6,94
3.9,0.75,90
3.9,0.9,101
3.9,1.05,100
3.9,1.2,95
3.9,1.35,92
3.9,1.5,86
4.05,-1.5,144
4.05,-1.35,149
4.05,-1.2,166
4.05,-1.05,167
4.05,-0.9,185
4.05,-0.75,185
4.05,-0.6,109
4.05,-0.45,55
4.05,-0.3,22
4.05,-0.15,51
4.05,0.0,67
4.05,0.15,67
4.05,0.3,116
4.05,0.45,157
4.05,0.6,47
4.05,0.75,23
4.05,0.9,67
4.05,1.05,82
4.05,1.2,85
4.05,1.35,82
4.05,1.5,80
4.2,-1.5,137
4.2,-1.35,153
4.2,-1.2,158
4.2,-1.05,180
4.2,-0.9,210
4.2,-0.75,255
4.2,-0.6,161
4.2,-0.45,95
4.2,-0.3,87
4.2,-0.15,64
4.2,0.0,73
4.2,0.15,106
4.2,0.3,152
4.2,0.45,211
4.2,0.6,68
4.2,0.75,40
4.2,0.9,60
4.2,1.05,65
4.2,1.2,78
4.2,1.35,80
4.2,1.5,80
4.35,-1.5,127
4.35,-1.35,132
4.35,-1.2,153
4.35,-1.05,165
4.35,-0.9,196
4.35,-0.75,244
4.35,-0.6,201
4.35,-0.45,188
4.35,-0.3,196
4.35,-0.15,128
4.35,0.0,80
4.35,0.15,15
4.35,0.3,35
4.35,0.45,76
4.35,0.6,77
4.35,0.75,68
4.35,0.9,79
4.35,1.05,84
4.35,1.2,74
4.35,1.35,76
4.35,1.5,77
4.5,-1.5,135
4.5,-1.35,138
4.5,-1.2,141
4.5,-1.05,143
4.5,-0.9,157
4.5,-0.75,158
4.5,-0.6,151
4.5,-0.45,163
4.5,-0.3,178
4.5,-0.15,81
4.5,0.0,96
4.5,0.15,53
4.5,0.3,50
4.5,0.45,74
4.5,0.6,72
4.5,0.75,70
4.5,0.9,69
4.5,1.05,69
4.5,1.2,85
4.5,1.35,88
4.5,1.5,90
4.65,-1.5,128
4.65,-1.35,138
4.65,-1.2,136
4.65,-1.05,120
4.65,-0.9,115
4.65,-0.75,104
4.65,-0.6,111
4.65,-0.45,116
4.65,-0.3,160
4.65,-0.15,106
4.65,0.0,78
4.65,0.15,53
4.65,0.3,152
4.65,0.45,90
4.65,0.6,62
4.65,0.75,53
4.65,0.9,70
4.65,1.05,72
4.65,1.2,73
4.65,1.35,74
4.65,1.5,91
4.8,-1.5,105
4.8,-1.35,103
4.8,-1.2,99
4.8,-1.05,90
4.8,-0.9,86
4.8,-0.75,71
4.8,-0.6,42
4.8,-0.45,52
4.8,-0.3,85
4.8,-0.15,44
4.8,0.0,56
4.8,0.15,111
4.8,0.3,156
4.8,0.45,101
4.8,0.6,37
4.8,0.75,72
4.8,0.9,73
4.8,1.05,77
4.8,1.2,79
4.8,1.35,80
4.8,1.5,80
4.95,-1.5,95
4.95,-1.35,77
4.95,-1.2,87
4.95,-1.05,81
4.95,-0.9,72
4.95,-0.75,63
4.95,-0.6,47
4.95,-0.45,42
4.95,-0.3,2
4.95,-0.15,75
4.95,0.0,94
4.95,0.15,195
4.95,0.3,99
4.95,0.45,88
4.95,0.6,85
4.95,0.75,96
4.95,0.9,106
4.95,1.05,97
4.95,1.2,103
4.95,1.35,105
4.95,1.5,107
5.1,-1.5,78
5.1,-1.35,58
5.1,-1.2,58
5.1,-1.05,58
5.1,-0.9,58
5.1,-0.75,56
5.1,-0.6,55
5.1,-0.45,58
5.1,-0.3,53
5.1,-0.15,128
5.1,0.0,156
5.1,0.15,75
5.1,0.3,66
5.1,0.45,80
5.1,0.6,109
5.1,0.75,108
5.1,0.9,104
5.1,1.05,97
5.1,1.2,97
5.1,1.35,97
5.1,1.5,97
5.25,-1.5,78
5.25,-1.35,78
5.25,-1.2,78
5.25,-1.05,74
5.25,-0.9,59
5.25,-0.75,59
5.25,-0.6,69
5.25,-0.45,96
5.25,-0.3,126
5.25,-0.15,149
5.25,0.0,52
5.25,0.15,53
5.25,0.3,99
5.25,0.45,226
5.25,0.6,134
5.25,0.75,110
5.25,0.9,107
5.25,1.05,106
5.25,1.2,105
5.25,1.35,105
5.25,1.5,104
5.4,-1.5,78
5.4,-1.35,78
5.4,-1.2,78
5.4,-1.05,77
5.4,-0.9,79
5.4,-0.75,79
5.4,-0.6,75
5.4,-0.45,62
5.4,-0.3,58
5.4,-0.15,53
5.4,0.0,21
5.4,0.15,4
5.4,0.3,116
5.4,0.45,214
5.4,0.6,108
5.4,0.75,108
5.4,0.9,113
5.4,1.05,114
5.4,1.2,112
5.4,1.35,111
5.4,1.5,110
5.55,-1.5,72
5.55,-1.35,73
5.55,-1.2,75
5.55,-1.05,77
5.55,-0.9,81
5.55,-0.75,100
5.55,-0.6,117
5.55,-0.45,90
5.55,-0.3,53
5.55,-0.15,161
5.55,0.0,70
5.55,0.15,184
5.55,0.3,112
5.55,0.45,108
5.55,0.6,108
5.55,0.75,110
5.55,0.9,124
5.55,1.05,127
5.55,1.2,127
5.55,1.35,127
5.55,1.5,126
5.7,-1.5,60
5.7,-1.35,57
5.7,-1.2,59
5.7,-1.05,63
5.7,-0.9,81
5.7,-0.75,106
5.7,-0.6,139
5.7,-0.45,197
5.7,-0.3,96
5.7,-0.15,82
5.7,0.0,97
5.7,0.15,121
5.7,0.3,136
5.7,0.45,123
5.7,0.6,235
5.7,0.75,138
5.7,0.9,127
5.7,1.05,125
5.7,1.2,124
5.7,1.35,123
5.7,1.5,123
5.85,-1.5,55
5.85,-1.35,55
5.85,-1.2,53
5.85,-1.05,62
5.85,-0.9,62
5.85,-0.75,74
5.85,-0.6,81
5.85,-0.45,89
5.85,-0.3,94
5.85,-0.15,51
5.85,0.0,255
5.85,0.15,20
5.85,0.3,102
5.85,0.45,108
5.85,0.6,92
5.85,0.75,109
5.85,0.9,105
5.85,1.05,101
5.85,1.2,99
5.85,1.35,118
5.85,1.5,119
6.0,-1.5,72
6.0,-1.35,72
6.0,-1.2,71
6.0,-1.05,70
6.0,-0.9,67
6.0,-0.75,60
6.0,-0.6,52
6.0,-0.45,25
6.0,-0.3,40
6.0,-0.15,72
6.0,0.0,110
6.0,0.15,53
6.0,0.3,11
6.0,0.45,136
6.0,0.6,64
6.0,0.75,85
6.0,0.9,92
6.0,1.05,93
6.0,1.2,113
6.0,1.35,115
6.0,1.5,116
6.15,-1.5,88
6.15,-1.35,87
6.15,-1.2,85
6.15,-1.05,68
6.15,-0.9,65
6.15,-0.75,63
6.15,-0.6,61
6.15,-0.45,59
6.15,-0.3,119
6.15,-0.15,140
6.15,0.0,103
6.15,0.15,49
6.15,0.3,48
6.15,0.45,100
6.15,0.6,64
6.15,0.75,78
6.15,0.9,87
6.15,1.05,107
6.15,1.2,102
6.15,1.35,102
6.15,1.5,103
6.3,-1.5,76
6.3,-1.35,62
6.3,-1.2,76
6.3,-1.05,77
6.3,-0.9,93
6.3,-0.75,94
6.3,-0.6,97
6.3,-0.45,122
6.3,-0.3,187
6.3,-0.15,145
6.3,0.0,31
6.3,0.15,73
6.3,0.3,141
6.3,0.45,119
6.3,0.6,18
6.3,0.75,49
6.3,0.9,69
6.3,1.05,76
6.3,1.2,88
6.3,1.35,99
6.3,1.5,102
6.45,-1.5,62
6.45,-1.35,62
6.45,-1.2,63
6.45,-1.05,64
6.45,-0.9,81
6.45,-0.75,83
6.45,-0.6,88
6.45,-0.45,119
6.45,-0.3,78
6.45,-0.15,153
6.45,0.0,63
6.45,0.15,29
6.45,0.3,149
6.45,0.45,165
6.45,0.6,50
6.45,0.75,52
6.45,0.9,82
6.45,1.05,92
6.45,1.2,97
6.45,1.35,86
6.45,1.5,87
6.6,-1.5,60
6.6,-1.35,59
6.6,-1.2,59
6.6,-1.05,59
6.6,-0.9,58
6.6,-0.75,42
6.6,-0.6,48
6.6,-0.45,66
6.6,-0.3,45
6.6,-0.15,120
6.6,0.0,41
6.6,0.15,67
6.6,0.3,89
6.6,0.45,138
6.6,0.6,101
6.6,0.75,102
6.6,0.9,106
6.6,1.05,96
6.6,1.2,98
6.6,1.35,98
6.6,1.5,82
6.75,-1.5,34
6.75,-1.35,34
6.75,-1.2,34
6.75,-1.05,51
6.75,-0.9,49
6.75,-0.75,45
6.75,-0.6,32
6.75,-0.45,9
6.75,-0.3,149
6.75,-0.15,44
6.75,0.0,120
6.75,0.15,20
6.75,0.3,20
6.75,0.45,12
6.75,0.6,77
6.75,0.75,106
6.75,0.9,109
6.75,1.05,109
6.75,1.2,94
6.75,1.35,94
6.75,1.5,80
6.9,-1.5,34
6.9,-1.35,34
6.9,-1.2,31
6.9,-1.05,16
6.9,-0.9,26
6.9,-0.75,29
6.9,-0.6,26
6.9,-0.45,28
6.9,-0.3,19
6.9,-0.15,216
6.9,0.0,11
6.9,0.15,58
6.9,0.3,60
6.9,0.45,143
6.9,0.6,255
6.9,0.75,115
6.9,0.9,107
6.9,1.05,104
6.9,1.2,94
6.9,1.35,80
6.9,1.5,80
7.05,-1.5,20
7.05,-1.35,16
7.05,-1.2,16
7.05,-1.05,20
7.05,-0.9,19
7.05,-0.75,26
7.05,-0.6,35
7.05,-0.45,38
7.05,-0.3,122
7.05,-0.15,142
7.05,0.0,117
7.05,0.15,54
7.05,0.3,61
7.05,0.45,50
7.05,0.6,59
7.05,0.75,113
7.05,0.9,100
7.05,1.05,84
7.05,1.2,81
7.05,1.35,80
7.05,1.5,80
7.2,-1.5,21
7.2,-1.35,21
7.2,-1.2,21
7.2,-1.05,21
7.2,-0.9,30
7.2,-0.75,33
7.2,-0.6,28
7.2,-0.45,13
7.2,-0.3,39
7.2,-0.15,171
7.2,0.0,23
7.2,0.15,14
7.2,0.3,10
7.2,0.45,31
7.2,0.6,178
7.2,0.75,103
7.2,0.9,93
7.2,1.05,77
7.2,1.2,80
7.2,1.35,80
7.2,1.5,80
7.35,-1.5,21
7.35,-1.35,33
7.35,-1.2,40
7.35,-1.05,39
7.35,-0.9,52
7.35,-0.75,32
7.35,-0.6,3
7.35,-0.45,50
7.35,-0.3,46
7.35,-0.15,26
7.35,0.0,50
7.35,0.15,35
7.35,0.3,53
7.35,0.45,145
7.35,0.6,95
7.35,0.75,72
7.35,0.9,76
7.35,1.05,81
7.35,1.2,81
7.35,1.35,83
7.35,1.5,85
7.5,-1.5,58
7.5,-1.35,57
7.5,-1.2,56
7.5,-1.05,54
7.5,-0.9,59
7.5,-0.75,58
7.5,-0.6,87
7.5,-0.45,101
7.5,-0.3,180
7.5,-0.15,19
7.5,0.0,18
7.5,0.15,11
7.5,0.3,8
7.5,0.45,79
7.5,0.6,82
7.5,0.75,21
7.5,0.9,69
7.5,1.05,77
7.5,1.2,83
7.5,1.35,86
7.5,1.5,100
7.65,-1.5,86
7.65,-1.35,85
7.65,-1.2,99
7.65,-1.05,93
7.65,-0.9,69
7.65,-0.75,52
7.65,-0.6,44
7.65,-0.45,83
7.65,-0.3,73
7.65,-0.15,9
7.65,0.0,4
7.65,0.15,3
7.65,0.3,96
7.65,0.45,54
7.65,0.6,90
7.65,0.75,61
7.65,0.9,59
7.65,1.05,57
7.65,1.2,69
7.65,1.35,72
7.65,1.5,74
7.8,-1.5,103
7.8,-1.35,100
7.8,-1.2,97
7.8,-1.05,92
7.8,-0.9,84
7.8,-0.75,65
7.8,-0.6,58
7.8,-0.45,58
7.8,-0.3,119
7.8,-0.15,118
7.8,0.0,88
7.8,0.15,28
7.8,0.3,47
7.8,0.45,68
7.8,0.6,63
7.8,0.75,47
7.8,0.9,51
7.8,1.05,51
7.8,1.2,53
7.8,1.35,53
7.8,1.5,53
7.95,-1.5,120
7.95,-1.35,118
7.95,-1.2,106
7.95,-1.05,104
7.95,-0.9,101
7.95,-0.75,99
7.95,-0.6,108
7.95,-0.45,111
7.95,-0.3,69
7.95,-0.15,2
7.95,0.0,24
7.95,0.15,83
7.95,0.3,74
7.95,0.45,53
7.95,0.6,18
7.95,0.75,31
7.95,0.9,49
7.95,1.05,56
7.95,1.2,51
7.95,1.35,60
7.95,1.5,59
8.1,-1.5,127
8.1,-1.35,141
8.1,-1.2,141
8.1,-1.05,134
8.1,-0.9,132
8.1,-0.75,131
8.1,-0.6,126
8.1,-0.45,211
8.1,-0.3,80
8.1,-0.15,56
8.1,0.0,67
8.1,0.15,29
8.1,0.3,8
8.1,0.45,67
8.1,0.6,28
8.1,0.75,46
8.1,0.9,89
8.1,1.05,75
8.1,1.2,64
8.1,1.35,58
8.1,1.5,62
8.25,-1.5,140
8.25,-1.35,142
8.25,-1.2,144
8.25,-1.05,148
8.25,-0.9,161
8.25,-0.75,162
8.25,-0.6,158
8.25,-0.45,141
8.25,-0.3,154
8.25,-0.15,79
8.25,0.0,55
8.25,0.15,15
8.25,0.3,102
8.25,0.45,38
8.25,0.6,55
8.25,0.75,84
8.25,0.9,168
8.25,1.05,99
8.25,1.2,69
8.25,1.35,72
8.25,1.5,58
8.4,-1.5,144
8.4,-1.35,147
8.4,-1.2,148
8.4,-1.05,158
8.4,-0.9,168
8.4,-0.75,190
8.4,-0.6,193
8.4,-0.45,126
8.4,-0.3,66
8.4,-0.15,42
8.4,0.0,41
8.4,0.15,37
8.4,0.3,36
8.4,0.45,99
8.4,0.6,54
8.4,0.75,66
8.4,0.9,95
8.4,1.05,88
8.4,1.2,80
8.4,1.35,75
8.4,1.5,60
8.55,-1.5,156
8.55,-1.35,159
8.55,-1.2,162
8.55,-1.05,167
8.55,-0.9,185
8.55,-0.75,202
8.55,-0.6,206
8.55,-0.45,111
8.55,-0.3,38
8.55,-0.15,71
8.55,0.0,40
8.55,0.15,52
8.55,0.3,55
8.55,0.45,54
8.55,0.6,59
8.55,0.75,68
8.55,0.9,70
8.55,1.05,73
8.55,1.2,59
8.55,1.35,60
8.55,1.5,60
8.7,-1.5,159
8.7,-1.35,160
8.7,-1.2,163
8.7,-1.05,164
8.7,-0.9,160
8.7,-0.75,171
8.7,-0.6,176
8.7,-0.45,118
8.7,-0.3,79
8.7,-0.15,20
8.7,0.0,46
8.7,0.15,50
8.7,0.3,22
8.7,0.45,28
8.7,0.6,33
8.7,0.75,47
8.7,0.9,47
8.7,1.05,59
8.7,1.2,59
8.7,1.35,73
8.7,1.5,74
8.85,-1.5,134
8.85,-1.35,141
8.85,-1.2,142
8.85,-1.05,145
8.85,-0.9,149
8.85,-0.75,152
8.85,-0.6,112
8.85,-0.45,95
8.85,-0.3,118
8.85,-0.15,62
8.85,0.0,20
8.85,0.15,50
8.85,0.3,57
8.85,0.45,56
8.85,0.6,52
8.85,0.75,60
8.85,0.9,60
8.85,1.05,71
8.85,1.2,85
8.85,1.35,100
8.85,1.5,100
9.0,-1.5,134
9.0,-1.35,136
9.0,-1.2,138
9.0,-1.05,137
9.0,-0.9,150
9.0,-0.75,170
9.0,-0.6,203
9.0,-0.45,86
9.0,-0.3,86
9.0,-0.15,139
9.0,0.0,52
9.0,0.15,34
9.0,0.3,49
9.0,0.45,115
9.0,0.6,70
9.0,0.75,83
9.0,0.9,97
9.0,1.05,100
9.0,1.2,100
9.0,1.35,100
9.0,1.5,89
9.15,-1.5,120
9.15,-1.35,122
9.15,-1.2,123
9.15,-1.05,128
9.15,-0.9,133
9.15,-0.75,136
9.15,-0.6,129
9.15,-0.45,73
9.15,-0.3,48
9.15,-0.15,36
9.15,0.0,57
9.15,0.15,64
9.15,0.3,34
9.15,0.45,24
9.15,0.6,255
9.15,0.75,116
9.15,0.9,100
9.15,1.05,94
9.15,1.2,91
9.15,1.35,89
9.15,1.5,98
9.3,-1.5,117
9.3,-1.35,117
9.3,-1.2,117
9.3,-1.05,115
9.3,-0.9,107
9.3,-0.75,95
9.3,-0.6,75
9.3,-0.45,49
9.3,-0.3,40
9.3,-0.15,13
9.3,0.0,205
9.3,0.15,63
9.3,0.3,63
9.3,0.45,38
9.3,0.6,108
9.3,0.75,105
9.3,0.9,97
9.3,1.05,96
9.3,1.2,89
9.3,1.35,89
9.3,1.5,89
9.45,-1.5,144
9.45,-1.35,140
9.45,-1.2,123
9.45,-1.05,104
9.45,-0.9,92
9.45,-0.75,85
9.45,-0.6,75
9.45,-0.45,64
9.45,-0.3,85
9.45,-0.15,75
9.45,0.0,51
9.45,0.15,64
9.45,0.3,90
9.45,0.45,64
9.45,0.6,67
9.45,0.75,29
9.45,0.9,78
9.45,1.05,89
9.45,1.2,89
9.45,1.35,89
9.45,1.5,98
9.6,-1.5,132
9.6,-1.35,116
9.6,-1.2,101
9.6,-1.05,101
9.6,-0.9,95
9.6,-0.75,85
9.6,-0.6,67
9.6,-0.45,77
9.6,-0.3,114
9.6,-0.15,144
9.6,0.0,95
9.6,0.15,56
9.6,0.3,107
9.6,0.45,113
9.6,0.6,66
9.6,0.75,70
9.6,0.9,79
9.6,1.05,95
9.6,1.2,99
9.6,1.35,109
9.6,1.5,111
9.75,-1.5,105
9.75,-1.35,113
9.75,-1.2,110
9.75,-1.05,115
9.75,-0.9,103
9.75,-0.75,79
9.75,-0.6,53
9.75,-0.45,81
9.75,-0.3,147
9.75,-0.15,201
9.75,0.0,115
9.75,0.15,56
9.75,0.3,96
9.75,0.45,81
9.75,0.6,124
9.75,0.75,101
9.75,0.9,86
9.75,1.05,80
9.75,1.2,81
9.75,1.35,82
9.75,1.5,93
9.9,-1.5,116
9.9,-1.35,116
9.9,-1.2,125
9.9,-1.05,120
9.9,-0.9,113
9.9,-0.75,100
9.9,-0.6,91
9.9,-0.45,112
9.9,-0.3,125
9.9,-0.15,54
9.9,0.0,142
9.9,0.15,73
9.9,0.3,60
9.9,0.45,60
9.9,0.6,255
9.9,0.75,123
9.9,0.9,68
9.9,1.05,68
9.9,1.2,91
9.9,1.35,92
9.9,1.5,93
10.05,-1.5,131
10.05,-1.35,130
10.05,-1.2,130
10.05,-1.05,130
10.05,-0.9,129
10.05,-0.75,127
10.05,-0.6,137
10.05,-0.45,125
10.05,-0.3,106
10.05,-0.15,142
10.05,0.0,74
10.05,0.15,60
10.05,0.3,92
10.05,0.45,60
10.05,0.6,110
10.05,0.75,109
10.05,0.9,71
10.05,1.05,72
10.05,1.2,81
10.05,1.35,84
10.05,1.5,85
10.2,-1.5,143
10.2,-1.35,131
10.2,-1.2,132
10.2,-1.05,129
10.2,-0.9,138
10.2,-0.75,163
10.2,-0.6,228
10.2,-0.45,215
10.2,-0.3,32
10.2,-0.15,95
10.2,0.0,142
10.2,0.15,92
10.2,0.3,64
10.2,0.45,73
10.2,0.6,98
10.2,0.75,95
10.2,0.9,90
10.2,1.05,86
10.2,1.2,85
10.2,1.35,80
10.2,1.5,80
10.35,-1.5,146
10.35,-1.35,133
10.35,-1.2,135
10.35,-1.05,140
10.35,-0.9,141
10.35,-0.75,161
10.35,-0.6,215
10.35,-0.45,219
10.35,-0.3,109
10.35,-0.15,92
10.35,0.0,60
10.35,0.15,67
10.35,0.3,42
10.35,0.45,72
10.35,0.6,84
10.35,0.75,73
10.35,0.9,73
10.35,1.05,72
10.35,1.2,70
10.35,1.35,84
10.35,1.5,82
10.5,-1.5,135
10.5,-1.35,136
10.5,-1.2,130
10.5,-1.05,132
10.5,-0.9,135
10.5,-0.75,136
10.5,-0.6,94
10.5,-0.45,67
10.5,-0.3,97
10.5,-0.15,69
10.5,0.0,40
10.5,0.15,4
10.5,0.3,4
10.5,0.45,63
10.5,0.6,11
10.5,0.75,52
10.5,0.9,70
10.5,1.05,70
10.5,1.2,78
10.5,1.35,81
10.5,1.5,95
10.65,-1.5,130
10.65,-1.35,130
10.65,-1.2,132
10.65,-1.05,136
10.65,-0.9,136
10.65,-0.75,121
10.65,-0.6,108
10.65,-0.45,94
10.65,-0.3,98
10.65,-0.15,71
10.65,0.0,70
10.65,0.15,113
10.65,0.3,124
10.65,0.45,85
10.65,0.6,29
10.65,0.75,56
10.65,0.9,84
10.65,1.05,88
10.65,1.2,93
10.65,1.35,95
10.65,1.5,93
10.8,-1.5,131
10.8,-1.35,132
10.8,-1.2,127
10.8,-1.05,128
10.8,-0.9,136
10.8,-0.75,132
10.8,-0.6,130
10.8,-0.45,131
10.8,-0.3,116
10.8,-0.15,79
10.8,0.0,69
10.8,0.15,54
10.8,0.3,92
10.8,0.45,92
10.8,0.6,8
10.8,0.75,68
10.8,0.9,94
10.8,1.05,99
10.8,1.2,98
10.8,1.35,98
10.8,1.5,97
10.95,-1.5,124
10.95,-1.35,127
10.95,-1.2,127
10.95,-1.05,130
10.95,-0.9,133
10.95,-0.75,131
10.95,-0.6,152
10.95,-0.45,175
10.95,-0.3,177
10.95,-0.15,118
10.95,0.0,73
10.95,0.15,33
10.95,0.3,55
10.95,0.45,70
10.95,0.6,111
10.95,0.75,216
10.95,0.9,142
10.95,1.05,111
10.95,1.2,105
10.95,1.35,100
10.95,1.5,98
11.1,-1.5,126
11.1,-1.35,116
11.1,-1.2,129
11.1,-1.05,133
11.1,-0.9,139
11.1,-0.75,158
11.1,-0.6,171
11.1,-0.45,191
11.1,-0.3,203
11.1,-0.15,121
11.1,0.0,76
11.1,0.15,65
11.1,0.3,89
11.1,0.45,131
11.1,0.6,131
11.1,0.75,175
11.1,0.9,142
11.1,1.05,121
11.1,1.2,122
11.1,1.35,114
11.1,1.5,98
11.25,-1.5,124
11.25,-1.35,126
11.25,-1.2,130
11.25,-1.05,146
11.25,-0.9,152
11.25,-0.75,161
11.25,-0.6,177
11.25,-0.45,195
11.25,-0.3,166
11.25,-0.15,112
11.25,0.0,75
11.25,0.15,78
11.25,0.3,67
11.25,0.45,74
11.25,0.6,99
11.25,0.75,134
11.25,0.9,141
11.25,1.05,139
11.25,1.2,115
11.25,1.35,101
11.25,1.5,98
11.4,-1.5,132
11.4,-1.35,135
11.4,-1.2,138
11.4,-1.05,142
11.4,-0.9,135
11.4,-0.75,150
11.4,-0.6,177
11.4,-0.45,214
11.4,-0.3,166
11.4,-0.15,98
11.4,0.0,64
11.4,0.15,64
11.4,0.3,57
11.4,0.45,133
11.4,0.6,76
11.4,0.75,100
11.4,0.9,121
11.4,1.05,116
11.4,1.2,118
11.4,1.35,111
11.4,1.5,95
11.55,-1.5,123
11.55,-1.35,116
11.55,-1.2,134
11.55,-1.05,119
11.55,-0.9,127
11.55,-0.75,137
11.55,-0.6,151
11.55,-0.45,156
11.55,-0.3,125
11.55,-0.15,89
11.55,0.0,68
11.55,0.15,214
11.55,0.3,66
11.55,0.45,39
11.55,0.6,56
11.55,0.75,73
11.55,0.9,76
11.55,1.05,99
11.55,1.2,80
11.55,1.35,82
11.55,1.5,83
11.7,-1.5,103
11.7,-1.35,89
11.7,-1.2,94
11.7,-1.05,113
11.7,-0.9,117
11.7,-0.75,120
11.7,-0.6,122
11.7,-0.45,116
11.7,-0.3,98
11.7,-0.15,91
11.7,0.0,81
11.7,0.15,66
11.7,0.3,81
11.7,0.45,42
11.7,0.6,74
11.7,0.75,61
11.7,0.9,59
11.7,1.05,55
11.7,1.2,55
11.7,1.35,77
11.7,1.5,79
11.85,-1.5,88
11.85,-1.35,92
11.85,-1.2,93
11.85,-1.05,118
11.85,-0.9,134
11.85,-0.75,133
11.85,-0.6,130
11.85,-0.45,116
11.85,-0.3,104
11.85,-0.15,88
11.85,0.0,80
11.85,0.15,70
11.85,0.3,87
11.85,0.45,95
11.85,0.6,74
11.85,0.75,53
11.85,0.9,53
11.85,1.05,53
11.85,1.2,60
11.85,1.35,61
11.85,1.5,61
12.0,-1.5,84
12.0,-1.35,87
12.0,-1.2,91
12.0,-1.05,94
12.0,-0.9,96
12.0,-0.75,117
12.0,-0.6,98
12.0,-0.45,97
12.0,-0.3,76
12.0,-0.15,74
12.0,0.0,68
12.0,0.15,24
12.0,0.3,95
12.0,0.45,57
12.0,0.6,41
12.0,0.75,54
12.0,0.9,60
12.0,1.05,60
12.0,1.2,60
12.0,1.35,49
12.0,1.5,46
12.15,-1.5,74
12.15,-1.35,78
12.15,-1.2,82
12.15,-1.05,85
12.15,-0.9,74
12.15,-0.75,87
12.15,-0.6,84
12.15,-0.45,79
12.15,-0.3,68
12.15,-0.15,68
12.15,0.0,75
12.15,0.15,83
12.15,0.3,147
12.15,0.45,98
12.15,0.6,41
12.15,0.75,46
12.15,0.9,62
12.15,1.05,62
12.15,1.2,62
12.15,1.35,47
12.15,1.5,46
12.3,-1.5,62
12.3,-1.35,57
12.3,-1.2,61
12.3,-1.05,50
12.3,-0.9,75
12.3,-0.75,76
12.3,-0.6,78
12.3,-0.45,75
12.3,-0.3,79
12.3,-0.15,71
12.3,0.0,71
12.3,0.15,79
12.3,0.3,48
12.3,0.45,60
12.3,0.6,67
12.3,0.75,67
12.3,0.9,53
12.3,1.05,60
12.3,1.2,37
12.3,1.35,25
12.3,1.5,23
12.45,-1.5,41
12.45,-1.35,34
12.45,-1.2,39
12.45,-1.05,44
12.45,-0.9,47
12.45,-0.75,48
12.45,-0.6,61
12.45,-0.45,59
12.45,-0.3,57
12.45,-0.15,61
12.45,0.0,40
12.45,0.15,42
12.45,0.3,117
12.45,0.45,85
12.45,0.6,63
12.45,0.75,58
12.45,0.9,52
12.45,1.05,52
12.45,1.2,31
12.45,1.35,29
12.45,1.5,18
12.6,-1.5,19
12.6,-1.35,23
12.6,-1.2,30
12.6,-1.05,37
12.6,-0.9,28
12.6,-0.75,31
12.6,-0.6,32
12.6,-0.45,54
12.6,-0.3,61
12.6,-0.15,42
12.6,0.0,32
12.6,0.15,32
12.6,0.3,54
12.6,0.45,59
12.6,0.6,26
12.6,0.75,36
12.6,0.9,44
12.6,1.05,26
12.6,1.2,24
12.6,1.35,20
12.6,1.5,18
12.75,-1.5,7
12.75,-1.35,12
12.75,-1.2,21
12.75,-1.05,20
12.75,-0.9,25
12.75,-0.75,23
12.75,-0.6,53
12.75,-0.45,52
12.75,-0.3,42
12.75,-0.15,39
12.75,0.0,35
12.75,0.15,32
12.75,0.3,50
12.75,0.45,0
12.75,0.6,4
12.75,0.75,11
12.75,0.9,15
12.75,1.05,16
12.75,1.2,14
12.75,1.35,12
12.75,1.5,8
12.9,-1.5,0
12.9,-1.35,0
12.9,-1.2,10
12.9,-1.05,10
12.9,-0.9,23
12.9,-0.75,41
12.9,-0.6,44
12.9,-0.45,44
12.9,-0.3,41
12.9,-0.15,35
12.9,0.0,18
12.9,0.15,17
12.9,0.3,11
12.9,0.45,39
12.9,0.6,5
12.9,0.75,12
12.9,0.9,8
12.9,1.05,14
12.9,1.2,11
12.9,1.35,4
12.9,1.5,0
13.05,-1.5,0
13.05,-1.35,0
13.05,-1.2,8
13.05,-1.05,25
13.05,-0.9,34
13.05,-0.75,40
13.05,-0.6,42
13.05,-0.45,22
13.05,-0.3,37
13.05,-0.15,18
13.05,0.0,17
13.05,0.15,16
13.05,0.3,16
13.05,0.45,18
13.05,0.6,15
13.05,0.75,15
13.05,0.9,8
13.05,1.05,8
13.05,1.2,5
13.05,1.35,2
13.05,1.5,0
