-3.0,-1.5,0
-3.0,-1.35,0
-3.0,-1.2,9
-3.0,-1.05,22
-3.0,-0.9,33
-3.0,-0.75,40
-3.0,-0.6,45
-3.0,-0.45,49
-3.0,-0.3,56
-3.0,-0.15,58
-3.0,0.0,71
-3.0,0.15,75
-3.0,0.3,77
-3.0,0.45,78
-3.0,0.6,77
-3.0,0.75,75
-3.0,0.9,70
-3.0,1.05,59
-3.0,1.2,37
-3.0,1.35,7
-3.0,1.5,0
-2.85,-1.5,0
-2.85,-1.35,3
-2.85,-1.2,13
-2.85,-1.05,25
-2.85,-0.9,36
-2.85,-0.75,41
-2.85,-0.6,49
-2.85,-0.45,50
-2.85,-0.3,54
-2.85,-0.15,55
-2.85,0.0,68
-2.85,0.15,76
-2.85,0.3,80
-2.85,0.45,78
-2.85,0.6,78
-2.85,0.75,78
-2.85,0.9,76
-2.85,1.05,69
-2.85,1.2,50
-2.85,1.35,23
-2.85,1.5,8
-2.7,-1.5,13
-2.7,-1.35,18
-2.7,-1.2,25
-2.7,-1.05,30
-2.7,-0.9,38
-2.7,-0.75,45
-2.7,-0.6,48
-2.7,-0.45,52
-2.7,-0.3,50
-2.7,-0.15,50
-2.7,0.0,63
-2.7,0.15,78
-2.7,0.3,81
-2.7,0.45,79
-2.7,0.6,76
-2.7,0.75,80
-2.7,0.9,84
-2.7,1.05,82
-2.7,1.2,70
-2.7,1.35,52
-2.7,1.5,44
-2.55,-1.5,29
-2.55,-1.35,32
-2.55,-1.2,39
-2.55,-1.05,31
-2.55,-0.9,39
-2.55,-0.75,45
-2.55,-0.6,50
-2.55,-0.45,54
-2.55,-0.3,53
-2.55,-0.15,51
-2.55,0.0,73
-2.55,0.15,88
-2.55,0.3,85
-2.55,0.45,74
-2.55,0.6,69
-2.55,0.75,79
-2.55,0.9,94
-2.55,1.05,98
-2.55,1.2,94
-2.55,1.35,82
-2.55,1.5,72
-2.4,-1.5,41
-2.4,-1.35,43
-2.4,-1.2,46
-2.4,-1.05,49
-2.4,-0.9,37
-2.4,-0.75,43
-2.4,-0.6,49
-2.4,-0.45,56
-2.4,-0.3,62
-2.4,-0.15,79
-2.4,0.0,104
-2.4,0.15,116
-2.4,0.3,93
-2.4,0.45,68
-2.4,0.6,47
-2.4,0.75,74
-2.4,0.9,123
-2.4,1.05,123
-2.4,1.2,107
-2.4,1.35,97
-2.4,1.5,89
-2.25,-1.5,70
-2.25,-1.35,57
-2.25,-1.2,50
-2.25,-1.05,49
-2.25,-0.9,40
-2.25,-0.75,43
-2.25,-0.6,44
-2.25,-0.45,56
-2.25,-0.3,67
-2.25,-0.15,90
-2.25,0.0,148
-2.25,0.15,176
-2.25,0.3,99
-2.25,0.45,72
-2.25,0.6,68
-2.25,0.75,63
-2.25,0.9,72
-2.25,1.05,124
-2.25,1.2,111
-2.25,1.35,104
-2.25,1.5,98
-2.1,-1.5,76
-2.1,-1.35,76
-2.1,-1.2,59
-2.1,-1.05,54
-2.1,-0.9,34
-2.1,-0.75,39
-2.1,-0.6,39
-2.1,-0.45,45
-2.1,-0.3,61
-2.1,-0.15,80
-2.1,0.0,119
-2.1,0.15,111
-2.1,0.3,81
-2.1,0.45,58
-2.1,0.6,80
-2.1,0.75,98
-2.1,0.9,94
-2.1,1.05,110
-2.1,1.2,111
-2.1,1.35,103
-2.1,1.5,98
-1.95,-1.5,76
-1.95,-1.35,71
-1.95,-1.2,64
-1.95,-1.05,50
-1.95,-0.9,38
-1.95,-0.75,20
-1.95,-0.6,20
-1.95,-0.45,39
-1.95,-0.3,49
-1.95,-0.15,69
-1.95,0.0,72
-1.95,0.15,54
-1.95,0.3,63
-1.95,0.45,58
-1.95,0.6,101
-1.95,0.75,199
-1.95,0.9,143
-1.95,1.05,124
-1.95,1.2,112
-1.95,1.35,107
-1.95,1.5,103
-1.8,-1.5,81
-1.8,-1.35,76
-1.8,-1.2,68
-1.8,-1.05,57
-1.8,-0.9,36
-1.8,-0.75,3
-1.8,-0.6,2
-1.8,-0.45,30
-1.8,-0.3,45
-1.8,-0.15,64
-1.8,0.0,60
-1.8,0.15,54
-1.8,0.3,63
-1.8,0.45,58
-1.8,0.6,102
-1.8,0.75,245
-1.8,0.9,166
-1.8,1.05,135
-1.8,1.2,124
-1.8,1.35,111
-1.8,1.5,106
-1.65,-1.5,90
-1.65,-1.35,85
-1.65,-1.2,89
-1.65,-1.05,75
-1.65,-0.9,55
-1.65,-0.75,36
-1.65,-0.6,33
-1.65,-0.45,44
-1.65,-0.3,45
-1.65,-0.15,46
-1.65,0.0,58
-1.65,0.15,54
-1.65,0.3,58
-1.65,0.45,108
-1.65,0.6,136
-1.65,0.75,159
-1.65,0.9,151
-1.65,1.05,136
-1.65,1.2,127
-1.65,1.35,114
-1.65,1.5,108
-1.5,-1.5,113
-1.5,-1.35,109
-1.5,-1.2,102
-1.5,-1.05,90
-1.5,-0.9,73
-1.5,-0.75,53
-1.5,-0.6,49
-1.5,-0.45,55
-1.5,-0.3,47
-1.5,-0.15,37
-1.5,0.0,54
-1.5,0.15,81
-1.5,0.3,153
-1.5,0.45,255
-1.5,0.6,175
-1.5,0.75,144
-1.5,0.9,138
-1.5,1.05,130
-1.5,1.2,123
-1.5,1.35,126
-1.5,1.5,123
-1.35,-1.5,119
-1.35,-1.35,118
-1.35,-1.2,120
-1.35,-1.05,113
-1.35,-0.9,99
-1.35,-0.75,80
-1.35,-0.6,70
-1.35,-0.45,68
-1.35,-0.3,67
-1.35,-0.15,6
-1.35,0.0,53
-1.35,0.15,102
-1.35,0.3,142
-1.35,0.45,193
-1.35,0.6,167
-1.35,0.75,148
-1.35,0.9,135
-1.35,1.05,137
-1.35,1.2,133
-1.35,1.35,130
-1.35,1.5,127
-1.2,-1.5,132
-1.2,-1.35,136
-1.2,-1.2,139
-1.2,-1.05,135
-1.2,-0.9,133
-1.2,-0.75,114
-1.2,-0.6,80
-1.2,-0.45,54
-1.2,-0.3,116
-1.2,-0.15,0
-1.2,0.0,91
-1.2,0.15,115
-1.2,0.3,134
-1.2,0.45,145
-1.2,0.6,151
-1.2,0.75,163
-1.2,0.9,140
-1.2,1.05,137
-1.2,1.2,137
-1.2,1.35,137
-1.2,1.5,137
-1.05,-1.5,145
-1.05,-1.35,152
-1.05,-1.2,160
-1.05,-1.05,173
-1.05,-0.9,171
-1.05,-0.75,155
-1.05,-0.6,121
-1.05,-0.45,105
-1.05,-0.3,116
-1.05,-0.15,5
-1.05,0.0,182
-1.05,0.15,149
-1.05,0.3,137
-1.05,0.45,141
-1.05,0.6,146
-1.05,0.75,142
-1.05,0.9,127
-1.05,1.05,127
-1.05,1.2,126
-1.05,1.35,125
-1.05,1.5,128
-0.9,-1.5,145
-0.9,-1.35,161
-0.9,-1.2,175
-0.9,-1.05,194
-0.9,-0.9,200
-0.9,-0.75,166
-0.9,-0.6,105
-0.9,-0.45,131
-0.9,-0.3,134
-0.9,-0.15,165
-0.9,0.0,202
-0.9,0.15,148
-0.9,0.3,135
-0.9,0.45,136
-0.9,0.6,138
-0.9,0.75,140
-0.9,0.9,138
-0.9,1.05,135
-0.9,1.2,141
-0.9,1.35,143
-0.9,1.5,147
-0.75,-1.5,145
-0.75,-1.35,163
-0.75,-1.2,177
-0.75,-1.05,198
-0.75,-0.9,255
-0.75,-0.75,233
-0.75,-0.6,140
-0.75,-0.45,145
-0.75,-0.3,113
-0.75,-0.15,169
-0.75,0.0,255
-0.75,0.15,58
-0.75,0.3,106
-0.75,0.45,119
-0.75,0.6,125
-0.75,0.75,124
-0.75,0.9,127
-0.75,1.05,127
-0.75,1.2,131
-0.75,1.35,130
-0.75,1.5,130
-0.6,-1.5,151
-0.6,-1.35,158
-0.6,-1.2,169
-0.6,-1.05,189
-0.6,-0.9,210
-0.6,-0.75,195
-0.6,-0.6,156
-0.6,-0.45,151
-0.6,-0.3,103
-0.6,-0.15,171
-0.6,0.0,187
-0.6,0.15,134
-0.6,0.3,125
-0.6,0.45,98
-0.6,0.6,119
-0.6,0.75,127
-0.6,0.9,131
-0.6,1.05,131
-0.6,1.2,131
-0.6,1.35,131
-0.6,1.5,130
-0.45,-1.5,145
-0.45,-1.35,149
-0.45,-1.2,154
-0.45,-1.05,164
-0.45,-0.9,167
-0.45,-0.75,153
-0.45,-0.6,143
-0.45,-0.45,183
-0.45,-0.3,136
-0.45,-0.15,195
-0.45,0.0,187
-0.45,0.15,173
-0.45,0.3,146
-0.45,0.45,129
-0.45,0.6,129
-0.45,0.75,106
-0.45,0.9,135
-0.45,1.05,132
-0.45,1.2,131
-0.45,1.35,130
-0.45,1.5,130
-0.3,-1.5,137
-0.3,-1.35,145
-0.3,-1.2,144
-0.3,-1.05,140
-0.3,-0.9,130
-0.3,-0.75,112
-0.3,-0.6,94
-0.3,-0.45,89
-0.3,-0.3,113
-0.3,-0.15,156
-0.3,0.0,148
-0.3,0.15,166
-0.3,0.3,160
-0.3,0.45,1
-0.3,0.6,117
-0.3,0.75,150
-0.3,0.9,136
-0.3,1.05,132
-0.3,1.2,124
-0.3,1.35,122
-0.3,1.5,122
-0.15,-1.5,120
-0.15,-1.35,118
-0.15,-1.2,122
-0.15,-1.05,114
-0.15,-0.9,100
-0.15,-0.75,63
-0.15,-0.6,25
-0.15,-0.45,38
-0.15,-0.3,71
-0.15,-0.15,89
-0.15,0.0,99
-0.15,0.15,111
-0.15,0.3,145
-0.15,0.45,194
-0.15,0.6,122
-0.15,0.75,122
-0.15,0.9,122
-0.15,1.05,122
-0.15,1.2,121
-0.15,1.35,121
-0.15,1.5,114
0.0,-1.5,110
0.0,-1.35,117
0.0,-1.2,110
0.0,-1.05,92
0.0,-0.9,62
0.0,-0.75,45
0.0,-0.6,27
0.0,-0.45,31
0.0,-0.3,46
0.0,-0.15,29
0.0,0.0,48
0.0,0.15,92
0.0,0.3,69
0.0,0.45,112
0.0,0.6,117
0.0,0.75,103
0.0,0.9,108
0.0,1.05,113
0.0,1.2,118
0.0,1.35,109
0.0,1.5,109
0.15,-1.5,103
0.15,-1.35,99
0.15,-1.2,94
0.15,-1.05,88
0.15,-0.9,68
0.15,-0.75,51
0.15,-0.6,45
0.15,-0.45,42
0.15,-0.3,38
0.15,-0.15,39
0.15,0.0,52
0.15,0.15,96
0.15,0.3,109
0.15,0.45,107
0.15,0.6,107
0.15,0.75,103
0.15,0.9,103
0.15,1.05,106
0.15,1.2,107
0.15,1.35,118
0.15,1.5,118
0.3,-1.5,62
0.3,-1.35,62
0.3,-1.2,62
0.3,-1.05,62
0.3,-0.9,62
0.3,-0.75,62
0.3,-0.6,57
0.3,-0.45,46
0.3,-0.3,49
0.3,-0.15,48
0.3,0.0,58
0.3,0.15,52
0.3,0.3,152
0.3,0.45,65
0.3,0.6,82
0.3,0.75,87
0.3,0.9,89
0.3,1.05,95
0.3,1.2,92
0.3,1.35,96
0.3,1.5,97
0.45,-1.5,63
0.45,-1.35,63
0.45,-1.2,64
0.45,-1.05,66
0.45,-0.9,68
0.45,-0.75,71
0.45,-0.6,72
0.45,-0.45,66
0.45,-0.3,50
0.45,-0.15,55
0.45,0.0,67
0.45,0.15,87
0.45,0.3,100
0.45,0.45,156
0.45,0.6,60
0.45,0.75,77
0.45,0.9,82
0.45,1.05,81
0.45,1.2,76
0.45,1.35,74
0.45,1.5,73
0.6,-1.5,57
0.6,-1.35,63
0.6,-1.2,65
0.6,-1.05,67
0.6,-0.9,73
0.6,-0.75,79
0.6,-0.6,94
0.6,-0.45,118
0.6,-0.3,139
0.6,-0.15,61
0.6,0.0,64
0.6,0.15,63
0.6,0.3,83
0.6,0.45,81
0.6,0.6,60
0.6,0.75,74
0.6,0.9,83
0.6,1.05,79
0.6,1.2,74
0.6,1.35,71
0.6,1.5,69
0.75,-1.5,63
0.75,-1.35,57
0.75,-1.2,59
0.75,-1.05,63
0.75,-0.9,65
0.75,-0.75,70
0.75,-0.6,78
0.75,-0.45,176
0.75,-0.3,120
0.75,-0.15,60
0.75,0.0,35
0.75,0.15,34
0.75,0.3,42
0.75,0.45,36
0.75,0.6,56
0.75,0.75,98
0.75,0.9,93
0.75,1.05,77
0.75,1.2,69
0.75,1.35,68
0.75,1.5,60
0.9,-1.5,57
0.9,-1.35,56
0.9,-1.2,57
0.9,-1.05,57
0.9,-0.9,59
0.9,-0.75,58
0.9,-0.6,53
0.9,-0.45,38
0.9,-0.3,54
0.9,-0.15,41
0.9,0.0,34
0.9,0.15,34
0.9,0.3,22
0.9,0.45,10
0.9,0.6,57
0.9,0.75,76
0.9,0.9,74
0.9,1.05,68
0.9,1.2,64
0.9,1.35,62
0.9,1.5,60
1.05,-1.5,57
1.05,-1.35,49
1.05,-1.2,50
1.05,-1.05,39
1.05,-0.9,40
1.05,-0.75,42
1.05,-0.6,38
1.05,-0.45,39
1.05,-0.3,45
1.05,-0.15,45
1.05,0.0,39
1.05,0.15,23
1.05,0.3,0
1.05,0.45,19
1.05,0.6,36
1.05,0.75,44
1.05,0.9,48
1.05,1.05,50
1.05,1.2,49
1.05,1.35,49
1.05,1.5,49
1.2,-1.5,49
1.2,-1.35,46
1.2,-1.2,42
1.2,-1.05,35
1.2,-0.9,29
1.2,-0.75,38
1.2,-0.6,37
1.2,-0.45,25
1.2,-0.3,49
1.2,-0.15,53
1.2,0.0,50
1.2,0.15,26
1.2,0.3,12
1.2,0.45,29
1.2,0.6,31
1.2,0.75,26
1.2,0.9,24
1.2,1.05,31
1.2,1.2,37
1.2,1.35,41
1.2,1.5,43
1.35,-1.5,55
1.35,-1.35,53
1.35,-1.2,48
1.35,-1.05,40
1.35,-0.9,31
1.35,-0.75,28
1.35,-0.6,29
1.35,-0.45,18
1.35,-0.3,32
1.35,-0.15,92
1.35,0.0,55
1.35,0.15,35
1.35,0.3,3
1.35,0.45,18
1.35,0.6,24
1.35,0.75,5
1.35,0.9,2
1.35,1.05,23
1.35,1.2,35
1.35,1.35,37
1.35,1.5,40
1.5,-1.5,71
1.5,-1.35,72
1.5,-1.2,61
1.5,-1.05,45
1.5,-0.9,24
1.5,-0.75,19
1.5,-0.6,27
1.5,-0.45,34
1.5,-0.3,95
1.5,-0.15,46
1.5,0.0,47
1.5,0.15,39
1.5,0.3,20
1.5,0.45,23
1.5,0.6,34
1.5,0.75,18
1.5,0.9,12
1.5,1.05,16
1.5,1.2,22
1.5,1.35,38
1.5,1.5,40
1.65,-1.5,84
1.65,-1.35,92
1.65,-1.2,102
1.65,-1.05,75
1.65,-0.9,13
1.65,-0.75,21
1.65,-0.6,45
1.65,-0.45,5
1.65,-0.3,27
1.65,-0.15,37
1.65,0.0,43
1.65,0.15,39
1.65,0.3,43
1.65,0.45,34
1.65,0.6,26
1.65,0.75,24
1.65,0.9,21
1.65,1.05,20
1.65,1.2,21
1.65,1.35,28
1.65,1.5,29
1.8,-1.5,83
1.8,-1.35,106
1.8,-1.2,157
1.8,-1.05,150
1.8,-0.9,44
1.8,-0.75,12
1.8,-0.6,73
1.8,-0.45,86
1.8,-0.3,28
1.8,-0.15,30
1.8,0.0,90
1.8,0.15,46
1.8,0.3,26
1.8,0.45,26
1.8,0.6,28
1.8,0.75,26
1.8,0.9,24
1.8,1.05,23
1.8,1.2,22
1.8,1.35,22
1.8,1.5,22
1.95,-1.5,81
1.95,-1.35,96
1.95,-1.2,123
1.95,-1.05,87
1.95,-0.9,55
1.95,-0.75,60
1.95,-0.6,51
1.95,-0.45,53
1.95,-0.3,28
1.95,-0.15,59
1.95,0.0,35
1.95,0.15,97
1.95,0.3,50
1.95,0.45,33
1.95,0.6,35
1.95,0.75,36
1.95,0.9,35
1.95,1.05,35
1.95,1.2,23
1.95,1.35,23
1.95,1.5,22
2.1,-1.5,68
2.1,-1.35,74
2.1,-1.2,79
2.1,-1.05,80
2.1,-0.9,98
2.1,-0.75,116
2.1,-0.6,55
2.1,-0.45,44
2.1,-0.3,51
2.1,-0.15,48
2.1,0.0,12
2.1,0.15,71
2.1,0.3,52
2.1,0.45,23
2.1,0.6,27
2.1,0.75,36
2.1,0.9,36
2.1,1.05,33
2.1,1.2,33
2.1,1.35,33
2.1,1.5,23
2.25,-1.5,53
2.25,-1.35,51
2.25,-1.2,52
2.25,-1.05,65
2.25,-0.9,89
2.25,-0.75,116
2.25,-0.6,83
2.25,-0.45,36
2.25,-0.3,47
2.25,-0.15,43
2.25,0.0,35
2.25,0.15,64
2.25,0.3,101
2.25,0.45,57
2.25,0.6,35
2.25,0.75,33
2.25,0.9,34
2.25,1.05,37
2.25,1.2,34
2.25,1.35,34
2.25,1.5,34
2.4,-1.5,50
2.4,-1.35,36
2.4,-1.2,11
2.4,-1.05,42
2.4,-0.9,73
2.4,-0.75,40
2.4,-0.6,85
2.4,-0.45,120
2.4,-0.3,3
2.4,-0.15,43
2.4,0.0,50
2.4,0.15,51
2.4,0.3,53
2.4,0.45,46
2.4,0.6,40
2.4,0.75,39
2.4,0.9,40
2.4,1.05,34
2.4,1.2,34
2.4,1.35,34
2.4,1.5,34
2.55,-1.5,39
2.55,-1.35,19
2.55,-1.2,7
2.55,-1.05,39
2.55,-0.9,71
2.55,-0.75,86
2.55,-0.6,103
2.55,-0.45,152
2.55,-0.3,163
2.55,-0.15,45
2.55,0.0,50
2.55,0.15,62
2.55,0.3,27
2.55,0.45,11
2.55,0.6,18
2.55,0.75,34
2.55,0.9,40
2.55,1.05,40
2.55,1.2,47
2.55,1.35,49
2.55,1.5,49
2.7,-1.5,34
2.7,-1.35,15
2.7,-1.2,5
2.7,-1.05,49
2.7,-0.9,78
2.7,-0.75,97
2.7,-0.6,124
2.7,-0.45,161
2.7,-0.3,78
2.7,-0.15,25
2.7,0.0,47
2.7,0.15,47
2.7,0.3,19
2.7,0.45,18
2.7,0.6,25
2.7,0.75,38
2.7,0.9,49
2.7,1.05,49
2.7,1.2,48
2.7,1.35,49
2.7,1.5,49
2.85,-1.5,35
2.85,-1.35,29
2.85,-1.2,40
2.85,-1.05,72
2.85,-0.9,151
2.85,-0.75,129
2.85,-0.6,69
2.85,-0.45,51
2.85,-0.3,92
2.85,-0.15,55
2.85,0.0,47
2.85,0.15,64
2.85,0.3,59
2.85,0.45,53
2.85,0.6,48
2.85,0.75,49
2.85,0.9,48
2.85,1.05,49
2.85,1.2,49
2.85,1.35,49
2.85,1.5,49
3.0,-1.5,45
3.0,-1.35,42
3.0,-1.2,52
3.0,-1.05,68
3.0,-0.9,104
3.0,-0.75,77
3.0,-0.6,40
3.0,-0.45,48
3.0,-0.3,77
3.0,-0.15,30
3.0,0.0,45
3.0,0.15,82
3.0,0.3,86
3.0,0.45,58
3.0,0.6,53
3.0,0.75,46
3.0,0.9,50
3.0,1.05,48
3.0,1.2,48
3.0,1.35,48
3.0,1.5,48
3.15,-1.5,48
3.15,-1.35,50
3.15,-1.2,50
3.15,-1.05,47
3.15,-0.9,46
3.15,-0.75,53
3.15,-0.6,54
3.15,-0.45,106
3.15,-0.3,78
3.15,-0.15,51
3.15,0.0,36
3.15,0.15,99
3.15,0.3,242
3.15,0.45,57
3.15,0.6,50
3.15,0.75,46
3.15,0.9,49
3.15,1.05,50
3.15,1.2,51
3.15,1.35,51
3.15,1.5,51
3.3,-1.5,53
3.3,-1.35,53
3.3,-1.2,48
3.3,-1.05,47
3.3,-0.9,43
3.3,-0.75,44
3.3,-0.6,48
3.3,-0.45,58
3.3,-0.3,51
3.3,-0.15,44
3.3,0.0,38
3.3,0.15,57
3.3,0.3,48
3.3,0.45,10
3.3,0.6,46
3.3,0.75,51
3.3,0.9,52
3.3,1.05,54
3.3,1.2,64
3.3,1.35,66
3.3,1.5,67
3.45,-1.5,52
3.45,-1.35,52
3.45,-1.2,53
3.45,-1.05,44
3.45,-0.9,36
3.45,-0.75,2
3.45,-0.6,0
3.45,-0.45,37
3.45,-0.3,33
3.45,-0.15,15
3.45,0.0,12
3.45,0.15,48
3.45,0.3,50
3.45,0.45,50
3.45,0.6,51
3.45,0.75,66
3.45,0.9,68
3.45,1.05,69
3.45,1.2,69
3.45,1.35,69
3.45,1.5,69
3.6,-1.5,51
3.6,-1.35,51
3.6,-1.2,51
3.6,-1.05,62
3.6,-0.9,88
3.6,-0.75,38
3.6,-0.6,27
3.6,-0.45,37
3.6,-0.3,44
3.6,-0.15,24
3.6,0.0,70
3.6,0.15,49
3.6,0.3,50
3.6,0.45,53
3.6,0.6,56
3.6,0.75,54
3.6,0.9,54
3.6,1.05,69
3.6,1.2,69
3.6,1.35,69
3.6,1.5,56
3.75,-1.5,51
3.75,-1.35,51
3.75,-1.2,54
3.75,-1.05,72
3.75,-0.9,135
3.75,-0.75,69
3.75,-0.6,27
3.75,-0.45,58
3.75,-0.3,101
3.75,-0.15,138
3.75,0.0,79
3.75,0.15,60
3.75,0.3,63
3.75,0.45,70
3.75,0.6,68
3.75,0.75,69
3.75,0.9,69
3.75,1.05,68
3.75,1.2,54
3.75,1.35,65
3.75,1.5,65
3.9,-1.5,88
3.9,-1.35,79
3.9,-1.2,64
3.9,-1.05,68
3.9,-0.9,83
3.9,-0.75,71
3.9,-0.6,51
3.9,-0.45,57
3.9,-0.3,49
3.9,-0.15,98
3.9,0.0,63
3.9,0.15,72
3.9,0.3,125
3.9,0.45,48
3.9,0.6,75
3.9,0.75,78
3.9,0.9,85
3.9,1.05,83
3.9,1.2,79
3.9,1.35,79
3.9,1.5,68
4.05,-1.5,108
4.05,-1.35,83
4.05,-1.2,47
4.05,-1.05,77
4.05,-0.9,87
4.05,-0.75,98
4.05,-0.6,109
4.05,-0.45,122
4.05,-0.3,165
4.05,-0.15,157
4.05,0.0,79
4.05,0.15,112
4.05,0.3,59
4.05,0.45,88
4.05,0.6,81
4.05,0.75,88
4.05,0.9,89
4.05,1.05,89
4.05,1.2,89
4.05,1.35,88
4.05,1.5,88
4.2,-1.5,117
4.2,-1.35,104
4.2,-1.2,90
4.2,-1.05,114
4.2,-0.9,77
4.2,-0.75,113
4.2,-0.6,139
4.2,-0.45,107
4.2,-0.3,153
4.2,-0.15,117
4.2,0.0,173
4.2,0.15,102
4.2,0.3,55
4.2,0.45,70
4.2,0.6,84
4.2,0.75,89
4.2,0.9,89
4.2,1.05,89
4.2,1.2,89
4.2,1.35,89
4.2,1.5,89
4.35,-1.5,139
4.35,-1.35,140
4.35,-1.2,148
4.35,-1.05,163
4.35,-0.9,178
4.35,-0.75,153
4.35,-0.6,140
4.35,-0.45,85
4.35,-0.3,54
4.35,-0.15,144
4.35,0.0,109
4.35,0.15,25
4.35,0.3,82
4.35,0.45,75
4.35,0.6,77
4.35,0.75,84
4.35,0.9,87
4.35,1.05,87
4.35,1.2,87
4.35,1.35,89
4.35,1.5,89
4.5,-1.5,144
4.5,-1.35,156
4.5,-1.2,180
4.5,-1.05,207
4.5,-0.9,255
4.5,-0.75,168
4.5,-0.6,108
4.5,-0.45,192
4.5,-0.3,0
4.5,-0.15,5
4.5,0.0,76
4.5,0.15,176
4.5,0.3,89
4.5,0.45,71
4.5,0.6,51
4.5,0.75,95
4.5,0.9,87
4.5,1.05,87
4.5,1.2,96
4.5,1.35,97
4.5,1.5,98
4.65,-1.5,142
4.65,-1.35,164
4.65,-1.2,198
4.65,-1.05,255
4.65,-0.9,113
4.65,-0.75,55
4.65,-0.6,70
4.65,-0.45,74
4.65,-0.3,82
4.65,-0.15,83
4.65,0.0,57
4.65,0.15,63
4.65,0.3,65
4.65,0.45,64
4.65,0.6,136
4.65,0.75,117
4.65,0.9,101
4.65,1.05,110
4.65,1.2,112
4.65,1.35,114
4.65,1.5,112
4.8,-1.5,138
4.8,-1.35,156
4.8,-1.2,169
4.8,-1.05,165
4.8,-0.9,147
4.8,-0.75,84
4.8,-0.6,83
4.8,-0.45,154
4.8,-0.3,255
4.8,-0.15,88
4.8,0.0,25
4.8,0.15,43
4.8,0.3,65
4.8,0.45,76
4.8,0.6,96
4.8,0.75,110
4.8,0.9,113
4.8,1.05,115
4.8,1.2,118
4.8,1.35,120
4.8,1.5,120
4.95,-1.5,136
4.95,-1.35,140
4.95,-1.2,142
4.95,-1.05,145
4.95,-0.9,134
4.95,-0.75,70
4.95,-0.6,144
4.95,-0.45,152
4.95,-0.3,96
4.95,-0.15,64
4.95,0.0,63
4.95,0.15,74
4.95,0.3,108
4.95,0.45,92
4.95,0.6,98
4.95,0.75,110
4.95,0.9,120
4.95,1.05,125
4.95,1.2,127
4.95,1.35,127
4.95,1.5,140
5.1,-1.5,121
5.1,-1.35,123
5.1,-1.2,124
5.1,-1.05,125
5.1,-0.9,115
5.1,-0.75,99
5.1,-0.6,45
5.1,-0.45,252
5.1,-0.3,45
5.1,-0.15,45
5.1,0.0,97
5.1,0.15,158
5.1,0.3,178
5.1,0.45,94
5.1,0.6,103
5.1,0.75,136
5.1,0.9,152
5.1,1.05,157
5.1,1.2,164
5.1,1.35,157
5.1,1.5,156
5.25,-1.5,98
5.25,-1.35,95
5.25,-1.2,95
5.25,-1.05,97
5.25,-0.9,87
5.25,-0.75,72
5.25,-0.6,65
5.25,-0.45,41
5.25,-0.3,77
5.25,-0.15,53
5.25,0.0,184
5.25,0.15,255
5.25,0.3,186
5.25,0.45,94
5.25,0.6,119
5.25,0.75,173
5.25,0.9,193
5.25,1.05,181
5.25,1.2,171
5.25,1.35,164
5.25,1.5,159
5.4,-1.5,80
5.4,-1.35,63
5.4,-1.2,71
5.4,-1.05,73
5.4,-0.9,71
5.4,-0.75,70
5.4,-0.6,39
5.4,-0.45,43
5.4,-0.3,62
5.4,-0.15,95
5.4,0.0,200
5.4,0.15,239
5.4,0.3,125
5.4,0.45,144
5.4,0.6,170
5.4,0.75,255
5.4,0.9,249
5.4,1.05,214
5.4,1.2,183
5.4,1.35,170
5.4,1.5,148
5.55,-1.5,70
5.55,-1.35,48
5.55,-1.2,55
5.55,-1.05,79
5.55,-0.9,105
5.55,-0.75,109
5.55,-0.6,90
5.55,-0.45,69
5.55,-0.3,163
5.55,-0.15,68
5.55,0.0,144
5.55,0.15,180
5.55,0.3,121
5.55,0.45,103
5.55,0.6,153
5.55,0.75,255
5.55,0.9,255
5.55,1.05,210
5.55,1.2,178
5.55,1.35,159
5.55,1.5,137
5.7,-1.5,72
5.7,-1.35,67
5.7,-1.2,73
5.7,-1.05,76
5.7,-0.9,86
5.7,-0.75,116
5.7,-0.6,119
5.7,-0.45,49
5.7,-0.3,109
5.7,-0.15,76
5.7,0.0,75
5.7,0.15,97
5.7,0.3,91
5.7,0.45,77
5.7,0.6,134
5.7,0.75,184
5.7,0.9,200
5.7,1.05,176
5.7,1.2,155
5.7,1.35,144
5.7,1.5,137
5.85,-1.5,79
5.85,-1.35,78
5.85,-1.2,79
5.85,-1.05,64
5.85,-0.9,58
5.85,-0.75,83
5.85,-0.6,54
5.85,-0.45,49
5.85,-0.3,81
5.85,-0.15,63
5.85,0.0,94
5.85,0.15,162
5.85,0.3,107
5.85,0.45,155
5.85,0.6,125
5.85,0.75,139
5.85,0.9,149
5.85,1.05,149
5.85,1.2,145
5.85,1.35,140
5.85,1.5,137
6.0,-1.5,81
6.0,-1.35,81
6.0,-1.2,79
6.0,-1.05,73
6.0,-0.9,61
6.0,-0.75,67
6.0,-0.6,11
6.0,-0.45,52
6.0,-0.3,48
6.0,-0.15,48
6.0,0.0,48
6.0,0.15,89
6.0,0.3,67
6.0,0.45,110
6.0,0.6,112
6.0,0.75,115
6.0,0.9,120
6.0,1.05,115
6.0,1.2,115
6.0,1.35,96
6.0,1.5,96
6.15,-1.5,79
6.15,-1.35,79
6.15,-1.2,83
6.15,-1.05,72
6.15,-0.9,74
6.15,-0.75,95
6.15,-0.6,104
6.15,-0.45,128
6.15,-0.3,48
6.15,-0.15,133
6.15,0.0,84
6.15,0.15,64
6.15,0.3,62
6.15,0.45,81
6.15,0.6,85
6.15,0.75,91
6.15,0.9,99
6.15,1.05,104
6.15,1.2,107
6.15,1.35,110
6.15,1.5,96
6.3,-1.5,85
6.3,-1.35,85
6.3,-1.2,85
6.3,-1.05,72
6.3,-0.9,76
6.3,-0.75,98
6.3,-0.6,166
6.3,-0.45,104
6.3,-0.3,19
6.3,-0.15,31
6.3,0.0,66
6.3,0.15,13
6.3,0.3,48
6.3,0.45,71
6.3,0.6,74
6.3,0.75,69
6.3,0.9,76
6.3,1.05,76
6.3,1.2,92
6.3,1.35,84
6.3,1.5,86
6.45,-1.5,85
6.45,-1.35,85
6.45,-1.2,83
6.45,-1.05,79
6.45,-0.9,86
6.45,-0.75,62
6.45,-0.6,0
6.45,-0.45,46
6.45,-0.3,45
6.45,-0.15,47
6.45,0.0,38
6.45,0.15,51
6.45,0.3,71
6.45,0.45,71
6.45,0.6,60
6.45,0.75,50
6.45,0.9,55
6.45,1.05,60
6.45,1.2,81
6.45,1.35,86
6.45,1.5,80
6.6,-1.5,86
6.6,-1.35,91
6.6,-1.2,90
6.6,-1.05,93
6.6,-0.9,85
6.6,-0.75,68
6.6,-0.6,59
6.6,-0.45,168
6.6,-0.3,71
6.6,-0.15,39
6.6,0.0,72
6.6,0.15,94
6.6,0.3,114
6.6,0.45,66
6.6,0.6,56
6.6,0.75,50
6.6,0.9,50
6.6,1.05,50
6.6,1.2,60
6.6,1.35,62
6.6,1.5,70
6.75,-1.5,86
6.75,-1.35,88
6.75,-1.2,92
6.75,-1.05,94
6.75,-0.9,73
6.75,-0.75,72
6.75,-0.6,17
6.75,-0.45,65
6.75,-0.3,40
6.75,-0.15,58
6.75,0.0,180
6.75,0.15,150
6.75,0.3,63
6.75,0.45,59
6.75,0.6,53
6.75,0.75,52
6.75,0.9,50
6.75,1.05,50
6.75,1.2,50
6.75,1.35,51
6.75,1.5,51
6.9,-1.5,89
6.9,-1.35,94
6.9,-1.2,102
6.9,-1.05,117
6.9,-0.9,138
6.9,-0.75,132
6.9,-0.6,112
6.9,-0.45,53
6.9,-0.3,5
6.9,-0.15,19
6.9,0.0,61
6.9,0.15,49
6.9,0.3,46
6.9,0.45,45
6.9,0.6,46
6.9,0.75,48
6.9,0.9,49
6.9,1.05,45
6.9,1.2,46
6.9,1.35,49
6.9,1.5,50
7.05,-1.5,87
7.05,-1.35,91
7.05,-1.2,98
7.05,-1.05,119
7.05,-0.9,157
7.05,-0.75,90
7.05,-0.6,54
7.05,-0.45,112
7.05,-0.3,10
7.05,-0.15,99
7.05,0.0,140
7.05,0.15,65
7.05,0.3,16
7.05,0.45,15
7.05,0.6,27
7.05,0.75,32
7.05,0.9,32
7.05,1.05,34
7.05,1.2,35
7.05,1.35,35
7.05,1.5,35
7.2,-1.5,83
7.2,-1.35,83
7.2,-1.2,83
7.2,-1.05,73
7.2,-0.9,76
7.2,-0.75,49
7.2,-0.6,42
7.2,-0.45,94
7.2,-0.3,33
7.2,-0.15,38
7.2,0.0,80
7.2,0.15,43
7.2,0.3,30
7.2,0.45,8
7.2,0.6,23
7.2,0.75,24
7.2,0.9,24
7.2,1.05,29
7.2,1.2,34
7.2,1.35,34
7.2,1.5,35
7.35,-1.5,64
7.35,-1.35,62
7.35,-1.2,58
7.35,-1.05,52
7.35,-0.9,43
7.35,-0.75,34
7.35,-0.6,25
7.35,-0.45,119
7.35,-0.3,161
7.35,-0.15,26
7.35,0.0,27
7.35,0.15,0
7.35,0.3,18
7.35,0.45,20
7.35,0.6,28
7.35,0.75,32
7.35,0.9,34
7.35,1.05,35
7.35,1.2,35
7.35,1.35,34
7.35,1.5,34
7.5,-1.5,48
7.5,-1.35,48
7.5,-1.2,48
7.5,-1.05,48
7.5,-0.9,34
7.5,-0.75,22
7.5,-0.6,25
7.5,-0.45,10
7.5,-0.3,26
7.5,-0.15,128
7.5,0.0,38
7.5,0.15,47
7.5,0.3,58
7.5,0.45,50
7.5,0.6,42
7.5,0.75,40
7.5,0.9,38
7.5,1.05,38
7.5,1.2,41
7.5,1.35,41
7.5,1.5,41
7.65,-1.5,75
7.65,-1.35,69
7.65,-1.2,55
7.65,-1.05,56
7.65,-0.9,53
7.65,-0.75,28
7.65,-0.6,17
7.65,-0.45,29
7.65,-0.3,86
7.65,-0.15,136
7.65,0.0,78
7.65,0.15,49
7.65,0.3,149
7.65,0.45,51
7.65,0.6,47
7.65,0.75,45
7.65,0.9,39
7.65,1.05,38
7.65,1.2,38
7.65,1.35,39
7.65,1.5,51
7.8,-1.5,85
7.8,-1.35,84
7.8,-1.2,82
7.8,-1.05,79
7.8,-0.9,68
7.8,-0.75,49
7.8,-0.6,30
7.8,-0.45,68
7.8,-0.3,25
7.8,-0.15,23
7.8,0.0,0
7.8,0.15,4
7.8,0.3,46
7.8,0.45,47
7.8,0.6,45
7.8,0.75,42
7.8,0.9,51
7.8,1.05,51
7.8,1.2,51
7.8,1.35,51
7.8,1.5,51
7.95,-1.5,89
7.95,-1.35,90
7.95,-1.2,93
7.95,-1.05,100
7.95,-0.9,108
7.95,-0.75,108
7.95,-0.6,60
7.95,-0.45,0
7.95,-0.3,33
7.95,-0.15,19
7.95,0.0,27
7.95,0.15,14
7.95,0.3,34
7.95,0.45,34
7.95,0.6,42
7.95,0.75,47
7.95,0.9,48
7.95,1.05,48
7.95,1.2,51
7.95,1.35,51
7.95,1.5,51
8.1,-1.5,89
8.1,-1.35,94
8.1,-1.2,98
8.1,-1.05,103
8.1,-0.9,108
8.1,-0.75,57
8.1,-0.6,89
8.1,-0.45,48
8.1,-0.3,19
8.1,-0.15,45
8.1,0.0,116
8.1,0.15,46
8.1,0.3,47
8.1,0.45,52
8.1,0.6,57
8.1,0.75,58
8.1,0.9,59
8.1,1.05,59
8.1,1.2,59
8.1,1.35,73
8.1,1.5,73
8.25,-1.5,93
8.25,-1.35,95
8.25,-1.2,98
8.25,-1.05,104
8.25,-0.9,123
8.25,-0.75,85
8.25,-0.6,2
8.25,-0.45,7
8.25,-0.3,42
8.25,-0.15,66
8.25,0.0,45
8.25,0.15,24
8.25,0.3,45
8.25,0.45,75
8.25,0.6,91
8.25,0.75,79
8.25,0.9,86
8.25,1.05,86
8.25,1.2,86
8.25,1.35,86
8.25,1.5,74
8.4,-1.5,91
8.4,-1.35,92
8.4,-1.2,98
8.4,-1.05,92
8.4,-0.9,105
8.4,-0.75,89
8.4,-0.6,42
8.4,-0.45,110
8.4,-0.3,120
8.4,-0.15,73
8.4,0.0,51
8.4,0.15,21
8.4,0.3,84
8.4,0.45,132
8.4,0.6,94
8.4,0.75,86
8.4,0.9,85
8.4,1.05,72
8.4,1.2,72
8.4,1.35,72
8.4,1.5,78
8.55,-1.5,79
8.55,-1.35,79
8.55,-1.2,80
8.55,-1.05,69
8.55,-0.9,68
8.55,-0.75,60
8.55,-0.6,124
8.55,-0.45,46
8.55,-0.3,108
8.55,-0.15,26
8.55,0.0,8
8.55,0.15,84
8.55,0.3,114
8.55,0.45,109
8.55,0.6,97
8.55,0.75,82
8.55,0.9,78
8.55,1.05,75
8.55,1.2,74
8.55,1.35,72
8.55,1.5,72
8.7,-1.5,83
8.7,-1.35,83
8.7,-1.2,79
8.7,-1.05,76
8.7,-0.9,66
8.7,-0.75,47
8.7,-0.6,0
8.7,-0.45,70
8.7,-0.3,60
8.7,-0.15,7
8.7,0.0,3
8.7,0.15,118
8.7,0.3,131
8.7,0.45,74
8.7,0.6,77
8.7,0.75,75
8.7,0.9,73
8.7,1.05,72
8.7,1.2,73
8.7,1.35,72
8.7,1.5,72
8.85,-1.5,85
8.85,-1.35,78
8.85,-1.2,77
8.85,-1.05,72
8.85,-0.9,85
8.85,-0.75,81
8.85,-0.6,69
8.85,-0.45,166
8.85,-0.3,81
8.85,-0.15,6
8.85,0.0,5
8.85,0.15,46
8.85,0.3,35
8.85,0.45,47
8.85,0.6,67
8.85,0.75,71
8.85,0.9,72
8.85,1.05,72
8.85,1.2,72
8.85,1.35,72
8.85,1.5,71
9.0,-1.5,95
9.0,-1.35,94
9.0,-1.2,69
9.0,-1.05,69
9.0,-0.9,69
9.0,-0.75,103
9.0,-0.6,171
9.0,-0.45,44
9.0,-0.3,21
9.0,-0.15,36
9.0,0.0,8
9.0,0.15,32
9.0,0.3,44
9.0,0.45,47
9.0,0.6,52
9.0,0.75,65
9.0,0.9,68
9.0,1.05,66
9.0,1.2,66
9.0,1.35,66
9.0,1.5,66
9.15,-1.5,76
9.15,-1.35,76
9.15,-1.2,77
9.15,-1.05,79
9.15,-0.9,79
9.15,-0.75,51
9.15,-0.6,56
9.15,-0.45,32
9.15,-0.3,40
9.15,-0.15,42
9.15,0.0,35
9.15,0.15,44
9.15,0.3,39
9.15,0.45,39
9.15,0.6,49
9.15,0.75,51
9.15,0.9,56
9.15,1.05,69
9.15,1.2,70
9.15,1.35,71
9.15,1.5,72
9.3,-1.5,79
9.3,-1.35,79
9.3,-1.2,79
9.3,-1.05,69
9.3,-0.9,54
9.3,-0.75,38
9.3,-0.6,47
9.3,-0.45,28
9.3,-0.3,18
9.3,-0.15,26
9.3,0.0,42
9.3,0.15,48
9.3,0.3,48
9.3,0.45,47
9.3,0.6,42
9.3,0.75,55
9.3,0.9,56
9.3,1.05,56
9.3,1.2,72
9.3,1.35,73
9.3,1.5,90
9.45,-1.5,66
9.45,-1.35,66
9.45,-1.2,66
9.45,-1.05,68
9.45,-0.9,70
9.45,-0.75,62
9.45,-0.6,255
9.45,-0.45,1
9.45,-0.3,31
9.45,-0.15,17
9.45,0.0,100
9.45,0.15,72
9.45,0.3,60
9.45,0.45,50
9.45,0.6,45
9.45,0.75,44
9.45,0.9,44
9.45,1.05,44
9.45,1.2,57
9.45,1.35,57
9.45,1.5,73
9.6,-1.5,66
9.6,-1.35,66
9.6,-1.2,68
9.6,-1.05,71
9.6,-0.9,83
9.6,-0.75,65
9.6,-0.6,21
9.6,-0.45,0
9.6,-0.3,10
9.6,-0.15,47
9.6,0.0,65
9.6,0.15,50
9.6,0.3,53
9.6,0.45,55
9.6,0.6,55
9.6,0.75,48
9.6,0.9,47
9.6,1.05,46
9.6,1.2,50
9.6,1.35,49
9.6,1.5,46
9.75,-1.5,66
9.75,-1.35,66
9.75,-1.2,66
9.75,-1.05,66
9.75,-0.9,55
9.75,-0.75,66
9.75,-0.6,142
9.75,-0.45,90
9.75,-0.3,37
9.75,-0.15,17
9.75,0.0,0
9.75,0.15,39
9.75,0.3,43
9.75,0.45,46
9.75,0.6,44
9.75,0.75,47
9.75,0.9,47
9.75,1.05,47
9.75,1.2,46
9.75,1.35,46
9.75,1.5,46
9.9,-1.5,91
9.9,-1.35,73
9.9,-1.2,72
9.9,-1.05,82
9.9,-0.9,67
9.9,-0.75,84
9.9,-0.6,69
9.9,-0.45,97
9.9,-0.3,43
9.9,-0.15,26
9.9,0.0,20
9.9,0.15,25
9.9,0.3,45
9.9,0.45,38
9.9,0.6,40
9.9,0.75,40
9.9,0.9,37
9.9,1.05,41
9.9,1.2,45
9.9,1.35,45
9.9,1.5,46
10.05,-1.5,81
10.05,-1.35,84
10.05,-1.2,84
10.05,-1.05,84
10.05,-0.9,78
10.05,-0.75,7
10.05,-0.6,75
10.05,-0.45,51
10.05,-0.3,0
10.05,-0.15,33
10.05,0.0,20
10.05,0.15,32
10.05,0.3,39
10.05,0.45,32
10.05,0.6,32
10.05,0.75,32
10.05,0.9,32
10.05,1.05,32
10.05,1.2,36
10.05,1.35,40
10.05,1.5,44
10.2,-1.5,70
10.2,-1.35,70
10.2,-1.2,69
10.2,-1.05,64
10.2,-0.9,64
10.2,-0.75,75
10.2,-0.6,144
10.2,-0.45,41
10.2,-0.3,71
10.2,-0.15,87
10.2,0.0,10
10.2,0.15,44
10.2,0.3,32
10.2,0.45,33
10.2,0.6,35
10.2,0.75,46
10.2,0.9,57
10.2,1.05,45
10.2,1.2,46
10.2,1.35,50
10.2,1.5,50
10.35,-1.5,78
10.35,-1.35,71
10.35,-1.2,72
10.35,-1.05,71
10.35,-0.9,74
10.35,-0.75,84
10.35,-0.6,54
10.35,-0.45,75
10.35,-0.3,255
10.35,-0.15,111
10.35,0.0,54
10.35,0.15,60
10.35,0.3,70
10.35,0.45,55
10.35,0.6,53
10.35,0.75,53
10.35,0.9,54
10.35,1.05,57
10.35,1.2,58
10.35,1.35,43
10.35,1.5,31
10.5,-1.5,106
10.5,-1.35,104
10.5,-1.2,82
10.5,-1.05,83
10.5,-0.9,85
10.5,-0.75,87
10.5,-0.6,91
10.5,-0.45,103
10.5,-0.3,126
10.5,-0.15,75
10.5,0.0,55
10.5,0.15,72
10.5,0.3,75
10.5,0.45,77
10.5,0.6,78
10.5,0.75,66
10.5,0.9,66
10.5,1.05,59
10.5,1.2,59
10.5,1.35,59
10.5,1.5,59
10.65,-1.5,95
10.65,-1.35,95
10.65,-1.2,97
10.65,-1.05,93
10.65,-0.9,86
10.65,-0.75,84
10.65,-0.6,97
10.65,-0.45,101
10.65,-0.3,89
10.65,-0.15,96
10.65,0.0,96
10.65,0.15,87
10.65,0.3,78
10.65,0.45,78
10.65,0.6,78
10.65,0.75,78
10.65,0.9,78
10.65,1.05,66
10.65,1.2,66
10.65,1.35,45
10.65,1.5,44
10.8,-1.5,103
10.8,-1.35,103
10.8,-1.2,103
10.8,-1.05,99
10.8,-0.9,84
10.8,-0.75,46
10.8,-0.6,78
10.8,-0.45,46
10.8,-0.3,64
10.8,-0.15,56
10.8,0.0,59
10.8,0.15,63
10.8,0.3,61
10.8,0.45,60
10.8,0.6,47
10.8,0.75,46
10.8,0.9,46
10.8,1.05,45
10.8,1.2,45
10.8,1.35,49
10.8,1.5,49
10.95,-1.5,94
10.95,-1.35,98
10.95,-1.2,111
10.95,-1.05,113
10.95,-0.9,122
10.95,-0.75,130
10.95,-0.6,96
10.95,-0.45,71
10.95,-0.3,15
10.95,-0.15,32
10.95,0.0,36
10.95,0.15,53
10.95,0.3,63
10.95,0.45,63
10.95,0.6,63
10.95,0.75,63
10.95,0.9,55
10.95,1.05,55
10.95,1.2,55
10.95,1.35,55
10.95,1.5,55
11.1,-1.5,94
11.1,-1.35,94
11.1,-1.2,106
11.1,-1.05,121
11.1,-0.9,165
11.1,-0.75,255
11.1,-0.6,121
11.1,-0.45,4
11.1,-0.3,71
11.1,-0.15,55
11.1,0.0,52
11.1,0.15,55
11.1,0.3,59
11.1,0.45,55
11.1,0.6,55
11.1,0.75,55
11.1,0.9,44
11.1,1.05,43
11.1,1.2,43
11.1,1.35,43
11.1,1.5,43
11.25,-1.5,94
11.25,-1.35,97
11.25,-1.2,103
11.25,-1.05,113
11.25,-0.9,123
11.25,-0.75,137
11.25,-0.6,70
11.25,-0.45,46
11.25,-0.3,39
11.25,-0.15,47
11.25,0.0,56
11.25,0.15,57
11.25,0.3,58
11.25,0.45,54
11.25,0.6,55
11.25,0.75,49
11.25,0.9,50
11.25,1.05,46
11.25,1.2,46
11.25,1.35,45
11.25,1.5,43
11.4,-1.5,95
11.4,-1.35,86
11.4,-1.2,86
11.4,-1.05,79
11.4,-0.9,78
11.4,-0.75,63
11.4,-0.6,43
11.4,-0.45,24
11.4,-0.3,15
11.4,-0.15,69
11.4,0.0,71
11.4,0.15,62
11.4,0.3,49
11.4,0.45,46
11.4,0.6,47
11.4,0.75,44
11.4,0.9,48
11.4,1.05,48
11.4,1.2,48
11.4,1.35,44
11.4,1.5,43
11.55,-1.5,101
11.55,-1.35,100
11.55,-1.2,99
11.55,-1.05,92
11.55,-0.9,85
11.55,-0.75,58
11.55,-0.6,45
11.55,-0.45,37
11.55,-0.3,55
11.55,-0.15,135
11.55,0.0,77
11.55,0.15,60
11.55,0.3,53
11.55,0.45,48
11.55,0.6,46
11.55,0.75,46
11.55,0.9,39
11.55,1.05,38
11.55,1.2,31
11.55,1.35,30
11.55,1.5,30
11.7,-1.5,102
11.7,-1.35,102
11.7,-1.2,102
11.7,-1.05,102
11.7,-0.9,90
11.7,-0.75,74
11.7,-0.6,69
11.7,-0.45,76
11.7,-0.3,70
11.7,-0.15,59
11.7,0.0,56
11.7,0.15,55
11.7,0.3,48
11.7,0.45,47
11.7,0.6,45
11.7,0.75,44
11.7,0.9,42
11.7,1.05,39
11.7,1.2,38
11.7,1.35,30
11.7,1.5,30
11.85,-1.5,102
11.85,-1.35,102
11.85,-1.2,93
11.85,-1.05,95
11.85,-0.9,95
11.85,-0.75,107
11.85,-0.6,118
11.85,-0.45,115
11.85,-0.3,37
11.85,-0.15,24
11.85,0.0,38
11.85,0.15,48
11.85,0.3,50
11.85,0.45,45
11.85,0.6,37
11.85,0.75,36
11.85,0.9,33
11.85,1.05,32
11.85,1.2,31
11.85,1.35,31
11.85,1.5,30
12.0,-1.5,83
12.0,-1.35,86
12.0,-1.2,102
12.0,-1.05,104
12.0,-0.9,122
12.0,-0.75,131
12.0,-0.6,150
12.0,-0.45,255
12.0,-0.3,24
12.0,-0.15,28
12.0,0.0,25
12.0,0.15,25
12.0,0.3,25
12.0,0.45,34
12.0,0.6,31
12.0,0.75,30
12.0,0.9,31
12.0,1.05,28
12.0,1.2,28
12.0,1.35,28
12.0,1.5,27
12.15,-1.5,64
12.15,-1.35,78
12.15,-1.2,84
12.15,-1.05,95
12.15,-0.9,106
12.15,-0.75,106
12.15,-0.6,107
12.15,-0.45,164
12.15,-0.3,23
12.15,-0.15,12
12.15,0.0,34
12.15,0.15,36
12.15,0.3,35
12.15,0.45,29
12.15,0.6,23
12.15,0.75,25
12.15,0.9,26
12.15,1.05,28
12.15,1.2,28
12.15,1.35,28
12.15,1.5,27
12.3,-1.5,41
12.3,-1.35,44
12.3,-1.2,57
12.3,-1.05,54
12.3,-0.9,54
12.3,-0.75,63
12.3,-0.6,67
12.3,-0.45,79
12.3,-0.3,66
12.3,-0.15,24
12.3,0.0,36
12.3,0.15,36
12.3,0.3,28
12.3,0.45,10
12.3,0.6,2
12.3,0.75,11
12.3,0.9,19
12.3,1.05,24
12.3,1.2,25
12.3,1.35,24
12.3,1.5,23
12.45,-1.5,28
12.45,-1.35,32
12.45,-1.2,35
12.45,-1.05,38
12.45,-0.9,40
12.45,-0.75,41
12.45,-0.6,43
12.45,-0.45,17
12.45,-0.3,46
12.45,-0.15,60
12.45,0.0,51
12.45,0.15,26
12.45,0.3,17
12.45,0.45,0
12.45,0.6,0
12.45,0.75,4
12.45,0.9,12
12.45,1.05,15
12.45,1.2,14
12.45,1.35,13
12.45,1.5,16
12.6,-1.5,25
12.6,-1.35,31
12.6,-1.2,37
12.6,-1.05,42
12.6,-0.9,43
12.6,-0.75,53
12.6,-0.6,58
12.6,-0.45,18
12.6,-0.3,66
12.6,-0.15,46
12.6,0.0,63
12.6,0.15,60
12.6,0.3,50
12.6,0.45,29
12.6,0.6,10
12.6,0.75,12
12.6,0.9,15
12.6,1.05,18
12.6,1.2,16
12.6,1.35,8
12.6,1.5,6
12.75,-1.5,14
12.75,-1.35,22
12.75,-1.2,33
12.75,-1.05,40
12.75,-0.9,43
12.75,-0.75,57
12.75,-0.6,52
12.75,-0.45,77
12.75,-0.3,177
12.75,-0.15,93
12.75,0.0,87
12.75,0.15,69
12.75,0.3,72
12.75,0.45,61
12.75,0.6,36
12.75,0.75,31
12.75,0.9,30
12.75,1.05,26
12.75,1.2,11
12.75,1.35,5
12.75,1.5,1
12.9,-1.5,0
12.9,-1.35,9
12.9,-1.2,35
12.9,-1.05,46
12.9,-0.9,48
12.9,-0.75,43
12.9,-0.6,51
12.9,-0.45,117
12.9,-0.3,60
12.9,-0.15,88
12.9,0.0,82
12.9,0.15,72
12.9,0.3,64
12.9,0.45,61
12.9,0.6,36
12.9,0.75,41
12.9,0.9,36
12.9,1.05,25
12.9,1.2,13
12.9,1.35,1
12.9,1.5,0
13.05,-1.5,0
13.05,-1.35,9
13.05,-1.2,29
13.05,-1.05,40
13.05,-0.9,42
13.05,-0.75,50
13.05,-0.6,35
13.05,-0.45,28
13.05,-0.3,61
13.05,-0.15,77
13.05,0.0,81
13.05,0.15,81
13.05,0.3,78
13.05,0.45,73
13.05,0.6,37
13.05,0.75,51
13.05,0.9,27
13.05,1.05,21
13.05,1.2,13
13.05,1.35,0
13.05,1.5,0
