-3.0,-1.5,0
-3.0,-1.35,0
-3.0,-1.2,2
-3.0,-1.05,8
-3.0,-0.9,14
-3.0,-0.75,20
-3.0,-0.6,26
-3.0,-0.45,30
-3.0,-0.3,33
-3.0,-0.15,35
-3.0,0.0,36
-3.0,0.15,35
-3.0,0.3,34
-3.0,0.45,31
-3.0,0.6,26
-3.0,0.75,21
-3.0,0.9,14
-3.0,1.05,8
-3.0,1.2,2
-3.0,1.35,0
-3.0,1.5,0
-2.85,-1.5,0
-2.85,-1.35,0
-2.85,-1.2,4
-2.85,-1.05,10
-2.85,-0.9,17
-2.85,-0.75,23
-2.85,-0.6,28
-2.85,-0.45,32
-2.85,-0.3,35
-2.85,-0.15,37
-2.85,0.0,38
-2.85,0.15,37
-2.85,0.3,36
-2.85,0.45,33
-2.85,0.6,28
-2.85,0.75,23
-2.85,0.9,16
-2.85,1.05,10
-2.85,1.2,4
-2.85,1.35,0
-2.85,1.5,0
-2.7,-1.5,3
-2.7,-1.35,4
-2.7,-1.2,8
-2.7,-1.05,14
-2.7,-0.9,21
-2.7,-0.75,26
-2.7,-0.6,31
-2.7,-0.45,35
-2.7,-0.3,38
-2.7,-0.15,40
-2.7,0.0,40
-2.7,0.15,40
-2.7,0.3,38
-2.7,0.45,35
-2.7,0.6,31
-2.7,0.75,26
-2.7,0.9,20
-2.7,1.05,14
-2.7,1.2,8
-2.7,1.35,4
-2.7,1.5,3
-2.55,-1.5,10
-2.55,-1.35,11
-2.55,-1.2,15
-2.55,-1.05,20
-2.55,-0.9,26
-2.55,-0.75,30
-2.55,-0.6,35
-2.55,-0.45,39
-2.55,-0.3,41
-2.55,-0.15,43
-2.55,0.0,43
-2.55,0.15,43
-2.55,0.3,41
-2.55,0.45,39
-2.55,0.6,35
-2.55,0.75,31
-2.55,0.9,25
-2.55,1.05,20
-2.55,1.2,15
-2.55,1.35,11
-2.55,1.5,10
-2.4,-1.5,18
-2.4,-1.35,20
-2.4,-1.2,23
-2.4,-1.05,27
-2.4,-0.9,32
-2.4,-0.75,37
-2.4,-0.6,39
-2.4,-0.45,42
-2.4,-0.3,44
-2.4,-0.15,46
-2.4,0.0,46
-2.4,0.15,46
-2.4,0.3,45
-2.4,0.45,43
-2.4,0.6,40
-2.4,0.75,36
-2.4,0.9,31
-2.4,1.05,27
-2.4,1.2,23
-2.4,1.35,19
-2.4,1.5,18
-2.25,-1.5,27
-2.25,-1.35,28
-2.25,-1.2,31
-2.25,-1.05,35
-2.25,-0.9,38
-2.25,-0.75,42
-2.25,-0.6,44
-2.25,-0.45,46
-2.25,-0.3,48
-2.25,-0.15,49
-2.25,0.0,49
-2.25,0.15,49
-2.25,0.3,48
-2.25,0.45,47
-2.25,0.6,44
-2.25,0.75,41
-2.25,0.9,38
-2.25,1.05,34
-2.25,1.2,31
-2.25,1.35,28
-2.25,1.5,26
-2.1,-1.5,35
-2.1,-1.35,36
-2.1,-1.2,39
-2.1,-1.05,41
-2.1,-0.9,44
-2.1,-0.75,47
-2.1,-0.6,48
-2.1,-0.45,50
-2.1,-0.3,51
-2.1,-0.15,52
-2.1,0.0,53
-2.1,0.15,52
-2.1,0.3,52
-2.1,0.45,50
-2.1,0.6,49
-2.1,0.75,46
-2.1,0.9,44
-2.1,1.05,41
-2.1,1.2,38
-2.1,1.35,36
-2.1,1.5,35
-1.95,-1.5,42
-1.95,-1.35,44
-1.95,-1.2,45
-1.95,-1.05,48
-1.95,-0.9,50
-1.95,-0.75,52
-1.95,-0.6,52
-1.95,-0.45,54
-1.95,-0.3,55
-1.95,-0.15,55
-1.95,0.0,56
-1.95,0.15,56
-1.95,0.3,55
-1.95,0.45,54
-1.95,0.6,53
-1.95,0.75,51
-1.95,0.9,49
-1.95,1.05,47
-1.95,1.2,45
-1.95,1.35,43
-1.95,1.5,42
-1.8,-1.5,48
-1.8,-1.35,49
-1.8,-1.2,51
-1.8,-1.05,53
-1.8,-0.9,54
-1.8,-0.75,56
-1.8,-0.6,58
-1.8,-0.45,57
-1.8,-0.3,58
-1.8,-0.15,58
-1.8,0.0,58
-1.8,0.15,58
-1.8,0.3,58
-1.8,0.45,57
-1.8,0.6,56
-1.8,0.75,55
-1.8,0.9,54
-1.8,1.05,52
-1.8,1.2,50
-1.8,1.35,49
-1.8,1.5,48
-1.65,-1.5,53
-1.65,-1.35,54
-1.65,-1.2,56
-1.65,-1.05,57
-1.65,-0.9,58
-1.65,-0.75,60
-1.65,-0.6,61
-1.65,-0.45,60
-1.65,-0.3,60
-1.65,-0.15,61
-1.65,0.0,61
-1.65,0.15,61
-1.65,0.3,60
-1.65,0.45,60
-1.65,0.6,59
-1.65,0.75,58
-1.65,0.9,57
-1.65,1.05,56
-1.65,1.2,55
-1.65,1.35,54
-1.65,1.5,55
-1.5,-1.5,59
-1.5,-1.35,60
-1.5,-1.2,59
-1.5,-1.05,60
-1.5,-0.9,61
-1.5,-0.75,62
-1.5,-0.6,63
-1.5,-0.45,62
-1.5,-0.3,62
-1.5,-0.15,63
-1.5,0.0,63
-1.5,0.15,63
-1.5,0.3,62
-1.5,0.45,62
-1.5,0.6,62
-1.5,0.75,61
-1.5,0.9,60
-1.5,1.05,59
-1.5,1.2,60
-1.5,1.35,59
-1.5,1.5,58
-1.35,-1.5,62
-1.35,-1.35,63
-1.35,-1.2,64
-1.35,-1.05,67
-1.35,-0.9,68
-1.35,-0.75,65
-1.35,-0.6,65
-1.35,-0.45,67
-1.35,-0.3,64
-1.35,-0.15,64
-1.35,0.0,64
-1.35,0.15,64
-1.35,0.3,64
-1.35,0.45,64
-1.35,0.6,63
-1.35,0.75,65
-1.35,0.9,64
-1.35,1.05,64
-1.35,1.2,63
-1.35,1.35,62
-1.35,1.5,61
-1.2,-1.5,64
-1.2,-1.35,65
-1.2,-1.2,66
-1.2,-1.05,69
-1.2,-0.9,69
-1.2,-0.75,70
-1.2,-0.6,70
-1.2,-0.45,70
-1.2,-0.3,65
-1.2,-0.15,65
-1.2,0.0,65
-1.2,0.15,65
-1.2,0.3,65
-1.2,0.45,66
-1.2,0.6,66
-1.2,0.75,65
-1.2,0.9,65
-1.2,1.05,65
-1.2,1.2,65
-1.2,1.35,64
-1.2,1.5,64
-1.05,-1.5,66
-1.05,-1.35,67
-1.05,-1.2,67
-1.05,-1.05,68
-1.05,-0.9,70
-1.05,-0.75,70
-1.05,-0.6,70
-1.05,-0.45,70
-1.05,-0.3,68
-1.05,-0.15,67
-1.05,0.0,66
-1.05,0.15,66
-1.05,0.3,65
-1.05,0.45,65
-1.05,0.6,66
-1.05,0.75,66
-1.05,0.9,66
-1.05,1.05,66
-1.05,1.2,66
-1.05,1.35,66
-1.05,1.5,65
-0.9,-1.5,67
-0.9,-1.35,68
-0.9,-1.2,69
-0.9,-1.05,69
-0.9,-0.9,71
-0.9,-0.75,71
-0.9,-0.6,71
-0.9,-0.45,70
-0.9,-0.3,69
-0.9,-0.15,68
-0.9,0.0,67
-0.9,0.15,66
-0.9,0.3,66
-0.9,0.45,64
-0.9,0.6,65
-0.9,0.75,66
-0.9,0.9,66
-0.9,1.05,67
-0.9,1.2,67
-0.9,1.35,67
-0.9,1.5,67
-0.75,-1.5,68
-0.75,-1.35,69
-0.75,-1.2,69
-0.75,-1.05,70
-0.75,-0.9,71
-0.75,-0.75,71
-0.75,-0.6,71
-0.75,-0.45,71
-0.75,-0.3,69
-0.75,-0.15,66
-0.75,0.0,65
-0.75,0.15,64
-0.75,0.3,63
-0.75,0.45,63
-0.75,0.6,64
-0.75,0.75,67
-0.75,0.9,66
-0.75,1.05,68
-0.75,1.2,68
-0.75,1.35,68
-0.75,1.5,68
-0.6,-1.5,69
-0.6,-1.35,69
-0.6,-1.2,71
-0.6,-1.05,71
-0.6,-0.9,71
-0.6,-0.75,71
-0.6,-0.6,71
-0.6,-0.45,70
-0.6,-0.3,67
-0.6,-0.15,64
-0.6,0.0,62
-0.6,0.15,61
-0.6,0.3,60
-0.6,0.45,59
-0.6,0.6,61
-0.6,0.75,65
-0.6,0.9,69
-0.6,1.05,71
-0.6,1.2,73
-0.6,1.35,69
-0.6,1.5,69
-0.45,-1.5,71
-0.45,-1.35,71
-0.45,-1.2,71
-0.45,-1.05,71
-0.45,-0.9,71
-0.45,-0.75,71
-0.45,-0.6,71
-0.45,-0.45,70
-0.45,-0.3,66
-0.45,-0.15,60
-0.45,0.0,57
-0.45,0.15,56
-0.45,0.3,57
-0.45,0.45,57
-0.45,0.6,57
-0.45,0.75,64
-0.45,0.9,69
-0.45,1.05,72
-0.45,1.2,73
-0.45,1.35,74
-0.45,1.5,74
-0.3,-1.5,71
-0.3,-1.35,71
-0.3,-1.2,71
-0.3,-1.05,71
-0.3,-0.9,71
-0.3,-0.75,71
-0.3,-0.6,71
-0.3,-0.45,70
-0.3,-0.3,67
-0.3,-0.15,57
-0.3,0.0,51
-0.3,0.15,50
-0.3,0.3,57
-0.3,0.45,57
-0.3,0.6,59
-0.3,0.75,67
-0.3,0.9,72
-0.3,1.05,74
-0.3,1.2,75
-0.3,1.35,75
-0.3,1.5,74
-0.15,-1.5,71
-0.15,-1.35,71
-0.15,-1.2,71
-0.15,-1.05,71
-0.15,-0.9,71
-0.15,-0.75,71
-0.15,-0.6,71
-0.15,-0.45,71
-0.15,-0.3,71
-0.15,-0.15,66
-0.15,0.0,62
-0.15,0.15,64
-0.15,0.3,70
-0.15,0.45,70
-0.15,0.6,71
-0.15,0.75,75
-0.15,0.9,76
-0.15,1.05,77
-0.15,1.2,76
-0.15,1.35,76
-0.15,1.5,75
0.0,-1.5,71
0.0,-1.35,71
0.0,-1.2,71
0.0,-1.05,71
0.0,-0.9,71
0.0,-0.75,70
0.0,-0.6,68
0.0,-0.45,66
0.0,-0.3,71
0.0,-0.15,85
0.0,0.0,100
0.0,0.15,111
0.0,0.3,107
0.0,0.45,97
0.0,0.6,89
0.0,0.75,85
0.0,0.9,82
0.0,1.05,79
0.0,1.2,78
0.0,1.35,76
0.0,1.5,75
0.15,-1.5,71
0.15,-1.35,71
0.15,-1.2,71
0.15,-1.05,71
0.15,-0.9,70
0.15,-0.75,68
0.15,-0.6,64
0.15,-0.45,55
0.15,-0.3,60
0.15,-0.15,91
0.15,0.0,160
0.15,0.15,210
0.15,0.3,167
0.15,0.45,127
0.15,0.6,105
0.15,0.75,93
0.15,0.9,86
0.15,1.05,81
0.15,1.2,78
0.15,1.35,75
0.15,1.5,74
0.3,-1.5,71
0.3,-1.35,71
0.3,-1.2,71
0.3,-1.05,70
0.3,-0.9,69
0.3,-0.75,68
0.3,-0.6,64
0.3,-0.45,58
0.3,-0.3,62
0.3,-0.15,60
0.3,0.0,200
0.3,0.15,255
0.3,0.3,205
0.3,0.45,143
0.3,0.6,112
0.3,0.75,96
0.3,0.9,86
0.3,1.05,80
0.3,1.2,76
0.3,1.35,74
0.3,1.5,76
0.45,-1.5,71
0.45,-1.35,70
0.45,-1.2,70
0.45,-1.05,69
0.45,-0.9,68
0.45,-0.75,67
0.45,-0.6,66
0.45,-0.45,66
0.45,-0.3,65
0.45,-0.15,68
0.45,0.0,137
0.45,0.15,203
0.45,0.3,171
0.45,0.45,132
0.45,0.6,107
0.45,0.75,91
0.45,0.9,81
0.45,1.05,75
0.45,1.2,72
0.45,1.35,76
0.45,1.5,76
0.6,-1.5,70
0.6,-1.35,69
0.6,-1.2,69
0.6,-1.05,68
0.6,-0.9,67
0.6,-0.75,66
0.6,-0.6,65
0.6,-0.45,64
0.6,-0.3,58
0.6,-0.15,58
0.6,0.0,93
0.6,0.15,122
0.6,0.3,123
0.6,0.45,108
0.6,0.6,92
0.6,0.75,79
0.6,0.9,71
0.6,1.05,67
0.6,1.2,73
0.6,1.35,74
0.6,1.5,72
0.75,-1.5,69
0.75,-1.35,65
0.75,-1.2,65
0.75,-1.05,64
0.75,-0.9,65
0.75,-0.75,63
0.75,-0.6,60
0.75,-0.45,58
0.75,-0.3,57
0.75,-0.15,59
0.75,0.0,75
0.75,0.15,89
0.75,0.3,91
0.75,0.45,84
0.75,0.6,72
0.75,0.75,60
0.75,0.9,52
0.75,1.05,59
0.75,1.2,62
0.75,1.35,66
0.75,1.5,69
0.9,-1.5,50
0.9,-1.35,50
0.9,-1.2,48
0.9,-1.05,62
0.9,-0.9,61
0.9,-0.75,60
0.9,-0.6,54
0.9,-0.45,51
0.9,-0.3,55
0.9,-0.15,61
0.9,0.0,68
0.9,0.15,71
0.9,0.3,73
0.9,0.45,65
0.9,0.6,49
0.9,0.75,38
0.9,0.9,36
0.9,1.05,44
0.9,1.2,53
0.9,1.35,60
0.9,1.5,66
1.05,-1.5,50
1.05,-1.35,50
1.05,-1.2,50
1.05,-1.05,48
1.05,-0.9,49
1.05,-0.75,49
1.05,-0.6,50
1.05,-0.45,50
1.05,-0.3,50
1.05,-0.15,58
1.05,0.0,65
1.05,0.15,63
1.05,0.3,60
1.05,0.45,52
1.05,0.6,36
1.05,0.75,10
1.05,0.9,13
1.05,1.05,31
1.05,1.2,46
1.05,1.35,57
1.05,1.5,63
1.2,-1.5,39
1.2,-1.35,43
1.2,-1.2,47
1.2,-1.05,47
1.2,-0.9,46
1.2,-0.75,47
1.2,-0.6,48
1.2,-0.45,50
1.2,-0.3,51
1.2,-0.15,55
1.2,0.0,60
1.2,0.15,54
1.2,0.3,49
1.2,0.45,46
1.2,0.6,33
1.2,0.75,2
1.2,0.9,7
1.2,1.05,29
1.2,1.2,44
1.2,1.35,54
1.2,1.5,61
1.35,-1.5,35
1.35,-1.35,35
1.35,-1.2,36
1.35,-1.05,43
1.35,-0.9,44
1.35,-0.75,43
1.35,-0.6,47
1.35,-0.45,48
1.35,-0.3,51
1.35,-0.15,61
1.35,0.0,85
1.35,0.15,56
1.35,0.3,50
1.35,0.45,49
1.35,0.6,39
1.35,0.75,24
1.35,0.9,22
1.35,1.05,39
1.35,1.2,50
1.35,1.35,57
1.35,1.5,61
1.5,-1.5,34
1.5,-1.35,34
1.5,-1.2,35
1.5,-1.05,35
1.5,-0.9,36
1.5,-0.75,43
1.5,-0.6,42
1.5,-0.45,47
1.5,-0.3,50
1.5,-0.15,54
1.5,0.0,72
1.5,0.15,56
1.5,0.3,51
1.5,0.45,52
1.5,0.6,51
1.5,0.75,45
1.5,0.9,42
1.5,1.05,45
1.5,1.2,48
1.5,1.35,49
1.5,1.5,51
1.65,-1.5,33
1.65,-1.35,33
1.65,-1.2,34
1.65,-1.05,34
1.65,-0.9,34
1.65,-0.75,34
1.65,-0.6,35
1.65,-0.45,37
1.65,-0.3,41
1.65,-0.15,48
1.65,0.0,32
1.65,0.15,40
1.65,0.3,50
1.65,0.45,61
1.65,0.6,66
1.65,0.75,66
1.65,0.9,63
1.65,1.05,59
1.65,1.2,57
1.65,1.35,56
1.65,1.5,55
1.8,-1.5,30
1.8,-1.35,30
1.8,-1.2,30
1.8,-1.05,30
1.8,-0.9,30
1.8,-0.75,30
1.8,-0.6,30
1.8,-0.45,31
1.8,-0.3,23
1.8,-0.15,15
1.8,0.0,19
1.8,0.15,36
1.8,0.3,54
1.8,0.45,83
1.8,0.6,101
1.8,0.75,93
1.8,0.9,80
1.8,1.05,72
1.8,1.2,66
1.8,1.35,61
1.8,1.5,58
1.95,-1.5,30
1.95,-1.35,30
1.95,-1.2,30
1.95,-1.05,30
1.95,-0.9,30
1.95,-0.75,30
1.95,-0.6,31
1.95,-0.45,46
1.95,-0.3,16
1.95,-0.15,8
1.95,0.0,20
1.95,0.15,38
1.95,0.3,69
1.95,0.45,142
1.95,0.6,168
1.95,0.75,128
1.95,0.9,98
1.95,1.05,78
1.95,1.2,71
1.95,1.35,73
1.95,1.5,70
2.1,-1.5,30
2.1,-1.35,30
2.1,-1.2,30
2.1,-1.05,30
2.1,-0.9,32
2.1,-0.75,31
2.1,-0.6,24
2.1,-0.45,22
2.1,-0.3,17
2.1,-0.15,22
2.1,0.0,25
2.1,0.15,41
2.1,0.3,76
2.1,0.45,163
2.1,0.6,191
2.1,0.75,137
2.1,0.9,98
2.1,1.05,87
2.1,1.2,78
2.1,1.35,72
2.1,1.5,70
2.25,-1.5,30
2.25,-1.35,30
2.25,-1.2,30
2.25,-1.05,32
2.25,-0.9,38
2.25,-0.75,48
2.25,-0.6,17
2.25,-0.45,1
2.25,-0.3,24
2.25,-0.15,39
2.25,0.0,34
2.25,0.15,40
2.25,0.3,55
2.25,0.45,96
2.25,0.6,120
2.25,0.75,103
2.25,0.9,93
2.25,1.05,80
2.25,1.2,77
2.25,1.35,72
2.25,1.5,70
2.4,-1.5,39
2.4,-1.35,40
2.4,-1.2,32
2.4,-1.05,33
2.4,-0.9,36
2.4,-0.75,38
2.4,-0.6,23
2.4,-0.45,21
2.4,-0.3,34
2.4,-0.15,47
2.4,0.0,40
2.4,0.15,19
2.4,0.3,44
2.4,0.45,60
2.4,0.6,77
2.4,0.75,81
2.4,0.9,79
2.4,1.05,77
2.4,1.2,75
2.4,1.35,73
2.4,1.5,71
2.55,-1.5,40
2.55,-1.35,39
2.55,-1.2,38
2.55,-1.05,37
2.55,-0.9,35
2.55,-0.75,25
2.55,-0.6,18
2.55,-0.45,25
2.55,-0.3,38
2.55,-0.15,47
2.55,0.0,43
2.55,0.15,39
2.55,0.3,44
2.55,0.45,52
2.55,0.6,60
2.55,0.75,68
2.55,0.9,70
2.55,1.05,72
2.55,1.2,72
2.55,1.35,72
2.55,1.5,72
2.7,-1.5,46
2.7,-1.35,45
2.7,-1.2,44
2.7,-1.05,44
2.7,-0.9,39
2.7,-0.75,29
2.7,-0.6,0
2.7,-0.45,20
2.7,-0.3,25
2.7,-0.15,49
2.7,0.0,49
2.7,0.15,39
2.7,0.3,48
2.7,0.45,51
2.7,0.6,56
2.7,0.75,59
2.7,0.9,62
2.7,1.05,66
2.7,1.2,68
2.7,1.35,69
2.7,1.5,69
2.85,-1.5,62
2.85,-1.35,48
2.85,-1.2,48
2.85,-1.05,47
2.85,-0.9,45
2.85,-0.75,39
2.85,-0.6,40
2.85,-0.45,48
2.85,-0.3,46
2.85,-0.15,47
2.85,0.0,49
2.85,0.15,48
2.85,0.3,55
2.85,0.45,57
2.85,0.6,50
2.85,0.75,49
2.85,0.9,59
2.85,1.05,63
2.85,1.2,71
2.85,1.35,73
2.85,1.5,74
3.0,-1.5,70
3.0,-1.35,70
3.0,-1.2,55
3.0,-1.05,54
3.0,-0.9,56
3.0,-0.75,58
3.0,-0.6,55
3.0,-0.45,53
3.0,-0.3,74
3.0,-0.15,92
3.0,0.0,75
3.0,0.15,53
3.0,0.3,63
3.0,0.45,91
3.0,0.6,42
3.0,0.75,47
3.0,0.9,69
3.0,1.05,72
3.0,1.2,76
3.0,1.35,86
3.0,1.5,85
3.15,-1.5,81
3.15,-1.35,92
3.15,-1.2,85
3.15,-1.05,86
3.15,-0.9,89
3.15,-0.75,96
3.15,-0.6,104
3.15,-0.45,64
3.15,-0.3,65
3.15,-0.15,62
3.15,0.0,42
3.15,0.15,60
3.15,0.3,85
3.15,0.45,196
3.15,0.6,68
3.15,0.75,60
3.15,0.9,69
3.15,1.05,70
3.15,1.2,71
3.15,1.35,71
3.15,1.5,81
3.3,-1.5,92
3.3,-1.35,93
3.3,-1.2,94
3.3,-1.05,94
3.3,-0.9,90
3.3,-0.75,97
3.3,-0.6,111
3.3,-0.45,58
3.3,-0.3,88
3.3,-0.15,88
3.3,0.0,99
3.3,0.15,55
3.3,0.3,105
3.3,0.45,128
3.3,0.6,103
3.3,0.75,87
3.3,0.9,84
3.3,1.05,93
3.3,1.2,94
3.3,1.35,77
3.3,1.5,78
3.45,-1.5,110
3.45,-1.35,113
3.45,-1.2,98
3.45,-1.05,99
3.45,-0.9,100
3.45,-0.75,88
3.45,-0.6,63
3.45,-0.45,60
3.45,-0.3,57
3.45,-0.15,64
3.45,0.0,78
3.45,0.15,99
3.45,0.3,170
3.45,0.45,134
3.45,0.6,108
3.45,0.75,96
3.45,0.9,94
3.45,1.05,94
3.45,1.2,79
3.45,1.35,80
3.45,1.5,80
3.6,-1.5,126
3.6,-1.35,107
3.6,-1.2,109
3.6,-1.05,123
3.6,-0.9,115
3.6,-0.75,126
3.6,-0.6,103
3.6,-0.45,66
3.6,-0.3,49
3.6,-0.15,55
3.6,0.0,84
3.6,0.15,101
3.6,0.3,203
3.6,0.45,105
3.6,0.6,81
3.6,0.75,81
3.6,0.9,78
3.6,1.05,82
3.6,1.2,77
3.6,1.35,79
3.6,1.5,80
3.75,-1.5,133
3.75,-1.35,134
3.75,-1.2,135
3.75,-1.05,137
3.75,-0.9,142
3.75,-0.75,180
3.75,-0.6,116
3.75,-0.45,61
3.75,-0.3,87
3.75,-0.15,41
3.75,0.0,64
3.75,0.15,71
3.75,0.3,131
3.75,0.45,27
3.75,0.6,26
3.75,0.75,71
3.75,0.9,82
3.75,1.05,82
3.75,1.2,64
3.75,1.35,63
3.75,1.5,63
3.9,-1.5,145
3.9,-1.35,135
3.9,-1.2,137
3.9,-1.05,143
3.9,-0.9,141
3.9,-0.75,152
3.9,-0.6,135
3.9,-0.45,8
3.9,-0.3,42
3.9,-0.15,54
3.9,0.0,17
3.9,0.15,68
3.9,0.3,173
3.9,0.45,69
3.9,0.6,58
3.9,0.75,56
3.9,0.9,52
3.9,1.05,52
3.9,1.2,63
3.9,1.35,64
3.9,1.5,64
4.05,-1.5,142
4.05,-1.35,145
4.05,-1.2,148
4.05,-1.05,151
4.05,-0.9,156
4.05,-0.75,161
4.05,-0.6,106
4.05,-0.45,76
4.05,-0.3,48
4.05,-0.15,69
4.05,0.0,114
4.05,0.15,92
4.05,0.3,27
4.05,0.45,92
4.05,0.6,56
4.05,0.75,57
4.05,0.9,63
4.05,1.05,63
4.05,1.2,52
4.05,1.35,52
4.05,1.5,52
4.2,-1.5,154
4.2,-1.35,167
4.2,-1.2,163
4.2,-1.05,168
4.2,-0.9,178
4.2,-0.75,215
4.2,-0.6,255
4.2,-0.45,119
4.2,-0.3,114
4.2,-0.15,137
4.2,0.0,76
4.2,0.15,94
4.2,0.3,60
4.2,0.45,56
4.2,0.6,67
4.2,0.75,61
4.2,0.9,58
4.2,1.05,55
4.2,1.2,53
4.2,1.35,52
4.2,1.5,52
4.35,-1.5,180
4.35,-1.35,157
4.35,-1.2,159
4.35,-1.05,163
4.35,-0.9,152
4.35,-0.75,176
4.35,-0.6,255
4.35,-0.45,153
4.35,-0.3,31
4.35,-0.15,31
4.35,0.0,255
4.35,0.15,60
4.35,0.3,63
4.35,0.45,80
4.35,0.6,78
4.35,0.75,61
4.35,0.9,57
4.35,1.05,56
4.35,1.2,55
4.35,1.35,51
4.35,1.5,51
4.5,-1.5,180
4.5,-1.35,175
4.5,-1.2,159
4.5,-1.05,157
4.5,-0.9,154
4.5,-0.75,145
4.5,-0.6,93
4.5,-0.45,55
4.5,-0.3,60
4.5,-0.15,48
4.5,0.0,180
4.5,0.15,49
4.5,0.3,47
4.5,0.45,131
4.5,0.6,50
4.5,0.75,44
4.5,0.9,44
4.5,1.05,44
4.5,1.2,51
4.5,1.35,47
4.5,1.5,51
4.65,-1.5,148
4.65,-1.35,153
4.65,-1.2,154
4.65,-1.05,167
4.65,-0.9,129
4.65,-0.75,118
4.65,-0.6,86
4.65,-0.45,210
4.65,-0.3,50
4.65,-0.15,44
4.65,0.0,53
4.65,0.15,44
4.65,0.3,12
4.65,0.45,7
4.65,0.6,20
4.65,0.75,49
4.65,0.9,46
4.65,1.05,49
4.65,1.2,47
4.65,1.35,50
4.65,1.5,51
4.8,-1.5,134
4.8,-1.35,137
4.8,-1.2,120
4.8,-1.05,129
4.8,-0.9,146
4.8,-0.75,178
4.8,-0.6,126
4.8,-0.45,84
4.8,-0.3,28
4.8,-0.15,43
4.8,0.0,43
4.8,0.15,56
4.8,0.3,115
4.8,0.45,65
4.8,0.6,45
4.8,0.75,48
4.8,0.9,52
4.8,1.05,54
4.8,1.2,56
4.8,1.35,54
4.8,1.5,54
4.95,-1.5,133
4.95,-1.35,137
4.95,-1.2,126
4.95,-1.05,139
4.95,-0.9,149
4.95,-0.75,138
4.95,-0.6,63
4.95,-0.45,45
4.95,-0.3,28
4.95,-0.15,79
4.95,0.0,83
4.95,0.15,83
4.95,0.3,74
4.95,0.45,180
4.95,0.6,37
4.95,0.75,51
4.95,0.9,58
4.95,1.05,57
4.95,1.2,57
4.95,1.35,58
4.95,1.5,54
5.1,-1.5,131
5.1,-1.35,134
5.1,-1.2,141
5.1,-1.05,164
5.1,-0.9,236
5.1,-0.75,168
5.1,-0.6,33
5.1,-0.45,5
5.1,-0.3,21
5.1,-0.15,79
5.1,0.0,12
5.1,0.15,10
5.1,0.3,67
5.1,0.45,100
5.1,0.6,94
5.1,0.75,66
5.1,0.9,64
5.1,1.05,75
5.1,1.2,79
5.1,1.35,82
5.1,1.5,75
5.25,-1.5,127
5.25,-1.35,128
5.25,-1.2,128
5.25,-1.05,128
5.25,-0.9,110
5.25,-0.75,118
5.25,-0.6,59
5.25,-0.45,3
5.25,-0.3,53
5.25,-0.15,57
5.25,0.0,30
5.25,0.15,101
5.25,0.3,136
5.25,0.45,130
5.25,0.6,64
5.25,0.75,53
5.25,0.9,57
5.25,1.05,79
5.25,1.2,87
5.25,1.35,91
5.25,1.5,94
5.4,-1.5,113
5.4,-1.35,111
5.4,-1.2,106
5.4,-1.05,86
5.4,-0.9,34
5.4,-0.75,179
5.4,-0.6,150
5.4,-0.45,54
5.4,-0.3,130
5.4,-0.15,14
5.4,0.0,44
5.4,0.15,186
5.4,0.3,45
5.4,0.45,10
5.4,0.6,92
5.4,0.75,41
5.4,0.9,62
5.4,1.05,86
5.4,1.2,90
5.4,1.35,93
5.4,1.5,95
5.55,-1.5,108
5.55,-1.35,105
5.55,-1.2,98
5.55,-1.05,77
5.55,-0.9,60
5.55,-0.75,104
5.55,-0.6,92
5.55,-0.45,42
5.55,-0.3,137
5.55,-0.15,133
5.55,0.0,64
5.55,0.15,58
5.55,0.3,43
5.55,0.45,5
5.55,0.6,82
5.55,0.75,102
5.55,0.9,99
5.55,1.05,108
5.55,1.2,108
5.55,1.35,108
5.55,1.5,108
5.7,-1.5,89
5.7,-1.35,86
5.7,-1.2,92
5.7,-1.05,73
5.7,-0.9,76
5.7,-0.75,72
5.7,-0.6,24
5.7,-0.45,40
5.7,-0.3,14
5.7,-0.15,70
5.7,0.0,41
5.7,0.15,144
5.7,0.3,31
5.7,0.45,6
5.7,0.6,245
5.7,0.75,123
5.7,0.9,108
5.7,1.05,99
5.7,1.2,99
5.7,1.35,106
5.7,1.5,106
5.85,-1.5,56
5.85,-1.35,42
5.85,-1.2,43
5.85,-1.05,44
5.85,-0.9,54
5.85,-0.75,63
5.85,-0.6,72
5.85,-0.45,9
5.85,-0.3,50
5.85,-0.15,15
5.85,0.0,32
5.85,0.15,66
5.85,0.3,30
5.85,0.45,33
5.85,0.6,132
5.85,0.75,116
5.85,0.9,123
5.85,1.05,123
5.85,1.2,123
5.85,1.35,123
5.85,1.5,123
6.0,-1.5,58
6.0,-1.35,55
6.0,-1.2,55
6.0,-1.05,62
6.0,-0.9,52
6.0,-0.75,69
6.0,-0.6,18
6.0,-0.45,87
6.0,-0.3,38
6.0,-0.15,23
6.0,0.0,113
6.0,0.15,52
6.0,0.3,48
6.0,0.45,50
6.0,0.6,108
6.0,0.75,103
6.0,0.9,93
6.0,1.05,92
6.0,1.2,114
6.0,1.35,116
6.0,1.5,120
6.15,-1.5,61
6.15,-1.35,61
6.15,-1.2,61
6.15,-1.05,69
6.15,-0.9,61
6.15,-0.75,50
6.15,-0.6,50
6.15,-0.45,11
6.15,-0.3,8
6.15,-0.15,42
6.15,0.0,75
6.15,0.15,52
6.15,0.3,38
6.15,0.45,48
6.15,0.6,122
6.15,0.75,76
6.15,0.9,58
6.15,1.05,75
6.15,1.2,99
6.15,1.35,103
6.15,1.5,106
6.3,-1.5,104
6.3,-1.35,102
6.3,-1.2,89
6.3,-1.05,93
6.3,-0.9,103
6.3,-0.75,125
6.3,-0.6,72
6.3,-0.45,1
6.3,-0.3,32
6.3,-0.15,35
6.3,0.0,68
6.3,0.15,18
6.3,0.3,32
6.3,0.45,48
6.3,0.6,22
6.3,0.75,62
6.3,0.9,58
6.3,1.05,72
6.3,1.2,78
6.3,1.35,83
6.3,1.5,85
6.45,-1.5,92
6.45,-1.35,92
6.45,-1.2,92
6.45,-1.05,91
6.45,-0.9,98
6.45,-0.75,118
6.45,-0.6,174
6.45,-0.45,7
6.45,-0.3,26
6.45,-0.15,54
6.45,0.0,37
6.45,0.15,57
6.45,0.3,41
6.45,0.45,42
6.45,0.6,80
6.45,0.75,60
6.45,0.9,58
6.45,1.05,58
6.45,1.2,59
6.45,1.35,68
6.45,1.5,69
6.6,-1.5,93
6.6,-1.35,93
6.6,-1.2,93
6.6,-1.05,92
6.6,-0.9,75
6.6,-0.75,74
6.6,-0.6,80
6.6,-0.45,53
6.6,-0.3,29
6.6,-0.15,63
6.6,0.0,110
6.6,0.15,138
6.6,0.3,54
6.6,0.45,67
6.6,0.6,7
6.6,0.75,42
6.6,0.9,57
6.6,1.05,59
6.6,1.2,60
6.6,1.35,61
6.6,1.5,59
6.75,-1.5,102
6.75,-1.35,108
6.75,-1.2,108
6.75,-1.05,110
6.75,-0.9,87
6.75,-0.75,151
6.75,-0.6,74
6.75,-0.45,29
6.75,-0.3,65
6.75,-0.15,108
6.75,0.0,57
6.75,0.15,43
6.75,0.3,13
6.75,0.45,43
6.75,0.6,42
6.75,0.75,40
6.75,0.9,39
6.75,1.05,56
6.75,1.2,58
6.75,1.35,59
6.75,1.5,60
6.9,-1.5,108
6.9,-1.35,108
6.9,-1.2,106
6.9,-1.05,106
6.9,-0.9,110
6.9,-0.75,131
6.9,-0.6,140
6.9,-0.45,81
6.9,-0.3,42
6.9,-0.15,98
6.9,0.0,65
6.9,0.15,44
6.9,0.3,28
6.9,0.45,24
6.9,0.6,16
6.9,0.75,32
6.9,0.9,39
6.9,1.05,38
6.9,1.2,59
6.9,1.35,58
6.9,1.5,59
7.05,-1.5,106
7.05,-1.35,106
7.05,-1.2,106
7.05,-1.05,115
7.05,-0.9,116
7.05,-0.75,108
7.05,-0.6,140
7.05,-0.45,59
7.05,-0.3,24
7.05,-0.15,110
7.05,0.0,71
7.05,0.15,49
7.05,0.3,48
7.05,0.45,29
7.05,0.6,16
7.05,0.75,30
7.05,0.9,36
7.05,1.05,47
7.05,1.2,46
7.05,1.35,47
7.05,1.5,59
7.2,-1.5,107
7.2,-1.35,107
7.2,-1.2,107
7.2,-1.05,106
7.2,-0.9,112
7.2,-0.75,94
7.2,-0.6,80
7.2,-0.45,102
7.2,-0.3,9
7.2,-0.15,24
7.2,0.0,86
7.2,0.15,48
7.2,0.3,53
7.2,0.45,51
7.2,0.6,46
7.2,0.75,45
7.2,0.9,43
7.2,1.05,46
7.2,1.2,50
7.2,1.35,51
7.2,1.5,48
7.35,-1.5,92
7.35,-1.35,92
7.35,-1.2,107
7.35,-1.05,96
7.35,-0.9,92
7.35,-0.75,80
7.35,-0.6,79
7.35,-0.45,55
7.35,-0.3,39
7.35,-0.15,64
7.35,0.0,82
7.35,0.15,86
7.35,0.3,69
7.35,0.45,88
7.35,0.6,64
7.35,0.75,54
7.35,0.9,49
7.35,1.05,65
7.35,1.2,66
7.35,1.35,49
7.35,1.5,63
7.5,-1.5,94
7.5,-1.35,94
7.5,-1.2,92
7.5,-1.05,74
7.5,-0.9,74
7.5,-0.75,70
7.5,-0.6,52
7.5,-0.45,53
7.5,-0.3,167
7.5,-0.15,30
7.5,0.0,57
7.5,0.15,61
7.5,0.3,68
7.5,0.45,89
7.5,0.6,82
7.5,0.75,75
7.5,0.9,72
7.5,1.05,71
7.5,1.2,69
7.5,1.35,72
7.5,1.5,71
7.65,-1.5,75
7.65,-1.35,74
7.65,-1.2,72
7.65,-1.05,67
7.65,-0.9,63
7.65,-0.75,62
7.65,-0.6,67
7.65,-0.45,50
7.65,-0.3,73
7.65,-0.15,60
7.65,0.0,26
7.65,0.15,43
7.65,0.3,88
7.65,0.45,91
7.65,0.6,91
7.65,0.75,84
7.65,0.9,80
7.65,1.05,77
7.65,1.2,77
7.65,1.35,72
7.65,1.5,71
7.8,-1.5,74
7.8,-1.35,74
7.8,-1.2,71
7.8,-1.05,69
7.8,-0.9,58
7.8,-0.75,49
7.8,-0.6,49
7.8,-0.45,49
7.8,-0.3,58
7.8,-0.15,67
7.8,0.0,66
7.8,0.15,89
7.8,0.3,133
7.8,0.45,122
7.8,0.6,116
7.8,0.75,102
7.8,0.9,82
7.8,1.05,77
7.8,1.2,76
7.8,1.35,74
7.8,1.5,75
7.95,-1.5,84
7.95,-1.35,86
7.95,-1.2,86
7.95,-1.05,89
7.95,-0.9,75
7.95,-0.75,1
7.95,-0.6,51
7.95,-0.45,73
7.95,-0.3,62
7.95,-0.15,60
7.95,0.0,167
7.95,0.15,136
7.95,0.3,255
7.95,0.45,103
7.95,0.6,118
7.95,0.75,100
7.95,0.9,93
7.95,1.05,85
7.95,1.2,85
7.95,1.35,83
7.95,1.5,74
8.1,-1.5,90
8.1,-1.35,94
8.1,-1.2,101
8.1,-1.05,118
8.1,-0.9,171
8.1,-0.75,113
8.1,-0.6,65
8.1,-0.45,82
8.1,-0.3,64
8.1,-0.15,59
8.1,0.0,79
8.1,0.15,108
8.1,0.3,145
8.1,0.45,123
8.1,0.6,103
8.1,0.75,89
8.1,0.9,86
8.1,1.05,83
8.1,1.2,80
8.1,1.35,79
8.1,1.5,81
8.25,-1.5,92
8.25,-1.35,97
8.25,-1.2,102
8.25,-1.05,119
8.25,-0.9,149
8.25,-0.75,122
8.25,-0.6,72
8.25,-0.45,22
8.25,-0.3,44
8.25,-0.15,16
8.25,0.0,39
8.25,0.15,77
8.25,0.3,58
8.25,0.45,68
8.25,0.6,67
8.25,0.75,67
8.25,0.9,70
8.25,1.05,72
8.25,1.2,78
8.25,1.35,87
8.25,1.5,89
8.4,-1.5,96
8.4,-1.35,97
8.4,-1.2,102
8.4,-1.05,108
8.4,-0.9,111
8.4,-0.75,103
8.4,-0.6,105
8.4,-0.45,98
8.4,-0.3,58
8.4,-0.15,47
8.4,0.0,51
8.4,0.15,62
8.4,0.3,53
8.4,0.45,47
8.4,0.6,31
8.4,0.75,52
8.4,0.9,72
8.4,1.05,80
8.4,1.2,87
8.4,1.35,94
8.4,1.5,87
8.55,-1.5,92
8.55,-1.35,94
8.55,-1.2,97
8.55,-1.05,99
8.55,-0.9,92
8.55,-0.75,97
8.55,-0.6,130
8.55,-0.45,161
8.55,-0.3,93
8.55,-0.15,60
8.55,0.0,84
8.55,0.15,68
8.55,0.3,58
8.55,0.45,32
8.55,0.6,6
8.55,0.75,45
8.55,0.9,70
8.55,1.05,85
8.55,1.2,96
8.55,1.35,102
8.55,1.5,106
8.7,-1.5,90
8.7,-1.35,91
8.7,-1.2,89
8.7,-1.05,89
8.7,-0.9,89
8.7,-0.75,108
8.7,-0.6,107
8.7,-0.45,101
8.7,-0.3,60
8.7,-0.15,163
8.7,0.0,133
8.7,0.15,98
8.7,0.3,76
8.7,0.45,54
8.7,0.6,45
8.7,0.75,56
8.7,0.9,71
8.7,1.05,89
8.7,1.2,97
8.7,1.35,102
8.7,1.5,107
8.85,-1.5,78
8.85,-1.35,89
8.85,-1.2,99
8.85,-1.05,99
8.85,-0.9,101
8.85,-0.75,99
8.85,-0.6,92
8.85,-0.45,97
8.85,-0.3,120
8.85,-0.15,206
8.85,0.0,159
8.85,0.15,116
8.85,0.3,84
8.85,0.45,83
8.85,0.6,74
8.85,0.75,77
8.85,0.9,84
8.85,1.05,91
8.85,1.2,96
8.85,1.35,99
8.85,1.5,107
9.0,-1.5,98
9.0,-1.35,98
9.0,-1.2,98
9.0,-1.05,99
9.0,-0.9,96
9.0,-0.75,89
9.0,-0.6,70
9.0,-0.45,68
9.0,-0.3,112
9.0,-0.15,151
9.0,0.0,142
9.0,0.15,118
9.0,0.3,101
9.0,0.45,91
9.0,0.6,99
9.0,0.75,98
9.0,0.9,102
9.0,1.05,105
9.0,1.2,106
9.0,1.35,107
9.0,1.5,107
9.15,-1.5,98
9.15,-1.35,98
9.15,-1.2,100
9.15,-1.05,97
9.15,-0.9,93
9.15,-0.75,84
9.15,-0.6,65
9.15,-0.45,61
9.15,-0.3,95
9.15,-0.15,119
9.15,0.0,129
9.15,0.15,123
9.15,0.3,108
9.15,0.45,107
9.15,0.6,111
9.15,0.75,124
9.15,0.9,125
9.15,1.05,122
9.15,1.2,119
9.15,1.35,116
9.15,1.5,113
9.3,-1.5,98
9.3,-1.35,100
9.3,-1.2,99
9.3,-1.05,97
9.3,-0.9,93
9.3,-0.75,88
9.3,-0.6,78
9.3,-0.45,80
9.3,-0.3,100
9.3,-0.15,114
9.3,0.0,120
9.3,0.15,121
9.3,0.3,124
9.3,0.45,126
9.3,0.6,143
9.3,0.75,154
9.3,0.9,156
9.3,1.05,145
9.3,1.2,133
9.3,1.35,125
9.3,1.5,120
9.45,-1.5,100
9.45,-1.35,100
9.45,-1.2,99
9.45,-1.05,97
9.45,-0.9,95
9.45,-0.75,93
9.45,-0.6,86
9.45,-0.45,96
9.45,-0.3,104
9.45,-0.15,112
9.45,0.0,118
9.45,0.15,123
9.45,0.3,133
9.45,0.45,153
9.45,0.6,179
9.45,0.75,195
9.45,0.9,181
9.45,1.05,163
9.45,1.2,147
9.45,1.35,136
9.45,1.5,126
9.6,-1.5,100
9.6,-1.35,100
9.6,-1.2,99
9.6,-1.05,98
9.6,-0.9,99
9.6,-0.75,89
9.6,-0.6,99
9.6,-0.45,104
9.6,-0.3,109
9.6,-0.15,112
9.6,0.0,118
9.6,0.15,126
9.6,0.3,140
9.6,0.45,160
9.6,0.6,193
9.6,0.75,208
9.6,0.9,192
9.6,1.05,167
9.6,1.2,153
9.6,1.35,141
9.6,1.5,132
9.75,-1.5,122
9.75,-1.35,124
9.75,-1.2,122
9.75,-1.05,120
9.75,-0.9,107
9.75,-0.75,117
9.75,-0.6,117
9.75,-0.45,119
9.75,-0.3,110
9.75,-0.15,112
9.75,0.0,118
9.75,0.15,126
9.75,0.3,133
9.75,0.45,155
9.75,0.6,180
9.75,0.75,190
9.75,0.9,181
9.75,1.05,163
9.75,1.2,146
9.75,1.35,131
9.75,1.5,134
9.9,-1.5,128
9.9,-1.35,127
9.9,-1.2,125
9.9,-1.05,124
9.9,-0.9,123
9.9,-0.75,122
9.9,-0.6,122
9.9,-0.45,123
9.9,-0.3,125
9.9,-0.15,128
9.9,0.0,129
9.9,0.15,129
9.9,0.3,139
9.9,0.45,143
9.9,0.6,158
9.9,0.75,166
9.9,0.9,162
9.9,1.05,152
9.9,1.2,141
9.9,1.35,131
9.9,1.5,121
10.05,-1.5,131
10.05,-1.35,131
10.05,-1.2,130
10.05,-1.05,129
10.05,-0.9,128
10.05,-0.75,128
10.05,-0.6,127
10.05,-0.45,127
10.05,-0.3,127
10.05,-0.15,129
10.05,0.0,129
10.05,0.15,127
10.05,0.3,134
10.05,0.45,143
10.05,0.6,149
10.05,0.75,154
10.05,0.9,153
10.05,1.05,149
10.05,1.2,143
10.05,1.35,137
10.05,1.5,131
10.2,-1.5,136
10.2,-1.35,136
10.2,-1.2,144
10.2,-1.05,135
10.2,-0.9,135
10.2,-0.75,134
10.2,-0.6,132
10.2,-0.45,129
10.2,-0.3,127
10.2,-0.15,127
10.2,0.0,129
10.2,0.15,124
10.2,0.3,129
10.2,0.45,136
10.2,0.6,141
10.2,0.75,142
10.2,0.9,143
10.2,1.05,141
10.2,1.2,138
10.2,1.35,134
10.2,1.5,130
10.35,-1.5,149
10.35,-1.35,150
10.35,-1.2,150
10.35,-1.05,143
10.35,-0.9,143
10.35,-0.75,140
10.35,-0.6,136
10.35,-0.45,130
10.35,-0.3,124
10.35,-0.15,120
10.35,0.0,120
10.35,0.15,119
10.35,0.3,124
10.35,0.45,129
10.35,0.6,134
10.35,0.75,135
10.35,0.9,136
10.35,1.05,135
10.35,1.2,134
10.35,1.35,131
10.35,1.5,129
10.5,-1.5,155
10.5,-1.35,156
10.5,-1.2,151
10.5,-1.05,153
10.5,-0.9,153
10.5,-0.75,150
10.5,-0.6,142
10.5,-0.45,129
10.5,-0.3,114
10.5,-0.15,107
10.5,0.0,107
10.5,0.15,111
10.5,0.3,118
10.5,0.45,125
10.5,0.6,129
10.5,0.75,130
10.5,0.9,132
10.5,1.05,132
10.5,1.2,131
10.5,1.35,127
10.5,1.5,124
10.65,-1.5,154
10.65,-1.35,154
10.65,-1.2,159
10.65,-1.05,163
10.65,-0.9,166
10.65,-0.75,165
10.65,-0.6,153
10.65,-0.45,128
10.65,-0.3,97
10.65,-0.15,83
10.65,0.0,89
10.65,0.15,101
10.65,0.3,113
10.65,0.45,121
10.65,0.6,127
10.65,0.75,130
10.65,0.9,127
10.65,1.05,127
10.65,1.2,126
10.65,1.35,124
10.65,1.5,122
10.8,-1.5,154
10.8,-1.35,161
10.8,-1.2,169
10.8,-1.05,177
10.8,-0.9,185
10.8,-0.75,188
10.8,-0.6,178
10.8,-0.45,139
10.8,-0.3,80
10.8,-0.15,56
10.8,0.0,73
10.8,0.15,95
10.8,0.3,111
10.8,0.45,120
10.8,0.6,124
10.8,0.75,126
10.8,0.9,125
10.8,1.05,124
10.8,1.2,123
10.8,1.35,121
10.8,1.5,119
10.95,-1.5,158
10.95,-1.35,167
10.95,-1.2,178
10.95,-1.05,192
10.95,-0.9,207
10.95,-0.75,223
10.95,-0.6,229
10.95,-0.45,195
10.95,-0.3,103
10.95,-0.15,60
10.95,0.0,79
10.95,0.15,100
10.95,0.3,114
10.95,0.45,121
10.95,0.6,124
10.95,0.75,126
10.95,0.9,123
10.95,1.05,122
10.95,1.2,121
10.95,1.35,119
10.95,1.5,117
11.1,-1.5,161
11.1,-1.35,172
11.1,-1.2,186
11.1,-1.05,203
11.1,-0.9,226
11.1,-0.75,255
11.1,-0.6,255
11.1,-0.45,255
11.1,-0.3,203
11.1,-0.15,126
11.1,0.0,114
11.1,0.15,117
11.1,0.3,122
11.1,0.45,126
11.1,0.6,126
11.1,0.75,126
11.1,0.9,125
11.1,1.05,121
11.1,1.2,119
11.1,1.35,116
11.1,1.5,114
11.25,-1.5,161
11.25,-1.35,173
11.25,-1.2,189
11.25,-1.05,208
11.25,-0.9,234
11.25,-0.75,255
11.25,-0.6,255
11.25,-0.45,255
11.25,-0.3,254
11.25,-0.15,186
11.25,0.0,151
11.25,0.15,137
11.25,0.3,132
11.25,0.45,128
11.25,0.6,125
11.25,0.75,123
11.25,0.9,120
11.25,1.05,119
11.25,1.2,116
11.25,1.35,113
11.25,1.5,110
11.4,-1.5,158
11.4,-1.35,171
11.4,-1.2,186
11.4,-1.05,204
11.4,-0.9,228
11.4,-0.75,254
11.4,-0.6,255
11.4,-0.45,255
11.4,-0.3,246
11.4,-0.15,203
11.4,0.0,172
11.4,0.15,150
11.4,0.3,140
11.4,0.45,132
11.4,0.6,126
11.4,0.75,122
11.4,0.9,118
11.4,1.05,114
11.4,1.2,110
11.4,1.35,109
11.4,1.5,106
11.55,-1.5,150
11.55,-1.35,162
11.55,-1.2,177
11.55,-1.05,194
11.55,-0.9,213
11.55,-0.75,232
11.55,-0.6,244
11.55,-0.45,243
11.55,-0.3,225
11.55,-0.15,199
11.55,0.0,176
11.55,0.15,155
11.55,0.3,143
11.55,0.45,133
11.55,0.6,126
11.55,0.75,120
11.55,0.9,114
11.55,1.05,109
11.55,1.2,105
11.55,1.35,101
11.55,1.5,98
11.7,-1.5,140
11.7,-1.35,151
11.7,-1.2,164
11.7,-1.05,179
11.7,-0.9,194
11.7,-0.75,207
11.7,-0.6,215
11.7,-0.45,214
11.7,-0.3,204
11.7,-0.15,188
11.7,0.0,172
11.7,0.15,154
11.7,0.3,142
11.7,0.45,131
11.7,0.6,123
11.7,0.75,116
11.7,0.9,109
11.7,1.05,104
11.7,1.2,98
11.7,1.35,94
11.7,1.5,90
11.85,-1.5,126
11.85,-1.35,136
11.85,-1.2,148
11.85,-1.05,161
11.85,-0.9,173
11.85,-0.75,184
11.85,-0.6,190
11.85,-0.45,190
11.85,-0.3,184
11.85,-0.15,175
11.85,0.0,163
11.85,0.15,147
11.85,0.3,137
11.85,0.45,126
11.85,0.6,118
11.85,0.75,110
11.85,0.9,102
11.85,1.05,96
11.85,1.2,90
11.85,1.35,85
11.85,1.5,81
12.0,-1.5,109
12.0,-1.35,118
12.0,-1.2,128
12.0,-1.05,140
12.0,-0.9,152
12.0,-0.75,161
12.0,-0.6,167
12.0,-0.45,169
12.0,-0.3,166
12.0,-0.15,160
12.0,0.0,153
12.0,0.15,139
12.0,0.3,130
12.0,0.45,121
12.0,0.6,110
12.0,0.75,102
12.0,0.9,94
12.0,1.05,86
12.0,1.2,79
12.0,1.35,74
12.0,1.5,70
12.15,-1.5,89
12.15,-1.35,96
12.15,-1.2,106
12.15,-1.05,118
12.15,-0.9,129
12.15,-0.75,139
12.15,-0.6,146
12.15,-0.45,150
12.15,-0.3,149
12.15,-0.15,146
12.15,0.0,141
12.15,0.15,129
12.15,0.3,121
12.15,0.45,112
12.15,0.6,102
12.15,0.75,92
12.15,0.9,83
12.15,1.05,74
12.15,1.2,66
12.15,1.35,60
12.15,1.5,57
12.3,-1.5,66
12.3,-1.35,72
12.3,-1.2,82
12.3,-1.05,95
12.3,-0.9,107
12.3,-0.75,119
12.3,-0.6,127
12.3,-0.45,132
12.3,-0.3,134
12.3,-0.15,133
12.3,0.0,129
12.3,0.15,118
12.3,0.3,111
12.3,0.45,103
12.3,0.6,92
12.3,0.75,81
12.3,0.9,71
12.3,1.05,61
12.3,1.2,52
12.3,1.35,46
12.3,1.5,42
12.45,-1.5,43
12.45,-1.35,48
12.45,-1.2,59
12.45,-1.05,72
12.45,-0.9,87
12.45,-0.75,100
12.45,-0.6,110
12.45,-0.45,117
12.45,-0.3,120
12.45,-0.15,121
12.45,0.0,118
12.45,0.15,108
12.45,0.3,101
12.45,0.45,93
12.45,0.6,82
12.45,0.75,70
12.45,0.9,59
12.45,1.05,47
12.45,1.2,38
12.45,1.35,31
12.45,1.5,27
12.6,-1.5,22
12.6,-1.35,27
12.6,-1.2,38
12.6,-1.05,52
12.6,-0.9,68
12.6,-0.75,83
12.6,-0.6,95
12.6,-0.45,103
12.6,-0.3,108
12.6,-0.15,110
12.6,0.0,108
12.6,0.15,99
12.6,0.3,92
12.6,0.45,84
12.6,0.6,72
12.6,0.75,60
12.6,0.9,47
12.6,1.05,35
12.6,1.2,24
12.6,1.35,17
12.6,1.5,14
12.75,-1.5,7
12.75,-1.35,11
12.75,-1.2,21
12.75,-1.05,37
12.75,-0.9,53
12.75,-0.75,69
12.75,-0.6,82
12.75,-0.45,92
12.75,-0.3,98
12.75,-0.15,100
12.75,0.0,94
12.75,0.15,90
12.75,0.3,84
12.75,0.45,76
12.75,0.6,64
12.75,0.75,52
12.75,0.9,38
12.75,1.05,25
12.75,1.2,14
12.75,1.35,6
12.75,1.5,4
12.9,-1.5,0
12.9,-1.35,2
12.9,-1.2,12
12.9,-1.05,27
12.9,-0.9,44
12.9,-0.75,59
12.9,-0.6,73
12.9,-0.45,83
12.9,-0.3,89
12.9,-0.15,92
12.9,0.0,86
12.9,0.15,83
12.9,0.3,78
12.9,0.45,69
12.9,0.6,58
12.9,0.75,45
12.9,0.9,32
12.9,1.05,19
12.9,1.2,8
12.9,1.35,1
12.9,1.5,0
13.05,-1.5,0
13.05,-1.35,1
13.05,-1.2,10
13.05,-1.05,23
13.05,-0.9,39
13.05,-0.75,54
13.05,-0.6,66
13.05,-0.45,76
13.05,-0.3,83
13.05,-0.15,86
13.05,0.0,80
13.05,0.15,78
13.05,0.3,72
13.05,0.45,65
13.05,0.6,54
13.05,0.75,42
13.05,0.9,29
13.05,1.05,17
13.05,1.2,6
13.05,1.35,0
13.05,1.5,0
