-3.0,-1.5,0
-3.0,-1.35,14
-3.0,-1.2,55
-3.0,-1.05,91
-3.0,-0.9,115
-3.0,-0.75,129
-3.0,-0.6,143
-3.0,-0.45,157
-3.0,-0.3,151
-3.0,-0.15,129
-3.0,0.0,111
-3.0,0.15,95
-3.0,0.3,75
-3.0,0.45,45
-3.0,0.6,7
-3.0,0.75,7
-3.0,0.9,35
-3.0,1.05,46
-3.0,1.2,33
-3.0,1.35,8
-3.0,1.5,0
-2.85,-1.5,11
-2.85,-1.35,30
-2.85,-1.2,66
-2.85,-1.05,99
-2.85,-0.9,123
-2.85,-0.75,135
-2.85,-0.6,153
-2.85,-0.45,209
-2.85,-0.3,193
-2.85,-0.15,131
-2.85,0.0,106
-2.85,0.15,94
-2.85,0.3,81
-2.85,0.45,55
-2.85,0.6,22
-2.85,0.75,22
-2.85,0.9,48
-2.85,1.05,50
-2.85,1.2,39
-2.85,1.35,19
-2.85,1.5,8
-2.7,-1.5,39
-2.7,-1.35,54
-2.7,-1.2,79
-2.7,-1.05,103
-2.7,-0.9,123
-2.7,-0.75,135
-2.7,-0.6,152
-2.7,-0.45,247
-2.7,-0.3,210
-2.7,-0.15,96
-2.7,0.0,90
-2.7,0.15,88
-2.7,0.3,83
-2.7,0.45,80
-2.7,0.6,76
-2.7,0.75,78
-2.7,0.9,73
-2.7,1.05,67
-2.7,1.2,55
-2.7,1.35,40
-2.7,1.5,31
-2.55,-1.5,60
-2.55,-1.35,70
-2.55,-1.2,83
-2.55,-1.05,98
-2.55,-0.9,110
-2.55,-0.75,119
-2.55,-0.6,130
-2.55,-0.45,152
-2.55,-0.3,122
-2.55,-0.15,71
-2.55,0.0,78
-2.55,0.15,77
-2.55,0.3,83
-2.55,0.45,94
-2.55,0.6,113
-2.55,0.75,122
-2.55,0.9,101
-2.55,1.05,83
-2.55,1.2,70
-2.55,1.35,58
-2.55,1.5,50
-2.4,-1.5,86
-2.4,-1.35,76
-2.4,-1.2,83
-2.4,-1.05,88
-2.4,-0.9,102
-2.4,-0.75,91
-2.4,-0.6,91
-2.4,-0.45,96
-2.4,-0.3,91
-2.4,-0.15,79
-2.4,0.0,71
-2.4,0.15,69
-2.4,0.3,82
-2.4,0.45,94
-2.4,0.6,118
-2.4,0.75,129
-2.4,0.9,109
-2.4,1.05,92
-2.4,1.2,79
-2.4,1.35,70
-2.4,1.5,63
-2.25,-1.5,100
-2.25,-1.35,96
-2.25,-1.2,98
-2.25,-1.05,97
-2.25,-0.9,92
-2.25,-0.75,77
-2.25,-0.6,69
-2.25,-0.45,73
-2.25,-0.3,71
-2.25,-0.15,69
-2.25,0.0,65
-2.25,0.15,67
-2.25,0.3,78
-2.25,0.45,106
-2.25,0.6,121
-2.25,0.75,117
-2.25,0.9,105
-2.25,1.05,93
-2.25,1.2,83
-2.25,1.35,75
-2.25,1.5,69
-2.1,-1.5,99
-2.1,-1.35,100
-2.1,-1.2,100
-2.1,-1.05,108
-2.1,-0.9,92
-2.1,-0.75,80
-2.1,-0.6,69
-2.1,-0.45,69
-2.1,-0.3,62
-2.1,-0.15,54
-2.1,0.0,62
-2.1,0.15,67
-2.1,0.3,81
-2.1,0.45,124
-2.1,0.6,135
-2.1,0.75,118
-2.1,0.9,103
-2.1,1.05,91
-2.1,1.2,82
-2.1,1.35,76
-2.1,1.5,72
-1.95,-1.5,105
-1.95,-1.35,106
-1.95,-1.2,109
-1.95,-1.05,106
-1.95,-0.9,103
-1.95,-0.75,95
-1.95,-0.6,81
-1.95,-0.45,69
-1.95,-0.3,59
-1.95,-0.15,55
-1.95,0.0,63
-1.95,0.15,61
-1.95,0.3,72
-1.95,0.45,103
-1.95,0.6,116
-1.95,0.75,109
-1.95,0.9,97
-1.95,1.05,88
-1.95,1.2,77
-1.95,1.35,72
-1.95,1.5,72
-1.8,-1.5,114
-1.8,-1.35,110
-1.8,-1.2,110
-1.8,-1.05,111
-1.8,-0.9,114
-1.8,-0.75,121
-1.8,-0.6,108
-1.8,-0.45,86
-1.8,-0.3,57
-1.8,-0.15,60
-1.8,0.0,64
-1.8,0.15,37
-1.8,0.3,32
-1.8,0.45,69
-1.8,0.6,90
-1.8,0.75,96
-1.8,0.9,92
-1.8,1.05,81
-1.8,1.2,72
-1.8,1.35,72
-1.8,1.5,72
-1.65,-1.5,129
-1.65,-1.35,128
-1.65,-1.2,114
-1.65,-1.05,114
-1.65,-0.9,117
-1.65,-0.75,133
-1.65,-0.6,134
-1.65,-0.45,177
-1.65,-0.3,99
-1.65,-0.15,68
-1.65,0.0,63
-1.65,0.15,19
-1.65,0.3,17
-1.65,0.45,54
-1.65,0.6,75
-1.65,0.75,84
-1.65,0.9,81
-1.65,1.05,76
-1.65,1.2,72
-1.65,1.35,72
-1.65,1.5,73
-1.5,-1.5,132
-1.5,-1.35,132
-1.5,-1.2,131
-1.5,-1.05,125
-1.5,-0.9,106
-1.5,-0.75,80
-1.5,-0.6,93
-1.5,-0.45,255
-1.5,-0.3,84
-1.5,-0.15,81
-1.5,0.0,63
-1.5,0.15,60
-1.5,0.3,58
-1.5,0.45,68
-1.5,0.6,74
-1.5,0.75,77
-1.5,0.9,68
-1.5,1.05,79
-1.5,1.2,75
-1.5,1.35,74
-1.5,1.5,77
-1.35,-1.5,149
-1.35,-1.35,149
-1.35,-1.2,148
-1.35,-1.05,140
-1.35,-0.9,127
-1.35,-0.75,24
-1.35,-0.6,108
-1.35,-0.45,141
-1.35,-0.3,95
-1.35,-0.15,87
-1.35,0.0,73
-1.35,0.15,75
-1.35,0.3,75
-1.35,0.45,71
-1.35,0.6,69
-1.35,0.75,52
-1.35,0.9,63
-1.35,1.05,77
-1.35,1.2,87
-1.35,1.35,88
-1.35,1.5,90
-1.2,-1.5,150
-1.2,-1.35,151
-1.2,-1.2,154
-1.2,-1.05,163
-1.2,-0.9,207
-1.2,-0.75,232
-1.2,-0.6,98
-1.2,-0.45,94
-1.2,-0.3,78
-1.2,-0.15,69
-1.2,0.0,39
-1.2,0.15,83
-1.2,0.3,74
-1.2,0.45,73
-1.2,0.6,60
-1.2,0.75,67
-1.2,0.9,81
-1.2,1.05,88
-1.2,1.2,93
-1.2,1.35,100
-1.2,1.5,98
-1.05,-1.5,136
-1.05,-1.35,135
-1.05,-1.2,141
-1.05,-1.05,151
-1.05,-0.9,165
-1.05,-0.75,131
-1.05,-0.6,94
-1.05,-0.45,103
-1.05,-0.3,78
-1.05,-0.15,69
-1.05,0.0,170
-1.05,0.15,94
-1.05,0.3,83
-1.05,0.45,72
-1.05,0.6,62
-1.05,0.75,59
-1.05,0.9,80
-1.05,1.05,95
-1.05,1.2,106
-1.05,1.35,106
-1.05,1.5,107
-0.9,-1.5,147
-0.9,-1.35,145
-0.9,-1.2,149
-0.9,-1.05,158
-0.9,-0.9,175
-0.9,-0.75,166
-0.9,-0.6,125
-0.9,-0.45,107
-0.9,-0.3,97
-0.9,-0.15,88
-0.9,0.0,76
-0.9,0.15,78
-0.9,0.3,81
-0.9,0.45,54
-0.9,0.6,29
-0.9,0.75,46
-0.9,0.9,82
-0.9,1.05,104
-0.9,1.2,119
-0.9,1.35,122
-0.9,1.5,117
-0.75,-1.5,145
-0.75,-1.35,153
-0.75,-1.2,153
-0.75,-1.05,159
-0.75,-0.9,181
-0.75,-0.75,242
-0.75,-0.6,174
-0.75,-0.45,235
-0.75,-0.3,174
-0.75,-0.15,149
-0.75,0.0,125
-0.75,0.15,99
-0.75,0.3,68
-0.75,0.45,52
-0.75,0.6,27
-0.75,0.75,51
-0.75,0.9,95
-0.75,1.05,141
-0.75,1.2,161
-0.75,1.35,150
-0.75,1.5,134
-0.6,-1.5,152
-0.6,-1.35,150
-0.6,-1.2,147
-0.6,-1.05,131
-0.6,-0.9,101
-0.6,-0.75,128
-0.6,-0.6,148
-0.6,-0.45,226
-0.6,-0.3,213
-0.6,-0.15,255
-0.6,0.0,157
-0.6,0.15,70
-0.6,0.3,76
-0.6,0.45,74
-0.6,0.6,135
-0.6,0.75,100
-0.6,0.9,128
-0.6,1.05,219
-0.6,1.2,232
-0.6,1.35,190
-0.6,1.5,150
-0.45,-1.5,133
-0.45,-1.35,120
-0.45,-1.2,117
-0.45,-1.05,106
-0.45,-0.9,87
-0.45,-0.75,69
-0.45,-0.6,129
-0.45,-0.45,120
-0.45,-0.3,119
-0.45,-0.15,89
-0.45,0.0,79
-0.45,0.15,68
-0.45,0.3,87
-0.45,0.45,131
-0.45,0.6,155
-0.45,0.75,118
-0.45,0.9,144
-0.45,1.05,240
-0.45,1.2,249
-0.45,1.35,195
-0.45,1.5,164
-0.3,-1.5,133
-0.3,-1.35,132
-0.3,-1.2,131
-0.3,-1.05,127
-0.3,-0.9,118
-0.3,-0.75,115
-0.3,-0.6,86
-0.3,-0.45,11
-0.3,-0.3,60
-0.3,-0.15,66
-0.3,0.0,51
-0.3,0.15,85
-0.3,0.3,74
-0.3,0.45,97
-0.3,0.6,97
-0.3,0.75,82
-0.3,0.9,107
-0.3,1.05,158
-0.3,1.2,179
-0.3,1.35,164
-0.3,1.5,148
-0.15,-1.5,128
-0.15,-1.35,128
-0.15,-1.2,118
-0.15,-1.05,128
-0.15,-0.9,171
-0.15,-0.75,217
-0.15,-0.6,114
-0.15,-0.45,72
-0.15,-0.3,65
-0.15,-0.15,103
-0.15,0.0,97
-0.15,0.15,152
-0.15,0.3,151
-0.15,0.45,184
-0.15,0.6,93
-0.15,0.75,2
-0.15,0.9,87
-0.15,1.05,122
-0.15,1.2,127
-0.15,1.35,133
-0.15,1.5,134
0.0,-1.5,119
0.0,-1.35,119
0.0,-1.2,120
0.0,-1.05,118
0.0,-0.9,115
0.0,-0.75,175
0.0,-0.6,249
0.0,-0.45,122
0.0,-0.3,82
0.0,-0.15,120
0.0,0.0,65
0.0,0.15,65
0.0,0.3,220
0.0,0.45,168
0.0,0.6,113
0.0,0.75,73
0.0,0.9,87
0.0,1.05,88
0.0,1.2,105
0.0,1.35,118
0.0,1.5,124
0.15,-1.5,112
0.15,-1.35,112
0.15,-1.2,109
0.15,-1.05,97
0.15,-0.9,35
0.15,-0.75,93
0.15,-0.6,134
0.15,-0.45,106
0.15,-0.3,33
0.15,-0.15,65
0.15,0.0,73
0.15,0.15,122
0.15,0.3,117
0.15,0.45,128
0.15,0.6,123
0.15,0.75,94
0.15,0.9,73
0.15,1.05,76
0.15,1.2,93
0.15,1.35,108
0.15,1.5,116
0.3,-1.5,79
0.3,-1.35,78
0.3,-1.2,76
0.3,-1.05,86
0.3,-0.9,80
0.3,-0.75,93
0.3,-0.6,90
0.3,-0.45,72
0.3,-0.3,59
0.3,-0.15,48
0.3,0.0,66
0.3,0.15,68
0.3,0.3,77
0.3,0.45,88
0.3,0.6,72
0.3,0.75,90
0.3,0.9,80
0.3,1.05,86
0.3,1.2,95
0.3,1.35,104
0.3,1.5,110
0.45,-1.5,59
0.45,-1.35,54
0.45,-1.2,35
0.45,-1.05,33
0.45,-0.9,24
0.45,-0.75,35
0.45,-0.6,54
0.45,-0.45,52
0.45,-0.3,59
0.45,-0.15,27
0.45,0.0,56
0.45,0.15,59
0.45,0.3,63
0.45,0.45,69
0.45,0.6,81
0.45,0.75,80
0.45,0.9,79
0.45,1.05,78
0.45,1.2,86
0.45,1.35,90
0.45,1.5,90
0.6,-1.5,59
0.6,-1.35,39
0.6,-1.2,33
0.6,-1.05,21
0.6,-0.9,22
0.6,-0.75,28
0.6,-0.6,18
0.6,-0.45,14
0.6,-0.3,65
0.6,-0.15,52
0.6,0.0,59
0.6,0.15,50
0.6,0.3,59
0.6,0.45,79
0.6,0.6,78
0.6,0.75,78
0.6,0.9,78
0.6,1.05,80
0.6,1.2,80
0.6,1.35,81
0.6,1.5,90
0.75,-1.5,56
0.75,-1.35,50
0.75,-1.2,39
0.75,-1.05,29
0.75,-0.9,21
0.75,-0.75,64
0.75,-0.6,14
0.75,-0.45,18
0.75,-0.3,73
0.75,-0.15,55
0.75,0.0,39
0.75,0.15,66
0.75,0.3,17
0.75,0.45,91
0.75,0.6,82
0.75,0.75,69
0.75,0.9,74
0.75,1.05,80
0.75,1.2,81
0.75,1.35,82
0.75,1.5,81
0.9,-1.5,75
0.9,-1.35,69
0.9,-1.2,52
0.9,-1.05,31
0.9,-0.9,12
0.9,-0.75,14
0.9,-0.6,20
0.9,-0.45,71
0.9,-0.3,129
0.9,-0.15,121
0.9,0.0,75
0.9,0.15,153
0.9,0.3,102
0.9,0.45,205
0.9,0.6,157
0.9,0.75,95
0.9,0.9,78
0.9,1.05,77
0.9,1.2,78
0.9,1.35,81
0.9,1.5,82
1.05,-1.5,104
1.05,-1.35,112
1.05,-1.2,87
1.05,-1.05,35
1.05,-0.9,0
1.05,-0.75,10
1.05,-0.6,33
1.05,-0.45,65
1.05,-0.3,131
1.05,-0.15,204
1.05,0.0,71
1.05,0.15,60
1.05,0.3,49
1.05,0.45,67
1.05,0.6,103
1.05,0.75,82
1.05,0.9,67
1.05,1.05,72
1.05,1.2,75
1.05,1.35,75
1.05,1.5,75
1.2,-1.5,141
1.2,-1.35,198
1.2,-1.2,180
1.2,-1.05,66
1.2,-0.9,22
1.2,-0.75,16
1.2,-0.6,32
1.2,-0.45,41
1.2,-0.3,3
1.2,-0.15,39
1.2,0.0,56
1.2,0.15,14
1.2,0.3,38
1.2,0.45,53
1.2,0.6,73
1.2,0.75,78
1.2,0.9,70
1.2,1.05,72
1.2,1.2,85
1.2,1.35,78
1.2,1.5,78
1.35,-1.5,150
1.35,-1.35,225
1.35,-1.2,215
1.35,-1.05,61
1.35,-0.9,18
1.35,-0.75,14
1.35,-0.6,36
1.35,-0.45,51
1.35,-0.3,17
1.35,-0.15,23
1.35,0.0,87
1.35,0.15,70
1.35,0.3,35
1.35,0.45,62
1.35,0.6,75
1.35,0.75,83
1.35,0.9,83
1.35,1.05,83
1.35,1.2,88
1.35,1.35,89
1.35,1.5,90
1.5,-1.5,116
1.5,-1.35,131
1.5,-1.2,101
1.5,-1.05,36
1.5,-0.9,0
1.5,-0.75,21
1.5,-0.6,54
1.5,-0.45,63
1.5,-0.3,75
1.5,-0.15,17
1.5,0.0,23
1.5,0.15,87
1.5,0.3,83
1.5,0.45,89
1.5,0.6,69
1.5,0.75,65
1.5,0.9,77
1.5,1.05,81
1.5,1.2,86
1.5,1.35,86
1.5,1.5,87
1.65,-1.5,86
1.65,-1.35,81
1.65,-1.2,66
1.65,-1.05,42
1.65,-0.9,21
1.65,-0.75,49
1.65,-0.6,55
1.65,-0.45,64
1.65,-0.3,39
1.65,-0.15,49
1.65,0.0,62
1.65,0.15,34
1.65,0.3,253
1.65,0.45,101
1.65,0.6,80
1.65,0.75,71
1.65,0.9,65
1.65,1.05,54
1.65,1.2,77
1.65,1.35,77
1.65,1.5,77
1.8,-1.5,75
1.8,-1.35,70
1.8,-1.2,63
1.8,-1.05,50
1.8,-0.9,37
1.8,-0.75,32
1.8,-0.6,38
1.8,-0.45,47
1.8,-0.3,34
1.8,-0.15,41
1.8,0.0,51
1.8,0.15,62
1.8,0.3,32
1.8,0.45,44
1.8,0.6,52
1.8,0.75,51
1.8,0.9,51
1.8,1.05,51
1.8,1.2,51
1.8,1.35,51
1.8,1.5,56
1.95,-1.5,79
1.95,-1.35,75
1.95,-1.2,67
1.95,-1.05,68
1.95,-0.9,75
1.95,-0.75,13
1.95,-0.6,38
1.95,-0.45,12
1.95,-0.3,33
1.95,-0.15,13
1.95,0.0,16
1.95,0.15,34
1.95,0.3,25
1.95,0.45,34
1.95,0.6,44
1.95,0.75,45
1.95,0.9,46
1.95,1.05,43
1.95,1.2,43
1.95,1.35,44
1.95,1.5,44
2.1,-1.5,94
2.1,-1.35,78
2.1,-1.2,71
2.1,-1.05,75
2.1,-0.9,89
2.1,-0.75,51
2.1,-0.6,27
2.1,-0.45,23
2.1,-0.3,6
2.1,-0.15,40
2.1,0.0,66
2.1,0.15,68
2.1,0.3,4
2.1,0.45,27
2.1,0.6,34
2.1,0.75,39
2.1,0.9,41
2.1,1.05,44
2.1,1.2,45
2.1,1.35,47
2.1,1.5,48
2.25,-1.5,82
2.25,-1.35,82
2.25,-1.2,78
2.25,-1.05,76
2.25,-0.9,89
2.25,-0.75,54
2.25,-0.6,27
2.25,-0.45,60
2.25,-0.3,64
2.25,-0.15,34
2.25,0.0,101
2.25,0.15,70
2.25,0.3,44
2.25,0.45,46
2.25,0.6,37
2.25,0.75,40
2.25,0.9,42
2.25,1.05,44
2.25,1.2,31
2.25,1.35,51
2.25,1.5,47
2.4,-1.5,116
2.4,-1.35,103
2.4,-1.2,109
2.4,-1.05,124
2.4,-0.9,148
2.4,-0.75,72
2.4,-0.6,35
2.4,-0.45,87
2.4,-0.3,72
2.4,-0.15,67
2.4,0.0,83
2.4,0.15,120
2.4,0.3,1
2.4,0.45,64
2.4,0.6,72
2.4,0.75,78
2.4,0.9,76
2.4,1.05,77
2.4,1.2,54
2.4,1.35,55
2.4,1.5,55
2.55,-1.5,129
2.55,-1.35,132
2.55,-1.2,127
2.55,-1.05,159
2.55,-0.9,230
2.55,-0.75,120
2.55,-0.6,95
2.55,-0.45,209
2.55,-0.3,134
2.55,-0.15,103
2.55,0.0,101
2.55,0.15,226
2.55,0.3,117
2.55,0.45,94
2.55,0.6,94
2.55,0.75,90
2.55,0.9,88
2.55,1.05,87
2.55,1.2,87
2.55,1.35,87
2.55,1.5,86
2.7,-1.5,149
2.7,-1.35,144
2.7,-1.2,146
2.7,-1.05,168
2.7,-0.9,182
2.7,-0.75,175
2.7,-0.6,104
2.7,-0.45,123
2.7,-0.3,113
2.7,-0.15,90
2.7,0.0,92
2.7,0.15,202
2.7,0.3,134
2.7,0.45,113
2.7,0.6,104
2.7,0.75,98
2.7,0.9,94
2.7,1.05,93
2.7,1.2,100
2.7,1.35,100
2.7,1.5,101
2.85,-1.5,177
2.85,-1.35,178
2.85,-1.2,175
2.85,-1.05,150
2.85,-0.9,138
2.85,-0.75,148
2.85,-0.6,125
2.85,-0.45,140
2.85,-0.3,48
2.85,-0.15,75
2.85,0.0,67
2.85,0.15,68
2.85,0.3,73
2.85,0.45,124
2.85,0.6,104
2.85,0.75,96
2.85,0.9,85
2.85,1.05,85
2.85,1.2,85
2.85,1.35,100
2.85,1.5,100
3.0,-1.5,210
3.0,-1.35,209
3.0,-1.2,206
3.0,-1.05,183
3.0,-0.9,77
3.0,-0.75,142
3.0,-0.6,139
3.0,-0.45,149
3.0,-0.3,135
3.0,-0.15,132
3.0,0.0,82
3.0,0.15,36
3.0,0.3,16
3.0,0.45,69
3.0,0.6,78
3.0,0.75,85
3.0,0.9,85
3.0,1.05,85
3.0,1.2,85
3.0,1.35,85
3.0,1.5,85
3.15,-1.5,210
3.15,-1.35,220
3.15,-1.2,233
3.15,-1.05,250
3.15,-0.9,178
3.15,-0.75,201
3.15,-0.6,177
3.15,-0.45,109
3.15,-0.3,98
3.15,-0.15,93
3.15,0.0,118
3.15,0.15,89
3.15,0.3,43
3.15,0.45,39
3.15,0.6,45
3.15,0.75,93
3.15,0.9,99
3.15,1.05,100
3.15,1.2,101
3.15,1.35,95
3.15,1.5,95
3.3,-1.5,204
3.3,-1.35,217
3.3,-1.2,232
3.3,-1.05,250
3.3,-0.9,243
3.3,-0.75,255
3.3,-0.6,133
3.3,-0.45,105
3.3,-0.3,110
3.3,-0.15,89
3.3,0.0,89
3.3,0.15,108
3.3,0.3,74
3.3,0.45,73
3.3,0.6,94
3.3,0.75,127
3.3,0.9,114
3.3,1.05,113
3.3,1.2,115
3.3,1.35,116
3.3,1.5,117
3.45,-1.5,174
3.45,-1.35,181
3.45,-1.2,191
3.45,-1.05,208
3.45,-0.9,255
3.45,-0.75,255
3.45,-0.6,130
3.45,-0.45,111
3.45,-0.3,149
3.45,-0.15,93
3.45,0.0,105
3.45,0.15,143
3.45,0.3,131
3.45,0.45,131
3.45,0.6,113
3.45,0.75,118
3.45,0.9,119
3.45,1.05,119
3.45,1.2,119
3.45,1.35,120
3.45,1.5,120
3.6,-1.5,160
3.6,-1.35,157
3.6,-1.2,140
3.6,-1.05,136
3.6,-0.9,129
3.6,-0.75,116
3.6,-0.6,71
3.6,-0.45,156
3.6,-0.3,132
3.6,-0.15,133
3.6,0.0,72
3.6,0.15,122
3.6,0.3,175
3.6,0.45,143
3.6,0.6,136
3.6,0.75,132
3.6,0.9,118
3.6,1.05,128
3.6,1.2,127
3.6,1.35,127
3.6,1.5,127
3.75,-1.5,142
3.75,-1.35,144
3.75,-1.2,118
3.75,-1.05,93
3.75,-0.9,84
3.75,-0.75,58
3.75,-0.6,96
3.75,-0.45,212
3.75,-0.3,191
3.75,-0.15,161
3.75,0.0,196
3.75,0.15,184
3.75,0.3,174
3.75,0.45,178
3.75,0.6,163
3.75,0.75,141
3.75,0.9,133
3.75,1.05,126
3.75,1.2,126
3.75,1.35,137
3.75,1.5,146
3.9,-1.5,127
3.9,-1.35,106
3.9,-1.2,95
3.9,-1.05,43
3.9,-0.9,74
3.9,-0.75,67
3.9,-0.6,76
3.9,-0.45,140
3.9,-0.3,227
3.9,-0.15,111
3.9,0.0,255
3.9,0.15,192
3.9,0.3,183
3.9,0.45,236
3.9,0.6,198
3.9,0.75,141
3.9,0.9,127
3.9,1.05,136
3.9,1.2,136
3.9,1.35,139
3.9,1.5,139
4.05,-1.5,114
4.05,-1.35,114
4.05,-1.2,129
4.05,-1.05,131
4.05,-0.9,214
4.05,-0.75,92
4.05,-0.6,74
4.05,-0.45,45
4.05,-0.3,100
4.05,-0.15,129
4.05,0.0,177
4.05,0.15,98
4.05,0.3,140
4.05,0.45,199
4.05,0.6,102
4.05,0.75,97
4.05,0.9,122
4.05,1.05,119
4.05,1.2,109
4.05,1.35,107
4.05,1.5,106
4.2,-1.5,130
4.2,-1.35,130
4.2,-1.2,130
4.2,-1.05,149
4.2,-0.9,211
4.2,-0.75,202
4.2,-0.6,148
4.2,-0.45,181
4.2,-0.3,92
4.2,-0.15,107
4.2,0.0,96
4.2,0.15,19
4.2,0.3,70
4.2,0.45,106
4.2,0.6,102
4.2,0.75,99
4.2,0.9,97
4.2,1.05,96
4.2,1.2,102
4.2,1.35,102
4.2,1.5,107
4.35,-1.5,126
4.35,-1.35,123
4.35,-1.2,121
4.35,-1.05,103
4.35,-0.9,90
4.35,-0.75,149
4.35,-0.6,80
4.35,-0.45,69
4.35,-0.3,93
4.35,-0.15,47
4.35,0.0,73
4.35,0.15,74
4.35,0.3,73
4.35,0.45,128
4.35,0.6,119
4.35,0.75,116
4.35,0.9,116
4.35,1.05,115
4.35,1.2,115
4.35,1.35,115
4.35,1.5,123
4.5,-1.5,112
4.5,-1.35,112
4.5,-1.2,108
4.5,-1.05,94
4.5,-0.9,90
4.5,-0.75,98
4.5,-0.6,72
4.5,-0.45,67
4.5,-0.3,93
4.5,-0.15,92
4.5,0.0,255
4.5,0.15,89
4.5,0.3,73
4.5,0.45,103
4.5,0.6,119
4.5,0.75,122
4.5,0.9,116
4.5,1.05,114
4.5,1.2,121
4.5,1.35,121
4.5,1.5,121
4.65,-1.5,96
4.65,-1.35,101
4.65,-1.2,96
4.65,-1.05,89
4.65,-0.9,67
4.65,-0.75,61
4.65,-0.6,60
4.65,-0.45,82
4.65,-0.3,103
4.65,-0.15,189
4.65,0.0,80
4.65,0.15,77
4.65,0.3,73
4.65,0.45,73
4.65,0.6,183
4.65,0.75,116
4.65,0.9,109
4.65,1.05,105
4.65,1.2,118
4.65,1.35,119
4.65,1.5,120
4.8,-1.5,90
4.8,-1.35,84
4.8,-1.2,54
4.8,-1.05,40
4.8,-0.9,38
4.8,-0.75,45
4.8,-0.6,40
4.8,-0.45,53
4.8,-0.3,234
4.8,-0.15,65
4.8,0.0,151
4.8,0.15,201
4.8,0.3,180
4.8,0.45,102
4.8,0.6,87
4.8,0.75,101
4.8,0.9,102
4.8,1.05,103
4.8,1.2,106
4.8,1.35,106
4.8,1.5,106
4.95,-1.5,52
4.95,-1.35,49
4.95,-1.2,44
4.95,-1.05,37
4.95,-0.9,29
4.95,-0.75,0
4.95,-0.6,32
4.95,-0.45,42
4.95,-0.3,44
4.95,-0.15,67
4.95,0.0,52
4.95,0.15,163
4.95,0.3,122
4.95,0.45,37
4.95,0.6,66
4.95,0.75,82
4.95,0.9,90
4.95,1.05,93
4.95,1.2,93
4.95,1.35,101
4.95,1.5,101
5.1,-1.5,50
5.1,-1.35,42
5.1,-1.2,30
5.1,-1.05,10
5.1,-0.9,37
5.1,-0.75,51
5.1,-0.6,54
5.1,-0.45,32
5.1,-0.3,83
5.1,-0.15,58
5.1,0.0,3
5.1,0.15,48
5.1,0.3,37
5.1,0.45,68
5.1,0.6,86
5.1,0.75,88
5.1,0.9,91
5.1,1.05,92
5.1,1.2,92
5.1,1.35,91
5.1,1.5,91
5.25,-1.5,43
5.25,-1.35,41
5.25,-1.2,35
5.25,-1.05,23
5.25,-0.9,75
5.25,-0.75,125
5.25,-0.6,127
5.25,-0.45,32
5.25,-0.3,56
5.25,-0.15,197
5.25,0.0,67
5.25,0.15,99
5.25,0.3,12
5.25,0.45,66
5.25,0.6,96
5.25,0.75,116
5.25,0.9,95
5.25,1.05,90
5.25,1.2,89
5.25,1.35,89
5.25,1.5,89
5.4,-1.5,52
5.4,-1.35,52
5.4,-1.2,50
5.4,-1.05,57
5.4,-0.9,64
5.4,-0.75,75
5.4,-0.6,78
5.4,-0.45,172
5.4,-0.3,73
5.4,-0.15,6
5.4,0.0,39
5.4,0.15,83
5.4,0.3,104
5.4,0.45,83
5.4,0.6,85
5.4,0.75,103
5.4,0.9,92
5.4,1.05,86
5.4,1.2,83
5.4,1.35,75
5.4,1.5,70
5.55,-1.5,52
5.55,-1.35,52
5.55,-1.2,52
5.55,-1.05,49
5.55,-0.9,9
5.55,-0.75,68
5.55,-0.6,105
5.55,-0.45,94
5.55,-0.3,83
5.55,-0.15,91
5.55,0.0,104
5.55,0.15,115
5.55,0.3,125
5.55,0.45,81
5.55,0.6,72
5.55,0.75,92
5.55,0.9,84
5.55,1.05,80
5.55,1.2,59
5.55,1.35,57
5.55,1.5,55
5.7,-1.5,41
5.7,-1.35,52
5.7,-1.2,52
5.7,-1.05,48
5.7,-0.9,53
5.7,-0.75,48
5.7,-0.6,98
5.7,-0.45,95
5.7,-0.3,170
5.7,-0.15,129
5.7,0.0,214
5.7,0.15,104
5.7,0.3,139
5.7,0.45,8
5.7,0.6,80
5.7,0.75,86
5.7,0.9,76
5.7,1.05,60
5.7,1.2,55
5.7,1.35,55
5.7,1.5,55
5.85,-1.5,31
5.85,-1.35,36
5.85,-1.2,36
5.85,-1.05,42
5.85,-0.9,48
5.85,-0.75,39
5.85,-0.6,130
5.85,-0.45,199
5.85,-0.3,0
5.85,-0.15,63
5.85,0.0,149
5.85,0.15,211
5.85,0.3,169
5.85,0.45,92
5.85,0.6,71
5.85,0.75,65
5.85,0.9,52
5.85,1.05,54
5.85,1.2,55
5.85,1.35,55
5.85,1.5,55
6.0,-1.5,65
6.0,-1.35,65
6.0,-1.2,65
6.0,-1.05,81
6.0,-0.9,69
6.0,-0.75,66
6.0,-0.6,102
6.0,-0.45,18
6.0,-0.3,59
6.0,-0.15,118
6.0,0.0,95
6.0,0.15,206
6.0,0.3,152
6.0,0.45,87
6.0,0.6,68
6.0,0.75,56
6.0,0.9,42
6.0,1.05,45
6.0,1.2,42
6.0,1.35,43
6.0,1.5,44
6.15,-1.5,65
6.15,-1.35,65
6.15,-1.2,66
6.15,-1.05,97
6.15,-0.9,115
6.15,-0.75,125
6.15,-0.6,150
6.15,-0.45,21
6.15,-0.3,128
6.15,-0.15,64
6.15,0.0,20
6.15,0.15,41
6.15,0.3,69
6.15,0.45,39
6.15,0.6,21
6.15,0.75,28
6.15,0.9,43
6.15,1.05,34
6.15,1.2,35
6.15,1.35,36
6.15,1.5,37
6.3,-1.5,66
6.3,-1.35,66
6.3,-1.2,63
6.3,-1.05,56
6.3,-0.9,69
6.3,-0.75,255
6.3,-0.6,192
6.3,-0.45,22
6.3,-0.3,52
6.3,-0.15,101
6.3,0.0,57
6.3,0.15,47
6.3,0.3,37
6.3,0.45,53
6.3,0.6,22
6.3,0.75,28
6.3,0.9,28
6.3,1.05,31
6.3,1.2,31
6.3,1.35,31
6.3,1.5,31
6.45,-1.5,66
6.45,-1.35,66
6.45,-1.2,50
6.45,-1.05,8
6.45,-0.9,53
6.45,-0.75,59
6.45,-0.6,115
6.45,-0.45,12
6.45,-0.3,122
6.45,-0.15,94
6.45,0.0,81
6.45,0.15,34
6.45,0.3,30
6.45,0.45,33
6.45,0.6,52
6.45,0.75,35
6.45,0.9,33
6.45,1.05,32
6.45,1.2,32
6.45,1.35,32
6.45,1.5,32
6.6,-1.5,66
6.6,-1.35,63
6.6,-1.2,44
6.6,-1.05,47
6.6,-0.9,42
6.6,-0.75,32
6.6,-0.6,33
6.6,-0.45,102
6.6,-0.3,87
6.6,-0.15,105
6.6,0.0,18
6.6,0.15,44
6.6,0.3,9
6.6,0.45,13
6.6,0.6,44
6.6,0.75,45
6.6,0.9,40
6.6,1.05,40
6.6,1.2,41
6.6,1.35,41
6.6,1.5,41
6.75,-1.5,38
6.75,-1.35,46
6.75,-1.2,48
6.75,-1.05,56
6.75,-0.9,52
6.75,-0.75,13
6.75,-0.6,26
6.75,-0.45,97
6.75,-0.3,57
6.75,-0.15,29
6.75,0.0,37
6.75,0.15,251
6.75,0.3,66
6.75,0.45,47
6.75,0.6,45
6.75,0.75,44
6.75,0.9,44
6.75,1.05,43
6.75,1.2,43
6.75,1.35,43
6.75,1.5,43
6.9,-1.5,61
6.9,-1.35,61
6.9,-1.2,61
6.9,-1.05,56
6.9,-0.9,54
6.9,-0.75,22
6.9,-0.6,233
6.9,-0.45,62
6.9,-0.3,62
6.9,-0.15,19
6.9,0.0,25
6.9,0.15,67
6.9,0.3,97
6.9,0.45,66
6.9,0.6,63
6.9,0.75,50
6.9,0.9,47
6.9,1.05,43
6.9,1.2,43
6.9,1.35,43
6.9,1.5,43
7.05,-1.5,76
7.05,-1.35,76
7.05,-1.2,76
7.05,-1.05,70
7.05,-0.9,70
7.05,-0.75,47
7.05,-0.6,22
7.05,-0.45,61
7.05,-0.3,169
7.05,-0.15,72
7.05,0.0,28
7.05,0.15,140
7.05,0.3,119
7.05,0.45,80
7.05,0.6,77
7.05,0.75,77
7.05,0.9,64
7.05,1.05,63
7.05,1.2,62
7.05,1.35,56
7.05,1.5,55
7.2,-1.5,86
7.2,-1.35,87
7.2,-1.2,86
7.2,-1.05,84
7.2,-0.9,94
7.2,-0.75,187
7.2,-0.6,46
7.2,-0.45,163
7.2,-0.3,52
7.2,-0.15,70
7.2,0.0,0
7.2,0.15,14
7.2,0.3,41
7.2,0.45,68
7.2,0.6,69
7.2,0.75,71
7.2,0.9,70
7.2,1.05,65
7.2,1.2,63
7.2,1.35,61
7.2,1.5,60
7.35,-1.5,90
7.35,-1.35,91
7.35,-1.2,90
7.35,-1.05,109
7.35,-0.9,67
7.35,-0.75,27
7.35,-0.6,4
7.35,-0.45,19
7.35,-0.3,53
7.35,-0.15,26
7.35,0.0,0
7.35,0.15,130
7.35,0.3,173
7.35,0.45,103
7.35,0.6,92
7.35,0.75,67
7.35,0.9,60
7.35,1.05,57
7.35,1.2,55
7.35,1.35,54
7.35,1.5,57
7.5,-1.5,90
7.5,-1.35,90
7.5,-1.2,92
7.5,-1.05,98
7.5,-0.9,66
7.5,-0.75,36
7.5,-0.6,9
7.5,-0.45,2
7.5,-0.3,24
7.5,-0.15,9
7.5,0.0,4
7.5,0.15,176
7.5,0.3,135
7.5,0.45,116
7.5,0.6,108
7.5,0.75,90
7.5,0.9,65
7.5,1.05,54
7.5,1.2,54
7.5,1.35,58
7.5,1.5,58
7.65,-1.5,88
7.65,-1.35,87
7.65,-1.2,85
7.65,-1.05,74
7.65,-0.9,68
7.65,-0.75,47
7.65,-0.6,8
7.65,-0.45,22
7.65,-0.3,27
7.65,-0.15,13
7.65,0.0,10
7.65,0.15,82
7.65,0.3,112
7.65,0.45,68
7.65,0.6,78
7.65,0.75,77
7.65,0.9,74
7.65,1.05,58
7.65,1.2,59
7.65,1.35,40
7.65,1.5,41
7.8,-1.5,92
7.8,-1.35,92
7.8,-1.2,86
7.8,-1.05,95
7.8,-0.9,124
7.8,-0.75,55
7.8,-0.6,61
7.8,-0.45,8
7.8,-0.3,28
7.8,-0.15,2
7.8,0.0,51
7.8,0.15,69
7.8,0.3,80
7.8,0.45,15
7.8,0.6,55
7.8,0.75,52
7.8,0.9,45
7.8,1.05,47
7.8,1.2,63
7.8,1.35,70
7.8,1.5,50
7.95,-1.5,105
7.95,-1.35,102
7.95,-1.2,97
7.95,-1.05,105
7.95,-0.9,108
7.95,-0.75,66
7.95,-0.6,199
7.95,-0.45,68
7.95,-0.3,28
7.95,-0.15,36
7.95,0.0,59
7.95,0.15,0
7.95,0.3,69
7.95,0.45,62
7.95,0.6,43
7.95,0.75,23
7.95,0.9,9
7.95,1.05,33
7.95,1.2,47
7.95,1.35,54
7.95,1.5,59
8.1,-1.5,124
8.1,-1.35,124
8.1,-1.2,124
8.1,-1.05,121
8.1,-0.9,119
8.1,-0.75,134
8.1,-0.6,127
8.1,-0.45,28
8.1,-0.3,34
8.1,-0.15,31
8.1,0.0,104
8.1,0.15,85
8.1,0.3,96
8.1,0.45,65
8.1,0.6,44
8.1,0.75,21
8.1,0.9,6
8.1,1.05,22
8.1,1.2,32
8.1,1.35,37
8.1,1.5,40
8.25,-1.5,128
8.25,-1.35,119
8.25,-1.2,120
8.25,-1.05,111
8.25,-0.9,75
8.25,-0.75,146
8.25,-0.6,42
8.25,-0.45,35
8.25,-0.3,171
8.25,-0.15,46
8.25,0.0,79
8.25,0.15,84
8.25,0.3,81
8.25,0.45,25
8.25,0.6,23
8.25,0.75,32
8.25,0.9,27
8.25,1.05,30
8.25,1.2,35
8.25,1.35,38
8.25,1.5,40
8.4,-1.5,90
8.4,-1.35,89
8.4,-1.2,88
8.4,-1.05,84
8.4,-0.9,84
8.4,-0.75,67
8.4,-0.6,18
8.4,-0.45,29
8.4,-0.3,73
8.4,-0.15,54
8.4,0.0,52
8.4,0.15,92
8.4,0.3,83
8.4,0.45,35
8.4,0.6,27
8.4,0.75,38
8.4,0.9,42
8.4,1.05,40
8.4,1.2,40
8.4,1.35,40
8.4,1.5,40
8.55,-1.5,60
8.55,-1.35,72
8.55,-1.2,71
8.55,-1.05,70
8.55,-0.9,65
8.55,-0.75,58
8.55,-0.6,59
8.55,-0.45,59
8.55,-0.3,43
8.55,-0.15,129
8.55,0.0,28
8.55,0.15,31
8.55,0.3,75
8.55,0.45,57
8.55,0.6,46
8.55,0.75,44
8.55,0.9,25
8.55,1.05,25
8.55,1.2,30
8.55,1.35,40
8.55,1.5,40
8.7,-1.5,82
8.7,-1.35,81
8.7,-1.2,78
8.7,-1.05,78
8.7,-0.9,67
8.7,-0.75,61
8.7,-0.6,58
8.7,-0.45,69
8.7,-0.3,96
8.7,-0.15,12
8.7,0.0,80
8.7,0.15,109
8.7,0.3,77
8.7,0.45,67
8.7,0.6,65
8.7,0.75,46
8.7,0.9,44
8.7,1.05,44
8.7,1.2,40
8.7,1.35,30
8.7,1.5,30
8.85,-1.5,90
8.85,-1.35,75
8.85,-1.2,75
8.85,-1.05,74
8.85,-0.9,71
8.85,-0.75,123
8.85,-0.6,134
8.85,-0.45,70
8.85,-0.3,2
8.85,-0.15,91
8.85,0.0,58
8.85,0.15,48
8.85,0.3,16
8.85,0.45,53
8.85,0.6,53
8.85,0.75,61
8.85,0.9,38
8.85,1.05,33
8.85,1.2,32
8.85,1.35,33
8.85,1.5,34
9.0,-1.5,95
9.0,-1.35,94
9.0,-1.2,95
9.0,-1.05,78
9.0,-0.9,81
9.0,-0.75,83
9.0,-0.6,48
9.0,-0.45,48
9.0,-0.3,107
9.0,-0.15,64
9.0,0.0,5
9.0,0.15,4
9.0,0.3,22
9.0,0.45,39
9.0,0.6,61
9.0,0.75,52
9.0,0.9,50
9.0,1.05,69
9.0,1.2,67
9.0,1.35,68
9.0,1.5,69
9.15,-1.5,115
9.15,-1.35,116
9.15,-1.2,117
9.15,-1.05,127
9.15,-0.9,103
9.15,-0.75,85
9.15,-0.6,90
9.15,-0.45,62
9.15,-0.3,73
9.15,-0.15,54
9.15,0.0,10
9.15,0.15,58
9.15,0.3,32
9.15,0.45,52
9.15,0.6,55
9.15,0.75,57
9.15,0.9,82
9.15,1.05,82
9.15,1.2,84
9.15,1.35,85
9.15,1.5,84
9.3,-1.5,167
9.3,-1.35,166
9.3,-1.2,154
9.3,-1.05,154
9.3,-0.9,146
9.3,-0.75,125
9.3,-0.6,89
9.3,-0.45,66
9.3,-0.3,73
9.3,-0.15,191
9.3,0.0,10
9.3,0.15,70
9.3,0.3,83
9.3,0.45,80
9.3,0.6,75
9.3,0.75,91
9.3,0.9,94
9.3,1.05,96
9.3,1.2,97
9.3,1.35,101
9.3,1.5,94
9.45,-1.5,167
9.45,-1.35,179
9.45,-1.2,175
9.45,-1.05,202
9.45,-0.9,253
9.45,-0.75,84
9.45,-0.6,23
9.45,-0.45,118
9.45,-0.3,55
9.45,-0.15,50
9.45,0.0,52
9.45,0.15,88
9.45,0.3,193
9.45,0.45,120
9.45,0.6,116
9.45,0.75,118
9.45,0.9,119
9.45,1.05,118
9.45,1.2,115
9.45,1.35,111
9.45,1.5,108
9.6,-1.5,162
9.6,-1.35,165
9.6,-1.2,179
9.6,-1.05,188
9.6,-0.9,175
9.6,-0.75,124
9.6,-0.6,255
9.6,-0.45,105
9.6,-0.3,3
9.6,-0.15,1
9.6,0.0,61
9.6,0.15,113
9.6,0.3,182
9.6,0.45,143
9.6,0.6,139
9.6,0.75,149
9.6,0.9,148
9.6,1.05,139
9.6,1.2,130
9.6,1.35,122
9.6,1.5,116
9.75,-1.5,162
9.75,-1.35,164
9.75,-1.2,167
9.75,-1.05,169
9.75,-0.9,171
9.75,-0.75,202
9.75,-0.6,129
9.75,-0.45,72
9.75,-0.3,101
9.75,-0.15,74
9.75,0.0,43
9.75,0.15,43
9.75,0.3,96
9.75,0.45,130
9.75,0.6,173
9.75,0.75,208
9.75,0.9,199
9.75,1.05,178
9.75,1.2,148
9.75,1.35,135
9.75,1.5,122
9.9,-1.5,141
9.9,-1.35,142
9.9,-1.2,143
9.9,-1.05,165
9.9,-0.9,176
9.9,-0.75,188
9.9,-0.6,143
9.9,-0.45,195
9.9,-0.3,69
9.9,-0.15,64
9.9,0.0,62
9.9,0.15,67
9.9,0.3,85
9.9,0.45,127
9.9,0.6,208
9.9,0.75,255
9.9,0.9,232
9.9,1.05,192
9.9,1.2,169
9.9,1.35,152
9.9,1.5,147
10.05,-1.5,138
10.05,-1.35,161
10.05,-1.2,161
10.05,-1.05,130
10.05,-0.9,149
10.05,-0.75,111
10.05,-0.6,21
10.05,-0.45,114
10.05,-0.3,90
10.05,-0.15,71
10.05,0.0,154
10.05,0.15,94
10.05,0.3,89
10.05,0.45,132
10.05,0.6,195
10.05,0.75,242
10.05,0.9,216
10.05,1.05,185
10.05,1.2,165
10.05,1.35,156
10.05,1.5,148
10.2,-1.5,144
10.2,-1.35,127
10.2,-1.2,121
10.2,-1.05,120
10.2,-0.9,132
10.2,-0.75,123
10.2,-0.6,155
10.2,-0.45,221
10.2,-0.3,102
10.2,-0.15,142
10.2,0.0,213
10.2,0.15,127
10.2,0.3,106
10.2,0.45,128
10.2,0.6,160
10.2,0.75,185
10.2,0.9,187
10.2,1.05,177
10.2,1.2,166
10.2,1.35,158
10.2,1.5,148
10.35,-1.5,102
10.35,-1.35,110
10.35,-1.2,108
10.35,-1.05,92
10.35,-0.9,115
10.35,-0.75,112
10.35,-0.6,184
10.35,-0.45,143
10.35,-0.3,102
10.35,-0.15,125
10.35,0.0,138
10.35,0.15,133
10.35,0.3,123
10.35,0.45,124
10.35,0.6,137
10.35,0.75,165
10.35,0.9,161
10.35,1.05,160
10.35,1.2,156
10.35,1.35,152
10.35,1.5,149
10.5,-1.5,92
10.5,-1.35,92
10.5,-1.2,92
10.5,-1.05,93
10.5,-0.9,86
10.5,-0.75,62
10.5,-0.6,27
10.5,-0.45,57
10.5,-0.3,66
10.5,-0.15,95
10.5,0.0,82
10.5,0.15,87
10.5,0.3,103
10.5,0.45,126
10.5,0.6,129
10.5,0.75,139
10.5,0.9,160
10.5,1.05,159
10.5,1.2,160
10.5,1.35,158
10.5,1.5,157
10.65,-1.5,113
10.65,-1.35,113
10.65,-1.2,113
10.65,-1.05,112
10.65,-0.9,97
10.65,-0.75,96
10.65,-0.6,15
10.65,-0.45,68
10.65,-0.3,120
10.65,-0.15,163
10.65,0.0,2
10.65,0.15,66
10.65,0.3,93
10.65,0.45,117
10.65,0.6,128
10.65,0.75,128
10.65,0.9,128
10.65,1.05,138
10.65,1.2,156
10.65,1.35,157
10.65,1.5,157
10.8,-1.5,116
10.8,-1.35,99
10.8,-1.2,102
10.8,-1.05,107
10.8,-0.9,118
10.8,-0.75,147
10.8,-0.6,147
10.8,-0.45,136
10.8,-0.3,116
10.8,-0.15,138
10.8,0.0,105
10.8,0.15,97
10.8,0.3,119
10.8,0.45,118
10.8,0.6,137
10.8,0.75,144
10.8,0.9,137
10.8,1.05,140
10.8,1.2,143
10.8,1.35,143
10.8,1.5,154
10.95,-1.5,119
10.95,-1.35,121
10.95,-1.2,125
10.95,-1.05,135
10.95,-0.9,157
10.95,-0.75,189
10.95,-0.6,248
10.95,-0.45,222
10.95,-0.3,255
10.95,-0.15,111
10.95,0.0,127
10.95,0.15,119
10.95,0.3,118
10.95,0.45,119
10.95,0.6,138
10.95,0.75,143
10.95,0.9,147
10.95,1.05,150
10.95,1.2,153
10.95,1.35,154
10.95,1.5,154
11.1,-1.5,120
11.1,-1.35,122
11.1,-1.2,126
11.1,-1.05,136
11.1,-0.9,157
11.1,-0.75,184
11.1,-0.6,194
11.1,-0.45,193
11.1,-0.3,182
11.1,-0.15,145
11.1,0.0,130
11.1,0.15,124
11.1,0.3,121
11.1,0.45,119
11.1,0.6,119
11.1,0.75,137
11.1,0.9,126
11.1,1.05,143
11.1,1.2,145
11.1,1.35,147
11.1,1.5,148
11.25,-1.5,117
11.25,-1.35,118
11.25,-1.2,119
11.25,-1.05,136
11.25,-0.9,138
11.25,-0.75,130
11.25,-0.6,103
11.25,-0.45,94
11.25,-0.3,97
11.25,-0.15,106
11.25,0.0,114
11.25,0.15,109
11.25,0.3,108
11.25,0.45,117
11.25,0.6,117
11.25,0.75,117
11.25,0.9,117
11.25,1.05,120
11.25,1.2,107
11.25,1.35,109
11.25,1.5,99
11.4,-1.5,87
11.4,-1.35,105
11.4,-1.2,103
11.4,-1.05,98
11.4,-0.9,82
11.4,-0.75,72
11.4,-0.6,57
11.4,-0.45,23
11.4,-0.3,34
11.4,-0.15,55
11.4,0.0,70
11.4,0.15,79
11.4,0.3,65
11.4,0.45,67
11.4,0.6,83
11.4,0.75,84
11.4,0.9,85
11.4,1.05,106
11.4,1.2,108
11.4,1.35,108
11.4,1.5,93
11.55,-1.5,81
11.55,-1.35,61
11.55,-1.2,56
11.55,-1.05,54
11.55,-0.9,54
11.55,-0.75,51
11.55,-0.6,56
11.55,-0.45,28
11.55,-0.3,13
11.55,-0.15,26
11.55,0.0,46
11.55,0.15,58
11.55,0.3,54
11.55,0.45,49
11.55,0.6,50
11.55,0.75,66
11.55,0.9,67
11.55,1.05,63
11.55,1.2,63
11.55,1.35,83
11.55,1.5,83
11.7,-1.5,39
11.7,-1.35,35
11.7,-1.2,36
11.7,-1.05,38
11.7,-0.9,40
11.7,-0.75,45
11.7,-0.6,46
11.7,-0.45,3
11.7,-0.3,13
11.7,-0.15,21
11.7,0.0,31
11.7,0.15,34
11.7,0.3,38
11.7,0.45,39
11.7,0.6,54
11.7,0.75,50
11.7,0.9,51
11.7,1.05,50
11.7,1.2,40
11.7,1.35,58
11.7,1.5,72
11.85,-1.5,38
11.85,-1.35,38
11.85,-1.2,39
11.85,-1.05,40
11.85,-0.9,40
11.85,-0.75,46
11.85,-0.6,59
11.85,-0.45,59
11.85,-0.3,51
11.85,-0.15,55
11.85,0.0,42
11.85,0.15,38
11.85,0.3,37
11.85,0.45,36
11.85,0.6,36
11.85,0.75,36
11.85,0.9,31
11.85,1.05,30
11.85,1.2,29
11.85,1.35,28
11.85,1.5,36
12.0,-1.5,52
12.0,-1.35,52
12.0,-1.2,68
12.0,-1.05,65
12.0,-0.9,60
12.0,-0.75,49
12.0,-0.6,65
12.0,-0.45,105
12.0,-0.3,55
12.0,-0.15,48
12.0,0.0,38
12.0,0.15,37
12.0,0.3,50
12.0,0.45,76
12.0,0.6,46
12.0,0.75,42
12.0,0.9,41
12.0,1.05,39
12.0,1.2,38
12.0,1.35,36
12.0,1.5,39
12.15,-1.5,65
12.15,-1.35,66
12.15,-1.2,79
12.15,-1.05,76
12.15,-0.9,56
12.15,-0.75,40
12.15,-0.6,0
12.15,-0.45,29
12.15,-0.3,58
12.15,-0.15,62
12.15,0.0,49
12.15,0.15,80
12.15,0.3,91
12.15,0.45,93
12.15,0.6,79
12.15,0.75,73
12.15,0.9,71
12.15,1.05,67
12.15,1.2,59
12.15,1.35,55
12.15,1.5,52
12.3,-1.5,68
12.3,-1.35,70
12.3,-1.2,72
12.3,-1.05,79
12.3,-0.9,73
12.3,-0.75,59
12.3,-0.6,3
12.3,-0.45,59
12.3,-0.3,60
12.3,-0.15,93
12.3,0.0,113
12.3,0.15,111
12.3,0.3,112
12.3,0.45,98
12.3,0.6,88
12.3,0.75,85
12.3,0.9,80
12.3,1.05,74
12.3,1.2,67
12.3,1.35,61
12.3,1.5,56
12.45,-1.5,67
12.45,-1.35,73
12.45,-1.2,78
12.45,-1.05,86
12.45,-0.9,105
12.45,-0.75,104
12.45,-0.6,131
12.45,-0.45,197
12.45,-0.3,112
12.45,-0.15,136
12.45,0.0,136
12.45,0.15,127
12.45,0.3,114
12.45,0.45,109
12.45,0.6,108
12.45,0.75,85
12.45,0.9,78
12.45,1.05,70
12.45,1.2,60
12.45,1.35,51
12.45,1.5,46
12.6,-1.5,45
12.6,-1.35,52
12.6,-1.2,79
12.6,-1.05,86
12.6,-0.9,89
12.6,-0.75,121
12.6,-0.6,107
12.6,-0.45,255
12.6,-0.3,146
12.6,-0.15,121
12.6,0.0,108
12.6,0.15,92
12.6,0.3,91
12.6,0.45,90
12.6,0.6,84
12.6,0.75,78
12.6,0.9,75
12.6,1.05,63
12.6,1.2,50
12.6,1.35,38
12.6,1.5,31
12.75,-1.5,28
12.75,-1.35,42
12.75,-1.2,72
12.75,-1.05,80
12.75,-0.9,82
12.75,-0.75,55
12.75,-0.6,78
12.75,-0.45,90
12.75,-0.3,83
12.75,-0.15,93
12.75,0.0,91
12.75,0.15,89
12.75,0.3,89
12.75,0.45,89
12.75,0.6,82
12.75,0.75,76
12.75,0.9,67
12.75,1.05,53
12.75,1.2,35
12.75,1.35,20
12.75,1.5,8
12.9,-1.5,5
12.9,-1.35,22
12.9,-1.2,46
12.9,-1.05,48
12.9,-0.9,44
12.9,-0.75,29
12.9,-0.6,10
12.9,-0.45,17
12.9,-0.3,60
12.9,-0.15,86
12.9,0.0,86
12.9,0.15,86
12.9,0.3,87
12.9,0.45,87
12.9,0.6,85
12.9,0.75,79
12.9,0.9,68
12.9,1.05,47
12.9,1.2,26
12.9,1.35,7
12.9,1.5,0
13.05,-1.5,0
13.05,-1.35,10
13.05,-1.2,29
13.05,-1.05,41
13.05,-0.9,43
13.05,-0.75,37
13.05,-0.6,27
13.05,-0.45,28
13.05,-0.3,47
13.05,-0.15,64
13.05,0.0,66
13.05,0.15,66
13.05,0.3,84
13.05,0.45,85
13.05,0.6,83
13.05,0.75,77
13.05,0.9,66
13.05,1.05,48
13.05,1.2,25
13.05,1.35,5
13.05,1.5,0
