-3.0,-1.5,0
-3.0,-1.35,6
-3.0,-1.2,31
-3.0,-1.05,50
-3.0,-0.9,59
-3.0,-0.75,66
-3.0,-0.6,73
-3.0,-0.45,83
-3.0,-0.3,104
-3.0,-0.15,149
-3.0,0.0,161
-3.0,0.15,106
-3.0,0.3,68
-3.0,0.45,49
-3.0,0.6,43
-3.0,0.75,43
-3.0,0.9,42
-3.0,1.05,36
-3.0,1.2,22
-3.0,1.35,3
-3.0,1.5,0
-2.85,-1.5,5
-2.85,-1.35,17
-2.85,-1.2,37
-2.85,-1.05,50
-2.85,-0.9,54
-2.85,-0.75,58
-2.85,-0.6,66
-2.85,-0.45,71
-2.85,-0.3,96
-2.85,-0.15,187
-2.85,0.0,255
-2.85,0.15,89
-2.85,0.3,46
-2.85,0.45,30
-2.85,0.6,30
-2.85,0.75,37
-2.85,0.9,40
-2.85,1.05,38
-2.85,1.2,27
-2.85,1.35,10
-2.85,1.5,2
-2.7,-1.5,28
-2.7,-1.35,35
-2.7,-1.2,45
-2.7,-1.05,50
-2.7,-0.9,45
-2.7,-0.75,36
-2.7,-0.6,55
-2.7,-0.45,67
-2.7,-0.3,67
-2.7,-0.15,121
-2.7,0.0,125
-2.7,0.15,67
-2.7,0.3,0
-2.7,0.45,5
-2.7,0.6,17
-2.7,0.75,37
-2.7,0.9,42
-2.7,1.05,41
-2.7,1.2,33
-2.7,1.35,23
-2.7,1.5,17
-2.55,-1.5,45
-2.55,-1.35,50
-2.55,-1.2,54
-2.55,-1.05,52
-2.55,-0.9,39
-2.55,-0.75,2
-2.55,-0.6,24
-2.55,-0.45,66
-2.55,-0.3,77
-2.55,-0.15,92
-2.55,0.0,93
-2.55,0.15,66
-2.55,0.3,33
-2.55,0.45,0
-2.55,0.6,39
-2.55,0.75,52
-2.55,0.9,52
-2.55,1.05,42
-2.55,1.2,38
-2.55,1.35,44
-2.55,1.5,40
-2.4,-1.5,55
-2.4,-1.35,58
-2.4,-1.2,60
-2.4,-1.05,59
-2.4,-0.9,55
-2.4,-0.75,48
-2.4,-0.6,54
-2.4,-0.45,74
-2.4,-0.3,82
-2.4,-0.15,90
-2.4,0.0,109
-2.4,0.15,90
-2.4,0.3,61
-2.4,0.45,49
-2.4,0.6,53
-2.4,0.75,58
-2.4,0.9,57
-2.4,1.05,45
-2.4,1.2,48
-2.4,1.35,54
-2.4,1.5,52
-2.25,-1.5,62
-2.25,-1.35,64
-2.25,-1.2,65
-2.25,-1.05,66
-2.25,-0.9,66
-2.25,-0.75,66
-2.25,-0.6,89
-2.25,-0.45,97
-2.25,-0.3,86
-2.25,-0.15,73
-2.25,0.0,108
-2.25,0.15,103
-2.25,0.3,67
-2.25,0.45,63
-2.25,0.6,61
-2.25,0.75,56
-2.25,0.9,56
-2.25,1.05,56
-2.25,1.2,55
-2.25,1.35,63
-2.25,1.5,62
-2.1,-1.5,66
-2.1,-1.35,68
-2.1,-1.2,70
-2.1,-1.05,72
-2.1,-0.9,74
-2.1,-0.75,85
-2.1,-0.6,126
-2.1,-0.45,124
-2.1,-0.3,94
-2.1,-0.15,80
-2.1,0.0,86
-2.1,0.15,92
-2.1,0.3,87
-2.1,0.45,72
-2.1,0.6,69
-2.1,0.75,68
-2.1,0.9,67
-2.1,1.05,74
-2.1,1.2,73
-2.1,1.35,72
-2.1,1.5,70
-1.95,-1.5,60
-1.95,-1.35,61
-1.95,-1.2,66
-1.95,-1.05,69
-1.95,-0.9,75
-1.95,-0.75,86
-1.95,-0.6,104
-1.95,-0.45,104
-1.95,-0.3,89
-1.95,-0.15,96
-1.95,0.0,97
-1.95,0.15,98
-1.95,0.3,106
-1.95,0.45,103
-1.95,0.6,100
-1.95,0.75,95
-1.95,0.9,91
-1.95,1.05,88
-1.95,1.2,78
-1.95,1.35,76
-1.95,1.5,87
-1.8,-1.5,60
-1.8,-1.35,60
-1.8,-1.2,62
-1.8,-1.05,69
-1.8,-0.9,73
-1.8,-0.75,77
-1.8,-0.6,84
-1.8,-0.45,97
-1.8,-0.3,99
-1.8,-0.15,103
-1.8,0.0,114
-1.8,0.15,118
-1.8,0.3,122
-1.8,0.45,132
-1.8,0.6,130
-1.8,0.75,124
-1.8,0.9,115
-1.8,1.05,110
-1.8,1.2,102
-1.8,1.35,100
-1.8,1.5,99
-1.65,-1.5,58
-1.65,-1.35,60
-1.65,-1.2,65
-1.65,-1.05,66
-1.65,-0.9,67
-1.65,-0.75,67
-1.65,-0.6,81
-1.65,-0.45,90
-1.65,-0.3,96
-1.65,-0.15,107
-1.65,0.0,108
-1.65,0.15,107
-1.65,0.3,103
-1.65,0.45,159
-1.65,0.6,158
-1.65,0.75,129
-1.65,0.9,113
-1.65,1.05,106
-1.65,1.2,104
-1.65,1.35,105
-1.65,1.5,104
-1.5,-1.5,58
-1.5,-1.35,59
-1.5,-1.2,67
-1.5,-1.05,67
-1.5,-0.9,66
-1.5,-0.75,66
-1.5,-0.6,80
-1.5,-0.45,91
-1.5,-0.3,104
-1.5,-0.15,104
-1.5,0.0,98
-1.5,0.15,83
-1.5,0.3,236
-1.5,0.45,255
-1.5,0.6,176
-1.5,0.75,114
-1.5,0.9,88
-1.5,1.05,95
-1.5,1.2,119
-1.5,1.35,108
-1.5,1.5,111
-1.35,-1.5,57
-1.35,-1.35,58
-1.35,-1.2,64
-1.35,-1.05,65
-1.35,-0.9,67
-1.35,-0.75,67
-1.35,-0.6,67
-1.35,-0.45,78
-1.35,-0.3,90
-1.35,-0.15,84
-1.35,0.0,91
-1.35,0.15,137
-1.35,0.3,234
-1.35,0.45,228
-1.35,0.6,162
-1.35,0.75,30
-1.35,0.9,37
-1.35,1.05,93
-1.35,1.2,120
-1.35,1.35,124
-1.35,1.5,141
-1.2,-1.5,51
-1.2,-1.35,64
-1.2,-1.2,64
-1.2,-1.05,64
-1.2,-0.9,62
-1.2,-0.75,61
-1.2,-0.6,64
-1.2,-0.45,68
-1.2,-0.3,80
-1.2,-0.15,88
-1.2,0.0,84
-1.2,0.15,120
-1.2,0.3,134
-1.2,0.45,252
-1.2,0.6,171
-1.2,0.75,69
-1.2,0.9,61
-1.2,1.05,102
-1.2,1.2,124
-1.2,1.35,136
-1.2,1.5,143
-1.05,-1.5,63
-1.05,-1.35,62
-1.05,-1.2,61
-1.05,-1.05,56
-1.05,-0.9,55
-1.05,-0.75,55
-1.05,-0.6,59
-1.05,-0.45,60
-1.05,-0.3,82
-1.05,-0.15,101
-1.05,0.0,103
-1.05,0.15,142
-1.05,0.3,162
-1.05,0.45,190
-1.05,0.6,194
-1.05,0.75,152
-1.05,0.9,133
-1.05,1.05,137
-1.05,1.2,146
-1.05,1.35,152
-1.05,1.5,157
-0.9,-1.5,63
-0.9,-1.35,53
-0.9,-1.2,51
-0.9,-1.05,48
-0.9,-0.9,45
-0.9,-0.75,41
-0.9,-0.6,42
-0.9,-0.45,46
-0.9,-0.3,72
-0.9,-0.15,96
-0.9,0.0,180
-0.9,0.15,203
-0.9,0.3,145
-0.9,0.45,210
-0.9,0.6,243
-0.9,0.75,186
-0.9,0.9,165
-0.9,1.05,157
-0.9,1.2,157
-0.9,1.35,157
-0.9,1.5,150
-0.75,-1.5,60
-0.75,-1.35,57
-0.75,-1.2,51
-0.75,-1.05,46
-0.75,-0.9,37
-0.75,-0.75,23
-0.75,-0.6,10
-0.75,-0.45,28
-0.75,-0.3,59
-0.75,-0.15,57
-0.75,0.0,55
-0.75,0.15,170
-0.75,0.3,128
-0.75,0.45,58
-0.75,0.6,163
-0.75,0.75,163
-0.75,0.9,155
-0.75,1.05,148
-0.75,1.2,152
-0.75,1.35,151
-0.75,1.5,150
-0.6,-1.5,61
-0.6,-1.35,59
-0.6,-1.2,56
-0.6,-1.05,51
-0.6,-0.9,38
-0.6,-0.75,18
-0.6,-0.6,0
-0.6,-0.45,23
-0.6,-0.3,32
-0.6,-0.15,41
-0.6,0.0,21
-0.6,0.15,88
-0.6,0.3,14
-0.6,0.45,96
-0.6,0.6,129
-0.6,0.75,143
-0.6,0.9,144
-0.6,1.05,140
-0.6,1.2,136
-0.6,1.35,132
-0.6,1.5,130
-0.45,-1.5,63
-0.45,-1.35,64
-0.45,-1.2,64
-0.45,-1.05,61
-0.45,-0.9,52
-0.45,-0.75,44
-0.45,-0.6,40
-0.45,-0.45,45
-0.45,-0.3,19
-0.45,-0.15,14
-0.45,0.0,19
-0.45,0.15,42
-0.45,0.3,78
-0.45,0.45,113
-0.45,0.6,140
-0.45,0.75,139
-0.45,0.9,134
-0.45,1.05,123
-0.45,1.2,114
-0.45,1.35,109
-0.45,1.5,106
-0.3,-1.5,64
-0.3,-1.35,64
-0.3,-1.2,61
-0.3,-1.05,65
-0.3,-0.9,65
-0.3,-0.75,67
-0.3,-0.6,74
-0.3,-0.45,95
-0.3,-0.3,67
-0.3,-0.15,39
-0.3,0.0,51
-0.3,0.15,63
-0.3,0.3,78
-0.3,0.45,159
-0.3,0.6,223
-0.3,0.75,150
-0.3,0.9,125
-0.3,1.05,117
-0.3,1.2,112
-0.3,1.35,80
-0.3,1.5,79
-0.15,-1.5,62
-0.15,-1.35,62
-0.15,-1.2,64
-0.15,-1.05,67
-0.15,-0.9,75
-0.15,-0.75,82
-0.15,-0.6,93
-0.15,-0.45,114
-0.15,-0.3,96
-0.15,-0.15,67
-0.15,0.0,93
-0.15,0.15,81
-0.15,0.3,74
-0.15,0.45,131
-0.15,0.6,112
-0.15,0.75,102
-0.15,0.9,90
-0.15,1.05,77
-0.15,1.2,85
-0.15,1.35,79
-0.15,1.5,80
0.0,-1.5,62
0.0,-1.35,63
0.0,-1.2,65
0.0,-1.05,69
0.0,-0.9,75
0.0,-0.75,85
0.0,-0.6,105
0.0,-0.45,162
0.0,-0.3,197
0.0,-0.15,117
0.0,0.0,255
0.0,0.15,80
0.0,0.3,20
0.0,0.45,87
0.0,0.6,80
0.0,0.75,84
0.0,0.9,83
0.0,1.05,81
0.0,1.2,71
0.0,1.35,71
0.0,1.5,80
0.15,-1.5,62
0.15,-1.35,62
0.15,-1.2,64
0.15,-1.05,66
0.15,-0.9,75
0.15,-0.75,85
0.15,-0.6,97
0.15,-0.45,117
0.15,-0.3,88
0.15,-0.15,44
0.15,0.0,255
0.15,0.15,99
0.15,0.3,90
0.15,0.45,86
0.15,0.6,64
0.15,0.75,67
0.15,0.9,68
0.15,1.05,72
0.15,1.2,71
0.15,1.35,72
0.15,1.5,73
0.3,-1.5,67
0.3,-1.35,67
0.3,-1.2,67
0.3,-1.05,67
0.3,-0.9,62
0.3,-0.75,63
0.3,-0.6,64
0.3,-0.45,73
0.3,-0.3,71
0.3,-0.15,23
0.3,0.0,81
0.3,0.15,255
0.3,0.3,109
0.3,0.45,55
0.3,0.6,27
0.3,0.75,63
0.3,0.9,62
0.3,1.05,64
0.3,1.2,67
0.3,1.35,69
0.3,1.5,80
0.45,-1.5,66
0.45,-1.35,65
0.45,-1.2,64
0.45,-1.05,57
0.45,-0.9,51
0.45,-0.75,37
0.45,-0.6,32
0.45,-0.45,61
0.45,-0.3,90
0.45,-0.15,87
0.45,0.0,89
0.45,0.15,71
0.45,0.3,65
0.45,0.45,65
0.45,0.6,20
0.45,0.75,45
0.45,0.9,60
0.45,1.05,68
0.45,1.2,73
0.45,1.35,78
0.45,1.5,85
0.6,-1.5,57
0.6,-1.35,57
0.6,-1.2,55
0.6,-1.05,52
0.6,-0.9,57
0.6,-0.75,28
0.6,-0.6,0
0.6,-0.45,60
0.6,-0.3,93
0.6,-0.15,114
0.6,0.0,70
0.6,0.15,28
0.6,0.3,66
0.6,0.45,167
0.6,0.6,44
0.6,0.75,24
0.6,0.9,64
0.6,1.05,66
0.6,1.2,70
0.6,1.35,73
0.6,1.5,73
0.75,-1.5,44
0.75,-1.35,48
0.75,-1.2,52
0.75,-1.05,51
0.75,-0.9,40
0.75,-0.75,28
0.75,-0.6,35
0.75,-0.45,50
0.75,-0.3,11
0.75,-0.15,145
0.75,0.0,135
0.75,0.15,92
0.75,0.3,117
0.75,0.45,131
0.75,0.6,72
0.75,0.75,62
0.75,0.9,66
0.75,1.05,69
0.75,1.2,71
0.75,1.35,73
0.75,1.5,78
0.9,-1.5,46
0.9,-1.35,52
0.9,-1.2,61
0.9,-1.05,61
0.9,-0.9,48
0.9,-0.75,44
0.9,-0.6,63
0.9,-0.45,76
0.9,-0.3,62
0.9,-0.15,53
0.9,0.0,100
0.9,0.15,84
0.9,0.3,100
0.9,0.45,142
0.9,0.6,122
0.9,0.75,86
0.9,0.9,66
0.9,1.05,75
0.9,1.2,80
0.9,1.35,81
0.9,1.5,81
1.05,-1.5,52
1.05,-1.35,55
1.05,-1.2,60
1.05,-1.05,59
1.05,-0.9,52
1.05,-0.75,58
1.05,-0.6,69
1.05,-0.45,81
1.05,-0.3,95
1.05,-0.15,64
1.05,0.0,83
1.05,0.15,85
1.05,0.3,74
1.05,0.45,246
1.05,0.6,156
1.05,0.75,105
1.05,0.9,81
1.05,1.05,81
1.05,1.2,81
1.05,1.35,81
1.05,1.5,81
1.2,-1.5,41
1.2,-1.35,43
1.2,-1.2,44
1.2,-1.05,50
1.2,-0.9,46
1.2,-0.75,51
1.2,-0.6,60
1.2,-0.45,43
1.2,-0.3,95
1.2,-0.15,92
1.2,0.0,89
1.2,0.15,74
1.2,0.3,101
1.2,0.45,74
1.2,0.6,110
1.2,0.75,92
1.2,0.9,79
1.2,1.05,76
1.2,1.2,74
1.2,1.35,72
1.2,1.5,67
1.35,-1.5,40
1.35,-1.35,39
1.35,-1.2,37
1.35,-1.05,29
1.35,-0.9,30
1.35,-0.75,15
1.35,-0.6,42
1.35,-0.45,27
1.35,-0.3,65
1.35,-0.15,96
1.35,0.0,124
1.35,0.15,102
1.35,0.3,97
1.35,0.45,73
1.35,0.6,73
1.35,0.75,72
1.35,0.9,70
1.35,1.05,72
1.35,1.2,67
1.35,1.35,66
1.35,1.5,66
1.5,-1.5,39
1.5,-1.35,42
1.5,-1.2,35
1.5,-1.05,25
1.5,-0.9,13
1.5,-0.75,0
1.5,-0.6,10
1.5,-0.45,11
1.5,-0.3,59
1.5,-0.15,113
1.5,0.0,189
1.5,0.15,140
1.5,0.3,33
1.5,0.45,28
1.5,0.6,39
1.5,0.75,47
1.5,0.9,56
1.5,1.05,60
1.5,1.2,61
1.5,1.35,63
1.5,1.5,59
1.65,-1.5,48
1.65,-1.35,48
1.65,-1.2,32
1.65,-1.05,26
1.65,-0.9,18
1.65,-0.75,5
1.65,-0.6,11
1.65,-0.45,29
1.65,-0.3,62
1.65,-0.15,85
1.65,0.0,47
1.65,0.15,64
1.65,0.3,20
1.65,0.45,18
1.65,0.6,16
1.65,0.75,32
1.65,0.9,36
1.65,1.05,53
1.65,1.2,52
1.65,1.35,54
1.65,1.5,56
1.8,-1.5,48
1.8,-1.35,46
1.8,-1.2,44
1.8,-1.05,44
1.8,-0.9,36
1.8,-0.75,32
1.8,-0.6,38
1.8,-0.45,51
1.8,-0.3,54
1.8,-0.15,21
1.8,0.0,22
1.8,0.15,24
1.8,0.3,24
1.8,0.45,16
1.8,0.6,24
1.8,0.75,47
1.8,0.9,35
1.8,1.05,35
1.8,1.2,35
1.8,1.35,36
1.8,1.5,36
1.95,-1.5,56
1.95,-1.35,55
1.95,-1.2,51
1.95,-1.05,51
1.95,-0.9,50
1.95,-0.75,55
1.95,-0.6,66
1.95,-0.45,65
1.95,-0.3,42
1.95,-0.15,21
1.95,0.0,15
1.95,0.15,61
1.95,0.3,64
1.95,0.45,32
1.95,0.6,37
1.95,0.75,43
1.95,0.9,36
1.95,1.05,35
1.95,1.2,35
1.95,1.35,35
1.95,1.5,35
2.1,-1.5,58
2.1,-1.35,51
2.1,-1.2,53
2.1,-1.05,60
2.1,-0.9,65
2.1,-0.75,76
2.1,-0.6,82
2.1,-0.45,91
2.1,-0.3,55
2.1,-0.15,34
2.1,0.0,44
2.1,0.15,2
2.1,0.3,42
2.1,0.45,36
2.1,0.6,39
2.1,0.75,37
2.1,0.9,39
2.1,1.05,38
2.1,1.2,49
2.1,1.35,46
2.1,1.5,46
2.25,-1.5,56
2.25,-1.35,58
2.25,-1.2,60
2.25,-1.05,67
2.25,-0.9,71
2.25,-0.75,83
2.25,-0.6,102
2.25,-0.45,101
2.25,-0.3,15
2.25,-0.15,46
2.25,0.0,34
2.25,0.15,36
2.25,0.3,44
2.25,0.45,41
2.25,0.6,62
2.25,0.75,53
2.25,0.9,53
2.25,1.05,57
2.25,1.2,52
2.25,1.35,52
2.25,1.5,52
2.4,-1.5,62
2.4,-1.35,63
2.4,-1.2,64
2.4,-1.05,65
2.4,-0.9,66
2.4,-0.75,71
2.4,-0.6,89
2.4,-0.45,207
2.4,-0.3,34
2.4,-0.15,33
2.4,0.0,36
2.4,0.15,121
2.4,0.3,38
2.4,0.45,46
2.4,0.6,65
2.4,0.75,71
2.4,0.9,69
2.4,1.05,69
2.4,1.2,68
2.4,1.35,67
2.4,1.5,54
2.55,-1.5,64
2.55,-1.35,64
2.55,-1.2,64
2.55,-1.05,64
2.55,-0.9,55
2.55,-0.75,50
2.55,-0.6,15
2.55,-0.45,60
2.55,-0.3,54
2.55,-0.15,63
2.55,0.0,64
2.55,0.15,99
2.55,0.3,94
2.55,0.45,103
2.55,0.6,79
2.55,0.75,71
2.55,0.9,68
2.55,1.05,67
2.55,1.2,67
2.55,1.35,84
2.55,1.5,65
2.7,-1.5,58
2.7,-1.35,57
2.7,-1.2,56
2.7,-1.05,59
2.7,-0.9,57
2.7,-0.75,53
2.7,-0.6,51
2.7,-0.45,55
2.7,-0.3,66
2.7,-0.15,66
2.7,0.0,56
2.7,0.15,14
2.7,0.3,119
2.7,0.45,107
2.7,0.6,76
2.7,0.75,70
2.7,0.9,83
2.7,1.05,85
2.7,1.2,85
2.7,1.35,85
2.7,1.5,85
2.85,-1.5,50
2.85,-1.35,54
2.85,-1.2,53
2.85,-1.05,51
2.85,-0.9,56
2.85,-0.75,49
2.85,-0.6,46
2.85,-0.45,19
2.85,-0.3,88
2.85,-0.15,50
2.85,0.0,57
2.85,0.15,25
2.85,0.3,27
2.85,0.45,3
2.85,0.6,51
2.85,0.75,64
2.85,0.9,82
2.85,1.05,84
2.85,1.2,85
2.85,1.35,72
2.85,1.5,72
3.0,-1.5,36
3.0,-1.35,36
3.0,-1.2,35
3.0,-1.05,39
3.0,-0.9,52
3.0,-0.75,47
3.0,-0.6,29
3.0,-0.45,40
3.0,-0.3,50
3.0,-0.15,63
3.0,0.0,63
3.0,0.15,49
3.0,0.3,41
3.0,0.45,60
3.0,0.6,82
3.0,0.75,92
3.0,0.9,99
3.0,1.05,100
3.0,1.2,81
3.0,1.35,80
3.0,1.5,79
3.15,-1.5,37
3.15,-1.35,41
3.15,-1.2,41
3.15,-1.05,41
3.15,-0.9,54
3.15,-0.75,50
3.15,-0.6,45
3.15,-0.45,85
3.15,-0.3,67
3.15,-0.15,127
3.15,0.0,77
3.15,0.15,176
3.15,0.3,97
3.15,0.45,115
3.15,0.6,135
3.15,0.75,128
3.15,0.9,123
3.15,1.05,105
3.15,1.2,88
3.15,1.35,86
3.15,1.5,85
3.3,-1.5,47
3.3,-1.35,47
3.3,-1.2,47
3.3,-1.05,47
3.3,-0.9,56
3.3,-0.75,56
3.3,-0.6,61
3.3,-0.45,73
3.3,-0.3,129
3.3,-0.15,71
3.3,0.0,85
3.3,0.15,152
3.3,0.3,123
3.3,0.45,229
3.3,0.6,192
3.3,0.75,135
3.3,0.9,113
3.3,1.05,99
3.3,1.2,113
3.3,1.35,96
3.3,1.5,94
3.45,-1.5,48
3.45,-1.35,48
3.45,-1.2,46
3.45,-1.05,46
3.45,-0.9,46
3.45,-0.75,46
3.45,-0.6,35
3.45,-0.45,47
3.45,-0.3,52
3.45,-0.15,68
3.45,0.0,114
3.45,0.15,127
3.45,0.3,38
3.45,0.45,168
3.45,0.6,174
3.45,0.75,138
3.45,0.9,111
3.45,1.05,102
3.45,1.2,97
3.45,1.35,76
3.45,1.5,74
3.6,-1.5,62
3.6,-1.35,64
3.6,-1.2,63
3.6,-1.05,61
3.6,-0.9,52
3.6,-0.75,59
3.6,-0.6,41
3.6,-0.45,63
3.6,-0.3,90
3.6,-0.15,242
3.6,0.0,202
3.6,0.15,158
3.6,0.3,72
3.6,0.45,100
3.6,0.6,120
3.6,0.75,127
3.6,0.9,128
3.6,1.05,112
3.6,1.2,111
3.6,1.35,110
3.6,1.5,91
3.75,-1.5,65
3.75,-1.35,63
3.75,-1.2,65
3.75,-1.05,60
3.75,-0.9,58
3.75,-0.75,63
3.75,-0.6,68
3.75,-0.45,112
3.75,-0.3,119
3.75,-0.15,114
3.75,0.0,168
3.75,0.15,156
3.75,0.3,55
3.75,0.45,31
3.75,0.6,87
3.75,0.75,107
3.75,0.9,105
3.75,1.05,109
3.75,1.2,111
3.75,1.35,84
3.75,1.5,74
3.9,-1.5,77
3.9,-1.35,85
3.9,-1.2,85
3.9,-1.05,85
3.9,-0.9,72
3.9,-0.75,84
3.9,-0.6,95
3.9,-0.45,94
3.9,-0.3,188
3.9,-0.15,101
3.9,0.0,71
3.9,0.15,109
3.9,0.3,42
3.9,0.45,46
3.9,0.6,72
3.9,0.75,85
3.9,0.9,66
3.9,1.05,73
3.9,1.2,56
3.9,1.35,57
3.9,1.5,61
4.05,-1.5,85
4.05,-1.35,81
4.05,-1.2,78
4.05,-1.05,77
4.05,-0.9,84
4.05,-0.75,78
4.05,-0.6,98
4.05,-0.45,180
4.05,-0.3,65
4.05,-0.15,99
4.05,0.0,82
4.05,0.15,80
4.05,0.3,55
4.05,0.45,60
4.05,0.6,54
4.05,0.75,37
4.05,0.9,50
4.05,1.05,51
4.05,1.2,53
4.05,1.35,53
4.05,1.5,54
4.2,-1.5,111
4.2,-1.35,111
4.2,-1.2,107
4.2,-1.05,93
4.2,-0.9,96
4.2,-0.75,80
4.2,-0.6,56
4.2,-0.45,34
4.2,-0.3,63
4.2,-0.15,76
4.2,0.0,32
4.2,0.15,24
4.2,0.3,48
4.2,0.45,53
4.2,0.6,50
4.2,0.75,43
4.2,0.9,39
4.2,1.05,39
4.2,1.2,39
4.2,1.35,55
4.2,1.5,56
4.35,-1.5,108
4.35,-1.35,108
4.35,-1.2,115
4.35,-1.05,122
4.35,-0.9,143
4.35,-0.75,239
4.35,-0.6,46
4.35,-0.45,37
4.35,-0.3,139
4.35,-0.15,42
4.35,0.0,40
4.35,0.15,36
4.35,0.3,50
4.35,0.45,47
4.35,0.6,49
4.35,0.75,51
4.35,0.9,50
4.35,1.05,50
4.35,1.2,50
4.35,1.35,65
4.35,1.5,66
4.5,-1.5,108
4.5,-1.35,115
4.5,-1.2,115
4.5,-1.05,126
4.5,-0.9,145
4.5,-0.75,159
4.5,-0.6,96
4.5,-0.45,109
4.5,-0.3,79
4.5,-0.15,70
4.5,0.0,46
4.5,0.15,50
4.5,0.3,57
4.5,0.45,49
4.5,0.6,41
4.5,0.75,49
4.5,0.9,52
4.5,1.05,68
4.5,1.2,71
4.5,1.35,67
4.5,1.5,65
4.65,-1.5,114
4.65,-1.35,115
4.65,-1.2,115
4.65,-1.05,113
4.65,-0.9,142
4.65,-0.75,145
4.65,-0.6,135
4.65,-0.45,163
4.65,-0.3,52
4.65,-0.15,108
4.65,0.0,64
4.65,0.15,58
4.65,0.3,59
4.65,0.45,7
4.65,0.6,25
4.65,0.75,58
4.65,0.9,67
4.65,1.05,66
4.65,1.2,68
4.65,1.35,94
4.65,1.5,96
4.8,-1.5,108
4.8,-1.35,109
4.8,-1.2,112
4.8,-1.05,87
4.8,-0.9,166
4.8,-0.75,167
4.8,-0.6,69
4.8,-0.45,174
4.8,-0.3,195
4.8,-0.15,52
4.8,0.0,47
4.8,0.15,56
4.8,0.3,59
4.8,0.45,58
4.8,0.6,83
4.8,0.75,91
4.8,0.9,96
4.8,1.05,102
4.8,1.2,103
4.8,1.35,103
4.8,1.5,94
4.95,-1.5,106
4.95,-1.35,99
4.95,-1.2,101
4.95,-1.05,103
4.95,-0.9,133
4.95,-0.75,110
4.95,-0.6,4
4.95,-0.45,91
4.95,-0.3,81
4.95,-0.15,52
4.95,0.0,8
4.95,0.15,6
4.95,0.3,101
4.95,0.45,144
4.95,0.6,130
4.95,0.75,116
4.95,0.9,113
4.95,1.05,106
4.95,1.2,99
4.95,1.35,103
4.95,1.5,102
5.1,-1.5,91
5.1,-1.35,76
5.1,-1.2,76
5.1,-1.05,73
5.1,-0.9,68
5.1,-0.75,81
5.1,-0.6,110
5.1,-0.45,102
5.1,-0.3,107
5.1,-0.15,93
5.1,0.0,63
5.1,0.15,67
5.1,0.3,255
5.1,0.45,255
5.1,0.6,157
5.1,0.75,119
5.1,0.9,110
5.1,1.05,105
5.1,1.2,101
5.1,1.35,99
5.1,1.5,98
5.25,-1.5,98
5.25,-1.35,98
5.25,-1.2,89
5.25,-1.05,54
5.25,-0.9,1
5.25,-0.75,31
5.25,-0.6,48
5.25,-0.45,38
5.25,-0.3,146
5.25,-0.15,236
5.25,0.0,106
5.25,0.15,62
5.25,0.3,170
5.25,0.45,111
5.25,0.6,71
5.25,0.75,104
5.25,0.9,104
5.25,1.05,102
5.25,1.2,100
5.25,1.35,98
5.25,1.5,99
5.4,-1.5,98
5.4,-1.35,93
5.4,-1.2,79
5.4,-1.05,50
5.4,-0.9,42
5.4,-0.75,55
5.4,-0.6,72
5.4,-0.45,64
5.4,-0.3,0
5.4,-0.15,189
5.4,0.0,75
5.4,0.15,56
5.4,0.3,134
5.4,0.45,86
5.4,0.6,67
5.4,0.75,84
5.4,0.9,91
5.4,1.05,90
5.4,1.2,90
5.4,1.35,90
5.4,1.5,90
5.55,-1.5,105
5.55,-1.35,97
5.55,-1.2,102
5.55,-1.05,78
5.55,-0.9,46
5.55,-0.75,42
5.55,-0.6,212
5.55,-0.45,255
5.55,-0.3,205
5.55,-0.15,48
5.55,0.0,137
5.55,0.15,47
5.55,0.3,83
5.55,0.45,42
5.55,0.6,58
5.55,0.75,71
5.55,0.9,79
5.55,1.05,80
5.55,1.2,82
5.55,1.35,84
5.55,1.5,85
5.7,-1.5,110
5.7,-1.35,105
5.7,-1.2,104
5.7,-1.05,99
5.7,-0.9,103
5.7,-0.75,131
5.7,-0.6,94
5.7,-0.45,69
5.7,-0.3,69
5.7,-0.15,187
5.7,0.0,115
5.7,0.15,61
5.7,0.3,57
5.7,0.45,0
5.7,0.6,21
5.7,0.75,30
5.7,0.9,46
5.7,1.05,49
5.7,1.2,74
5.7,1.35,77
5.7,1.5,79
5.85,-1.5,115
5.85,-1.35,116
5.85,-1.2,118
5.85,-1.05,127
5.85,-0.9,132
5.85,-0.75,139
5.85,-0.6,129
5.85,-0.45,72
5.85,-0.3,239
5.85,-0.15,41
5.85,0.0,147
5.85,0.15,79
5.85,0.3,6
5.85,0.45,18
5.85,0.6,30
5.85,0.75,37
5.85,0.9,41
5.85,1.05,45
5.85,1.2,48
5.85,1.35,50
5.85,1.5,52
6.0,-1.5,117
6.0,-1.35,106
6.0,-1.2,108
6.0,-1.05,113
6.0,-0.9,128
6.0,-0.75,188
6.0,-0.6,96
6.0,-0.45,110
6.0,-0.3,83
6.0,-0.15,79
6.0,0.0,66
6.0,0.15,92
6.0,0.3,17
6.0,0.45,22
6.0,0.6,28
6.0,0.75,48
6.0,0.9,54
6.0,1.05,41
6.0,1.2,53
6.0,1.35,55
6.0,1.5,71
6.15,-1.5,124
6.15,-1.35,124
6.15,-1.2,106
6.15,-1.05,110
6.15,-0.9,118
6.15,-0.75,104
6.15,-0.6,76
6.15,-0.45,71
6.15,-0.3,45
6.15,-0.15,60
6.15,0.0,15
6.15,0.15,61
6.15,0.3,19
6.15,0.45,17
6.15,0.6,55
6.15,0.75,68
6.15,0.9,74
6.15,1.05,95
6.15,1.2,80
6.15,1.35,80
6.15,1.5,63
6.3,-1.5,81
6.3,-1.35,87
6.3,-1.2,88
6.3,-1.05,88
6.3,-0.9,90
6.3,-0.75,74
6.3,-0.6,69
6.3,-0.45,69
6.3,-0.3,86
6.3,-0.15,29
6.3,0.0,55
6.3,0.15,111
6.3,0.3,94
6.3,0.45,76
6.3,0.6,77
6.3,0.75,77
6.3,0.9,75
6.3,1.05,74
6.3,1.2,78
6.3,1.35,77
6.3,1.5,63
6.45,-1.5,123
6.45,-1.35,124
6.45,-1.2,128
6.45,-1.05,115
6.45,-0.9,123
6.45,-0.75,94
6.45,-0.6,73
6.45,-0.45,77
6.45,-0.3,223
6.45,-0.15,124
6.45,0.0,142
6.45,0.15,180
6.45,0.3,226
6.45,0.45,145
6.45,0.6,113
6.45,0.75,100
6.45,0.9,95
6.45,1.05,86
6.45,1.2,82
6.45,1.35,79
6.45,1.5,73
6.6,-1.5,106
6.6,-1.35,108
6.6,-1.2,111
6.6,-1.05,119
6.6,-0.9,132
6.6,-0.75,197
6.6,-0.6,27
6.6,-0.45,54
6.6,-0.3,33
6.6,-0.15,170
6.6,0.0,80
6.6,0.15,50
6.6,0.3,169
6.6,0.45,141
6.6,0.6,115
6.6,0.75,99
6.6,0.9,90
6.6,1.05,84
6.6,1.2,85
6.6,1.35,79
6.6,1.5,59
6.75,-1.5,83
6.75,-1.35,83
6.75,-1.2,110
6.75,-1.05,115
6.75,-0.9,114
6.75,-0.75,114
6.75,-0.6,183
6.75,-0.45,21
6.75,-0.3,48
6.75,-0.15,96
6.75,0.0,71
6.75,0.15,50
6.75,0.3,92
6.75,0.45,103
6.75,0.6,99
6.75,0.75,88
6.75,0.9,81
6.75,1.05,77
6.75,1.2,58
6.75,1.35,56
6.75,1.5,55
6.9,-1.5,83
6.9,-1.35,99
6.9,-1.2,96
6.9,-1.05,93
6.9,-0.9,94
6.9,-0.75,81
6.9,-0.6,169
6.9,-0.45,35
6.9,-0.3,74
6.9,-0.15,118
6.9,0.0,70
6.9,0.15,49
6.9,0.3,62
6.9,0.45,67
6.9,0.6,74
6.9,0.75,72
6.9,0.9,53
6.9,1.05,50
6.9,1.2,50
6.9,1.35,50
6.9,1.5,51
7.05,-1.5,79
7.05,-1.35,75
7.05,-1.2,55
7.05,-1.05,44
7.05,-0.9,34
7.05,-0.75,64
7.05,-0.6,18
7.05,-0.45,13
7.05,-0.3,109
7.05,-0.15,57
7.05,0.0,3
7.05,0.15,59
7.05,0.3,59
7.05,0.45,64
7.05,0.6,49
7.05,0.75,45
7.05,0.9,44
7.05,1.05,46
7.05,1.2,52
7.05,1.35,57
7.05,1.5,61
7.2,-1.5,64
7.2,-1.35,43
7.2,-1.2,39
7.2,-1.05,25
7.2,-0.9,4
7.2,-0.75,65
7.2,-0.6,111
7.2,-0.45,217
7.2,-0.3,38
7.2,-0.15,77
7.2,0.0,108
7.2,0.15,129
7.2,0.3,57
7.2,0.45,46
7.2,0.6,49
7.2,0.75,26
7.2,0.9,4
7.2,1.05,19
7.2,1.2,30
7.2,1.35,40
7.2,1.5,45
7.35,-1.5,71
7.35,-1.35,70
7.35,-1.2,72
7.35,-1.05,71
7.35,-0.9,84
7.35,-0.75,102
7.35,-0.6,0
7.35,-0.45,36
7.35,-0.3,25
7.35,-0.15,168
7.35,0.0,68
7.35,0.15,60
7.35,0.3,12
7.35,0.45,27
7.35,0.6,39
7.35,0.75,16
7.35,0.9,0
7.35,1.05,17
7.35,1.2,32
7.35,1.35,24
7.35,1.5,28
7.5,-1.5,63
7.5,-1.35,72
7.5,-1.2,77
7.5,-1.05,83
7.5,-0.9,110
7.5,-0.75,111
7.5,-0.6,134
7.5,-0.45,25
7.5,-0.3,25
7.5,-0.15,99
7.5,0.0,113
7.5,0.15,113
7.5,0.3,66
7.5,0.45,41
7.5,0.6,19
7.5,0.75,18
7.5,0.9,14
7.5,1.05,18
7.5,1.2,23
7.5,1.35,28
7.5,1.5,31
7.65,-1.5,63
7.65,-1.35,63
7.65,-1.2,63
7.65,-1.05,65
7.65,-0.9,47
7.65,-0.75,106
7.65,-0.6,48
7.65,-0.45,67
7.65,-0.3,4
7.65,-0.15,101
7.65,0.0,84
7.65,0.15,99
7.65,0.3,67
7.65,0.45,21
7.65,0.6,0
7.65,0.75,17
7.65,0.9,22
7.65,1.05,24
7.65,1.2,26
7.65,1.35,50
7.65,1.5,55
7.8,-1.5,58
7.8,-1.35,58
7.8,-1.2,59
7.8,-1.05,49
7.8,-0.9,27
7.8,-0.75,47
7.8,-0.6,52
7.8,-0.45,34
7.8,-0.3,27
7.8,-0.15,0
7.8,0.0,8
7.8,0.15,49
7.8,0.3,52
7.8,0.45,31
7.8,0.6,15
7.8,0.75,17
7.8,0.9,23
7.8,1.05,42
7.8,1.2,51
7.8,1.35,55
7.8,1.5,59
7.95,-1.5,57
7.95,-1.35,59
7.95,-1.2,57
7.95,-1.05,53
7.95,-0.9,50
7.95,-0.75,42
7.95,-0.6,43
7.95,-0.45,35
7.95,-0.3,8
7.95,-0.15,24
7.95,0.0,27
7.95,0.15,26
7.95,0.3,32
7.95,0.45,45
7.95,0.6,18
7.95,0.75,12
7.95,0.9,22
7.95,1.05,29
7.95,1.2,33
7.95,1.35,39
7.95,1.5,41
8.1,-1.5,29
8.1,-1.35,29
8.1,-1.2,24
8.1,-1.05,30
8.1,-0.9,32
8.1,-0.75,37
8.1,-0.6,20
8.1,-0.45,43
8.1,-0.3,226
8.1,-0.15,35
8.1,0.0,87
8.1,0.15,65
8.1,0.3,65
8.1,0.45,41
8.1,0.6,0
8.1,0.75,16
8.1,0.9,41
8.1,1.05,52
8.1,1.2,55
8.1,1.35,57
8.1,1.5,42
8.25,-1.5,23
8.25,-1.35,22
8.25,-1.2,22
8.25,-1.05,21
8.25,-0.9,20
8.25,-0.75,20
8.25,-0.6,26
8.25,-0.45,35
8.25,-0.3,48
8.25,-0.15,226
8.25,0.0,235
8.25,0.15,132
8.25,0.3,81
8.25,0.45,81
8.25,0.6,58
8.25,0.75,55
8.25,0.9,64
8.25,1.05,68
8.25,1.2,69
8.25,1.35,64
8.25,1.5,63
8.4,-1.5,24
8.4,-1.35,29
8.4,-1.2,28
8.4,-1.05,22
8.4,-0.9,18
8.4,-0.75,4
8.4,-0.6,1
8.4,-0.45,20
8.4,-0.3,11
8.4,-0.15,47
8.4,0.0,75
8.4,0.15,84
8.4,0.3,34
8.4,0.45,106
8.4,0.6,126
8.4,0.75,107
8.4,0.9,92
8.4,1.05,83
8.4,1.2,78
8.4,1.35,85
8.4,1.5,84
8.55,-1.5,52
8.55,-1.35,51
8.55,-1.2,60
8.55,-1.05,41
8.55,-0.9,36
8.55,-0.75,26
8.55,-0.6,22
8.55,-0.45,2
8.55,-0.3,140
8.55,-0.15,62
8.55,0.0,65
8.55,0.15,78
8.55,0.3,47
8.55,0.45,236
8.55,0.6,253
8.55,0.75,163
8.55,0.9,122
8.55,1.05,109
8.55,1.2,102
8.55,1.35,94
8.55,1.5,92
8.7,-1.5,83
8.7,-1.35,82
8.7,-1.2,99
8.7,-1.05,81
8.7,-0.9,84
8.7,-0.75,76
8.7,-0.6,100
8.7,-0.45,70
8.7,-0.3,57
8.7,-0.15,60
8.7,0.0,44
8.7,0.15,60
8.7,0.3,139
8.7,0.45,255
8.7,0.6,255
8.7,0.75,149
8.7,0.9,115
8.7,1.05,104
8.7,1.2,99
8.7,1.35,108
8.7,1.5,106
8.85,-1.5,132
8.85,-1.35,131
8.85,-1.2,130
8.85,-1.05,121
8.85,-0.9,110
8.85,-0.75,82
8.85,-0.6,184
8.85,-0.45,37
8.85,-0.3,56
8.85,-0.15,6
8.85,0.0,15
8.85,0.15,73
8.85,0.3,101
8.85,0.45,101
8.85,0.6,50
8.85,0.75,68
8.85,0.9,86
8.85,1.05,92
8.85,1.2,93
8.85,1.35,107
8.85,1.5,108
9.0,-1.5,116
9.0,-1.35,116
9.0,-1.2,118
9.0,-1.05,120
9.0,-0.9,117
9.0,-0.75,116
9.0,-0.6,152
9.0,-0.45,57
9.0,-0.3,68
9.0,-0.15,29
9.0,0.0,35
9.0,0.15,75
9.0,0.3,105
9.0,0.45,44
9.0,0.6,0
9.0,0.75,39
9.0,0.9,70
9.0,1.05,95
9.0,1.2,106
9.0,1.35,111
9.0,1.5,113
9.15,-1.5,110
9.15,-1.35,113
9.15,-1.2,117
9.15,-1.05,131
9.15,-0.9,148
9.15,-0.75,237
9.15,-0.6,75
9.15,-0.45,10
9.15,-0.3,60
9.15,-0.15,29
9.15,0.0,44
9.15,0.15,107
9.15,0.3,177
9.15,0.45,87
9.15,0.6,43
9.15,0.75,62
9.15,0.9,85
9.15,1.05,100
9.15,1.2,109
9.15,1.35,113
9.15,1.5,116
9.3,-1.5,73
9.3,-1.35,73
9.3,-1.2,73
9.3,-1.05,86
9.3,-0.9,108
9.3,-0.75,114
9.3,-0.6,77
9.3,-0.45,70
9.3,-0.3,131
9.3,-0.15,29
9.3,0.0,56
9.3,0.15,92
9.3,0.3,119
9.3,0.45,92
9.3,0.6,95
9.3,0.75,97
9.3,0.9,102
9.3,1.05,109
9.3,1.2,114
9.3,1.35,117
9.3,1.5,119
9.45,-1.5,75
9.45,-1.35,75
9.45,-1.2,75
9.45,-1.05,53
9.45,-0.9,53
9.45,-0.75,43
9.45,-0.6,39
9.45,-0.45,76
9.45,-0.3,87
9.45,-0.15,51
9.45,0.0,37
9.45,0.15,52
9.45,0.3,82
9.45,0.45,104
9.45,0.6,109
9.45,0.75,123
9.45,0.9,122
9.45,1.05,123
9.45,1.2,124
9.45,1.35,122
9.45,1.5,122
9.6,-1.5,69
9.6,-1.35,66
9.6,-1.2,58
9.6,-1.05,53
9.6,-0.9,37
9.6,-0.75,5
9.6,-0.6,4
9.6,-0.45,226
9.6,-0.3,53
9.6,-0.15,26
9.6,0.0,9
9.6,0.15,42
9.6,0.3,48
9.6,0.45,119
9.6,0.6,150
9.6,0.75,138
9.6,0.9,139
9.6,1.05,133
9.6,1.2,130
9.6,1.35,129
9.6,1.5,129
9.75,-1.5,79
9.75,-1.35,77
9.75,-1.2,71
9.75,-1.05,49
9.75,-0.9,26
9.75,-0.75,58
9.75,-0.6,31
9.75,-0.45,75
9.75,-0.3,102
9.75,-0.15,38
9.75,0.0,22
9.75,0.15,45
9.75,0.3,28
9.75,0.45,240
9.75,0.6,210
9.75,0.75,162
9.75,0.9,140
9.75,1.05,127
9.75,1.2,133
9.75,1.35,132
9.75,1.5,131
9.9,-1.5,86
9.9,-1.35,85
9.9,-1.2,77
9.9,-1.05,60
9.9,-0.9,26
9.9,-0.75,164
9.9,-0.6,130
9.9,-0.45,209
9.9,-0.3,229
9.9,-0.15,22
9.9,0.0,41
9.9,0.15,78
9.9,0.3,127
9.9,0.45,218
9.9,0.6,190
9.9,0.75,160
9.9,0.9,140
9.9,1.05,129
9.9,1.2,120
9.9,1.35,133
9.9,1.5,128
10.05,-1.5,87
10.05,-1.35,87
10.05,-1.2,87
10.05,-1.05,91
10.05,-0.9,111
10.05,-0.75,79
10.05,-0.6,101
10.05,-0.45,103
10.05,-0.3,75
10.05,-0.15,22
10.05,0.0,48
10.05,0.15,92
10.05,0.3,125
10.05,0.45,94
10.05,0.6,153
10.05,0.75,147
10.05,0.9,144
10.05,1.05,138
10.05,1.2,117
10.05,1.35,110
10.05,1.5,120
10.2,-1.5,105
10.2,-1.35,105
10.2,-1.2,105
10.2,-1.05,107
10.2,-0.9,131
10.2,-0.75,255
10.2,-0.6,70
10.2,-0.45,52
10.2,-0.3,36
10.2,-0.15,39
10.2,0.0,59
10.2,0.15,72
10.2,0.3,107
10.2,0.45,123
10.2,0.6,139
10.2,0.75,142
10.2,0.9,136
10.2,1.05,131
10.2,1.2,125
10.2,1.35,135
10.2,1.5,132
10.35,-1.5,94
10.35,-1.35,70
10.35,-1.2,65
10.35,-1.05,45
10.35,-0.9,54
10.35,-0.75,108
10.35,-0.6,10
10.35,-0.45,134
10.35,-0.3,56
10.35,-0.15,84
10.35,0.0,110
10.35,0.15,91
10.35,0.3,113
10.35,0.45,132
10.35,0.6,138
10.35,0.75,140
10.35,0.9,139
10.35,1.05,136
10.35,1.2,135
10.35,1.35,134
10.35,1.5,133
10.5,-1.5,74
10.5,-1.35,91
10.5,-1.2,83
10.5,-1.05,70
10.5,-0.9,70
10.5,-0.75,125
10.5,-0.6,207
10.5,-0.45,62
10.5,-0.3,80
10.5,-0.15,114
10.5,0.0,123
10.5,0.15,108
10.5,0.3,119
10.5,0.45,129
10.5,0.6,132
10.5,0.75,132
10.5,0.9,140
10.5,1.05,140
10.5,1.2,140
10.5,1.35,140
10.5,1.5,140
10.65,-1.5,107
10.65,-1.35,103
10.65,-1.2,101
10.65,-1.05,75
10.65,-0.9,79
10.65,-0.75,97
10.65,-0.6,235
10.65,-0.45,110
10.65,-0.3,52
10.65,-0.15,160
10.65,0.0,140
10.65,0.15,108
10.65,0.3,99
10.65,0.45,111
10.65,0.6,107
10.65,0.75,140
10.65,0.9,140
10.65,1.05,127
10.65,1.2,130
10.65,1.35,132
10.65,1.5,133
10.8,-1.5,71
10.8,-1.35,70
10.8,-1.2,90
10.8,-1.05,80
10.8,-0.9,71
10.8,-0.75,37
10.8,-0.6,32
10.8,-0.45,152
10.8,-0.3,38
10.8,-0.15,22
10.8,0.0,82
10.8,0.15,92
10.8,0.3,91
10.8,0.45,79
10.8,0.6,111
10.8,0.75,109
10.8,0.9,128
10.8,1.05,134
10.8,1.2,125
10.8,1.35,129
10.8,1.5,132
10.95,-1.5,52
10.95,-1.35,61
10.95,-1.2,49
10.95,-1.05,48
10.95,-0.9,48
10.95,-0.75,55
10.95,-0.6,54
10.95,-0.45,5
10.95,-0.3,35
10.95,-0.15,58
10.95,0.0,64
10.95,0.15,68
10.95,0.3,78
10.95,0.45,84
10.95,0.6,90
10.95,0.75,87
10.95,0.9,98
10.95,1.05,111
10.95,1.2,136
10.95,1.35,143
10.95,1.5,147
11.1,-1.5,80
11.1,-1.35,79
11.1,-1.2,77
11.1,-1.05,53
11.1,-0.9,57
11.1,-0.75,62
11.1,-0.6,76
11.1,-0.45,99
11.1,-0.3,17
11.1,-0.15,108
11.1,0.0,75
11.1,0.15,79
11.1,0.3,79
11.1,0.45,63
11.1,0.6,35
11.1,0.75,43
11.1,0.9,68
11.1,1.05,110
11.1,1.2,123
11.1,1.35,130
11.1,1.5,148
11.25,-1.5,85
11.25,-1.35,89
11.25,-1.2,88
11.25,-1.05,84
11.25,-0.9,76
11.25,-0.75,60
11.25,-0.6,59
11.25,-0.45,111
11.25,-0.3,135
11.25,-0.15,217
11.25,0.0,131
11.25,0.15,88
11.25,0.3,88
11.25,0.45,57
11.25,0.6,5
11.25,0.75,15
11.25,0.9,79
11.25,1.05,105
11.25,1.2,120
11.25,1.35,124
11.25,1.5,123
11.4,-1.5,92
11.4,-1.35,93
11.4,-1.2,94
11.4,-1.05,95
11.4,-0.9,96
11.4,-0.75,81
11.4,-0.6,19
11.4,-0.45,148
11.4,-0.3,13
11.4,-0.15,129
11.4,0.0,144
11.4,0.15,138
11.4,0.3,127
11.4,0.45,112
11.4,0.6,79
11.4,0.75,118
11.4,0.9,158
11.4,1.05,154
11.4,1.2,132
11.4,1.35,120
11.4,1.5,124
11.55,-1.5,92
11.55,-1.35,92
11.55,-1.2,106
11.55,-1.05,106
11.55,-0.9,103
11.55,-0.75,203
11.55,-0.6,17
11.55,-0.45,34
11.55,-0.3,114
11.55,-0.15,61
11.55,0.0,130
11.55,0.15,143
11.55,0.3,145
11.55,0.45,153
11.55,0.6,184
11.55,0.75,255
11.55,0.9,239
11.55,1.05,190
11.55,1.2,161
11.55,1.35,157
11.55,1.5,136
11.7,-1.5,103
11.7,-1.35,106
11.7,-1.2,106
11.7,-1.05,106
11.7,-0.9,106
11.7,-0.75,108
11.7,-0.6,149
11.7,-0.45,126
11.7,-0.3,255
11.7,-0.15,127
11.7,0.0,120
11.7,0.15,150
11.7,0.3,158
11.7,0.45,170
11.7,0.6,207
11.7,0.75,252
11.7,0.9,239
11.7,1.05,197
11.7,1.2,170
11.7,1.35,153
11.7,1.5,143
11.85,-1.5,93
11.85,-1.35,93
11.85,-1.2,92
11.85,-1.05,92
11.85,-0.9,89
11.85,-0.75,66
11.85,-0.6,63
11.85,-0.45,176
11.85,-0.3,164
11.85,-0.15,136
11.85,0.0,125
11.85,0.15,122
11.85,0.3,143
11.85,0.45,159
11.85,0.6,190
11.85,0.75,209
11.85,0.9,210
11.85,1.05,183
11.85,1.2,166
11.85,1.35,152
11.85,1.5,142
12.0,-1.5,77
12.0,-1.35,74
12.0,-1.2,69
12.0,-1.05,78
12.0,-0.9,40
12.0,-0.75,34
12.0,-0.6,10
12.0,-0.45,101
12.0,-0.3,110
12.0,-0.15,89
12.0,0.0,124
12.0,0.15,134
12.0,0.3,158
12.0,0.45,152
12.0,0.6,165
12.0,0.75,176
12.0,0.9,177
12.0,1.05,170
12.0,1.2,159
12.0,1.35,142
12.0,1.5,133
12.15,-1.5,29
12.15,-1.35,43
12.15,-1.2,41
12.15,-1.05,36
12.15,-0.9,22
12.15,-0.75,7
12.15,-0.6,56
12.15,-0.45,64
12.15,-0.3,89
12.15,-0.15,97
12.15,0.0,120
12.15,0.15,130
12.15,0.3,158
12.15,0.45,142
12.15,0.6,150
12.15,0.75,156
12.15,0.9,155
12.15,1.05,153
12.15,1.2,145
12.15,1.35,135
12.15,1.5,127
12.3,-1.5,25
12.3,-1.35,22
12.3,-1.2,41
12.3,-1.05,42
12.3,-0.9,34
12.3,-0.75,29
12.3,-0.6,34
12.3,-0.45,66
12.3,-0.3,85
12.3,-0.15,89
12.3,0.0,113
12.3,0.15,116
12.3,0.3,119
12.3,0.45,125
12.3,0.6,132
12.3,0.75,134
12.3,0.9,131
12.3,1.05,124
12.3,1.2,126
12.3,1.35,115
12.3,1.5,106
12.45,-1.5,19
12.45,-1.35,23
12.45,-1.2,31
12.45,-1.05,39
12.45,-0.9,69
12.45,-0.75,128
12.45,-0.6,53
12.45,-0.45,93
12.45,-0.3,135
12.45,-0.15,96
12.45,0.0,89
12.45,0.15,77
12.45,0.3,92
12.45,0.45,93
12.45,0.6,98
12.45,0.75,98
12.45,0.9,95
12.45,1.05,88
12.45,1.2,78
12.45,1.35,67
12.45,1.5,60
12.6,-1.5,15
12.6,-1.35,19
12.6,-1.2,25
12.6,-1.05,32
12.6,-0.9,49
12.6,-0.75,72
12.6,-0.6,47
12.6,-0.45,64
12.6,-0.3,112
12.6,-0.15,85
12.6,0.0,76
12.6,0.15,69
12.6,0.3,75
12.6,0.45,73
12.6,0.6,92
12.6,0.75,90
12.6,0.9,84
12.6,1.05,73
12.6,1.2,59
12.6,1.35,45
12.6,1.5,37
12.75,-1.5,7
12.75,-1.35,12
12.75,-1.2,18
12.75,-1.05,21
12.75,-0.9,35
12.75,-0.75,24
12.75,-0.6,18
12.75,-0.45,13
12.75,-0.3,51
12.75,-0.15,69
12.75,0.0,60
12.75,0.15,65
12.75,0.3,64
12.75,0.45,57
12.75,0.6,82
12.75,0.75,83
12.75,0.9,75
12.75,1.05,60
12.75,1.2,40
12.75,1.35,22
12.75,1.5,14
12.9,-1.5,0
12.9,-1.35,3
12.9,-1.2,11
12.9,-1.05,15
12.9,-0.9,14
12.9,-0.75,0
12.9,-0.6,0
12.9,-0.45,16
12.9,-0.3,39
12.9,-0.15,54
12.9,0.0,57
12.9,0.15,59
12.9,0.3,60
12.9,0.45,59
12.9,0.6,50
12.9,0.75,64
12.9,0.9,63
12.9,1.05,46
12.9,1.2,24
12.9,1.35,5
12.9,1.5,0
13.05,-1.5,0
13.05,-1.35,0
13.05,-1.2,11
13.05,-1.05,23
13.05,-0.9,16
13.05,-0.75,10
13.05,-0.6,11
13.05,-0.45,21
13.05,-0.3,36
13.05,-0.15,47
13.05,0.0,54
13.05,0.15,55
13.05,0.3,56
13.05,0.45,46
13.05,0.6,48
13.05,0.75,60
13.05,0.9,51
13.05,1.05,41
13.05,1.2,17
13.05,1.35,1
13.05,1.5,0
