-3.0,-1.5,0
-3.0,-1.35,1
-3.0,-1.2,9
-3.0,-1.05,20
-3.0,-0.9,32
-3.0,-0.75,41
-3.0,-0.6,49
-3.0,-0.45,54
-3.0,-0.3,59
-3.0,-0.15,62
-3.0,0.0,64
-3.0,0.15,65
-3.0,0.3,66
-3.0,0.45,66
-3.0,0.6,64
-3.0,0.75,59
-3.0,0.9,51
-3.0,1.05,37
-3.0,1.2,19
-3.0,1.35,4
-3.0,1.5,0
-2.85,-1.5,1
-2.85,-1.35,4
-2.85,-1.2,12
-2.85,-1.05,23
-2.85,-0.9,34
-2.85,-0.75,43
-2.85,-0.6,50
-2.85,-0.45,56
-2.85,-0.3,60
-2.85,-0.15,64
-2.85,0.0,66
-2.85,0.15,67
-2.85,0.3,67
-2.85,0.45,67
-2.85,0.6,66
-2.85,0.75,63
-2.85,0.9,56
-2.85,1.05,43
-2.85,1.2,27
-2.85,1.35,11
-2.85,1.5,4
-2.7,-1.5,9
-2.7,-1.35,12
-2.7,-1.2,19
-2.7,-1.05,29
-2.7,-0.9,38
-2.7,-0.75,46
-2.7,-0.6,53
-2.7,-0.45,58
-2.7,-0.3,62
-2.7,-0.15,65
-2.7,0.0,67
-2.7,0.15,68
-2.7,0.3,68
-2.7,0.45,68
-2.7,0.6,68
-2.7,0.75,67
-2.7,0.9,62
-2.7,1.05,54
-2.7,1.2,40
-2.7,1.35,27
-2.7,1.5,20
-2.55,-1.5,20
-2.55,-1.35,24
-2.55,-1.2,30
-2.55,-1.05,36
-2.55,-0.9,43
-2.55,-0.75,49
-2.55,-0.6,55
-2.55,-0.45,59
-2.55,-0.3,63
-2.55,-0.15,66
-2.55,0.0,68
-2.55,0.15,69
-2.55,0.3,69
-2.55,0.45,69
-2.55,0.6,70
-2.55,0.75,72
-2.55,0.9,70
-2.55,1.05,64
-2.55,1.2,55
-2.55,1.35,46
-2.55,1.5,40
-2.4,-1.5,27
-2.4,-1.35,34
-2.4,-1.2,38
-2.4,-1.05,44
-2.4,-0.9,47
-2.4,-0.75,52
-2.4,-0.6,56
-2.4,-0.45,60
-2.4,-0.3,64
-2.4,-0.15,67
-2.4,0.0,70
-2.4,0.15,72
-2.4,0.3,73
-2.4,0.45,74
-2.4,0.6,78
-2.4,0.75,80
-2.4,0.9,79
-2.4,1.05,75
-2.4,1.2,69
-2.4,1.35,62
-2.4,1.5,56
-2.25,-1.5,35
-2.25,-1.35,37
-2.25,-1.2,45
-2.25,-1.05,49
-2.25,-0.9,51
-2.25,-0.75,56
-2.25,-0.6,60
-2.25,-0.45,61
-2.25,-0.3,64
-2.25,-0.15,68
-2.25,0.0,72
-2.25,0.15,76
-2.25,0.3,79
-2.25,0.45,85
-2.25,0.6,89
-2.25,0.75,91
-2.25,0.9,90
-2.25,1.05,85
-2.25,1.2,79
-2.25,1.35,73
-2.25,1.5,68
-2.1,-1.5,40
-2.1,-1.35,42
-2.1,-1.2,45
-2.1,-1.05,52
-2.1,-0.9,55
-2.1,-0.75,55
-2.1,-0.6,60
-2.1,-0.45,62
-2.1,-0.3,65
-2.1,-0.15,68
-2.1,0.0,73
-2.1,0.15,80
-2.1,0.3,87
-2.1,0.45,95
-2.1,0.6,102
-2.1,0.75,105
-2.1,0.9,101
-2.1,1.05,94
-2.1,1.2,87
-2.1,1.35,82
-2.1,1.5,77
-1.95,-1.5,44
-1.95,-1.35,46
-1.95,-1.2,48
-1.95,-1.05,49
-1.95,-0.9,55
-1.95,-0.75,55
-1.95,-0.6,58
-1.95,-0.45,60
-1.95,-0.3,63
-1.95,-0.15,67
-1.95,0.0,74
-1.95,0.15,82
-1.95,0.3,91
-1.95,0.45,102
-1.95,0.6,116
-1.95,0.75,122
-1.95,0.9,110
-1.95,1.05,99
-1.95,1.2,92
-1.95,1.35,87
-1.95,1.5,82
-1.8,-1.5,47
-1.8,-1.35,48
-1.8,-1.2,49
-1.8,-1.05,51
-1.8,-0.9,52
-1.8,-0.75,55
-1.8,-0.6,57
-1.8,-0.45,57
-1.8,-0.3,59
-1.8,-0.15,63
-1.8,0.0,72
-1.8,0.15,82
-1.8,0.3,93
-1.8,0.45,105
-1.8,0.6,122
-1.8,0.75,135
-1.8,0.9,108
-1.8,1.05,98
-1.8,1.2,93
-1.8,1.35,89
-1.8,1.5,85
-1.65,-1.5,55
-1.65,-1.35,55
-1.65,-1.2,50
-1.65,-1.05,52
-1.65,-0.9,53
-1.65,-0.75,55
-1.65,-0.6,54
-1.65,-0.45,53
-1.65,-0.3,51
-1.65,-0.15,54
-1.65,0.0,65
-1.65,0.15,78
-1.65,0.3,92
-1.65,0.45,104
-1.65,0.6,107
-1.65,0.75,84
-1.65,0.9,83
-1.65,1.05,92
-1.65,1.2,92
-1.65,1.35,90
-1.65,1.5,87
-1.5,-1.5,65
-1.5,-1.35,65
-1.5,-1.2,59
-1.5,-1.05,59
-1.5,-0.9,54
-1.5,-0.75,58
-1.5,-0.6,56
-1.5,-0.45,49
-1.5,-0.3,41
-1.5,-0.15,40
-1.5,0.0,54
-1.5,0.15,71
-1.5,0.3,90
-1.5,0.45,109
-1.5,0.6,125
-1.5,0.75,93
-1.5,0.9,85
-1.5,1.05,91
-1.5,1.2,92
-1.5,1.35,90
-1.5,1.5,94
-1.35,-1.5,73
-1.35,-1.35,66
-1.35,-1.2,65
-1.35,-1.05,63
-1.35,-0.9,65
-1.35,-0.75,63
-1.35,-0.6,63
-1.35,-0.45,51
-1.35,-0.3,26
-1.35,-0.15,19
-1.35,0.0,43
-1.35,0.15,68
-1.35,0.3,88
-1.35,0.45,107
-1.35,0.6,130
-1.35,0.75,115
-1.35,0.9,101
-1.35,1.05,99
-1.35,1.2,97
-1.35,1.35,97
-1.35,1.5,96
-1.2,-1.5,75
-1.2,-1.35,73
-1.2,-1.2,71
-1.2,-1.05,71
-1.2,-0.9,64
-1.2,-0.75,65
-1.2,-0.6,65
-1.2,-0.45,52
-1.2,-0.3,16
-1.2,-0.15,2
-1.2,0.0,37
-1.2,0.15,65
-1.2,0.3,78
-1.2,0.45,94
-1.2,0.6,108
-1.2,0.75,108
-1.2,0.9,103
-1.2,1.05,101
-1.2,1.2,99
-1.2,1.35,98
-1.2,1.5,97
-1.05,-1.5,81
-1.05,-1.35,78
-1.05,-1.2,75
-1.05,-1.05,71
-1.05,-0.9,67
-1.05,-0.75,62
-1.05,-0.6,60
-1.05,-0.45,53
-1.05,-0.3,36
-1.05,-0.15,30
-1.05,0.0,47
-1.05,0.15,67
-1.05,0.3,69
-1.05,0.45,83
-1.05,0.6,99
-1.05,0.75,106
-1.05,0.9,106
-1.05,1.05,103
-1.05,1.2,101
-1.05,1.35,99
-1.05,1.5,97
-0.9,-1.5,83
-0.9,-1.35,81
-0.9,-1.2,77
-0.9,-1.05,73
-0.9,-0.9,69
-0.9,-0.75,64
-0.9,-0.6,60
-0.9,-0.45,60
-0.9,-0.3,47
-0.9,-0.15,40
-0.9,0.0,52
-0.9,0.15,65
-0.9,0.3,69
-0.9,0.45,84
-0.9,0.6,108
-0.9,0.75,120
-0.9,0.9,114
-0.9,1.05,107
-0.9,1.2,102
-0.9,1.35,101
-0.9,1.5,99
-0.75,-1.5,86
-0.75,-1.35,84
-0.75,-1.2,81
-0.75,-1.05,78
-0.75,-0.9,73
-0.75,-0.75,65
-0.75,-0.6,59
-0.75,-0.45,52
-0.75,-0.3,6
-0.75,-0.15,31
-0.75,0.0,52
-0.75,0.15,66
-0.75,0.3,75
-0.75,0.45,90
-0.75,0.6,119
-0.75,0.75,136
-0.75,0.9,121
-0.75,1.05,110
-0.75,1.2,104
-0.75,1.35,101
-0.75,1.5,99
-0.6,-1.5,86
-0.6,-1.35,88
-0.6,-1.2,86
-0.6,-1.05,83
-0.6,-0.9,79
-0.6,-0.75,73
-0.6,-0.6,61
-0.6,-0.45,44
-0.6,-0.3,21
-0.6,-0.15,37
-0.6,0.0,64
-0.6,0.15,77
-0.6,0.3,83
-0.6,0.45,87
-0.6,0.6,109
-0.6,0.75,118
-0.6,0.9,111
-0.6,1.05,106
-0.6,1.2,101
-0.6,1.35,99
-0.6,1.5,99
-0.45,-1.5,88
-0.45,-1.35,88
-0.45,-1.2,91
-0.45,-1.05,89
-0.45,-0.9,87
-0.45,-0.75,84
-0.45,-0.6,76
-0.45,-0.45,68
-0.45,-0.3,63
-0.45,-0.15,72
-0.45,0.0,80
-0.45,0.15,90
-0.45,0.3,86
-0.45,0.45,82
-0.45,0.6,90
-0.45,0.75,99
-0.45,0.9,104
-0.45,1.05,103
-0.45,1.2,103
-0.45,1.35,99
-0.45,1.5,99
-0.3,-1.5,78
-0.3,-1.35,91
-0.3,-1.2,92
-0.3,-1.05,94
-0.3,-0.9,94
-0.3,-0.75,94
-0.3,-0.6,95
-0.3,-0.45,93
-0.3,-0.3,90
-0.3,-0.15,89
-0.3,0.0,103
-0.3,0.15,108
-0.3,0.3,87
-0.3,0.45,68
-0.3,0.6,81
-0.3,0.75,91
-0.3,0.9,101
-0.3,1.05,105
-0.3,1.2,100
-0.3,1.35,100
-0.3,1.5,100
-0.15,-1.5,78
-0.15,-1.35,80
-0.15,-1.2,95
-0.15,-1.05,95
-0.15,-0.9,95
-0.15,-0.75,95
-0.15,-0.6,110
-0.15,-0.45,111
-0.15,-0.3,96
-0.15,-0.15,63
-0.15,0.0,106
-0.15,0.15,171
-0.15,0.3,109
-0.15,0.45,71
-0.15,0.6,77
-0.15,0.75,90
-0.15,0.9,97
-0.15,1.05,103
-0.15,1.2,107
-0.15,1.35,109
-0.15,1.5,114
0.0,-1.5,78
0.0,-1.35,80
0.0,-1.2,82
0.0,-1.05,84
0.0,-0.9,89
0.0,-0.75,81
0.0,-0.6,105
0.0,-0.45,145
0.0,-0.3,120
0.0,-0.15,39
0.0,0.0,103
0.0,0.15,191
0.0,0.3,85
0.0,0.45,87
0.0,0.6,86
0.0,0.75,92
0.0,0.9,98
0.0,1.05,101
0.0,1.2,104
0.0,1.35,106
0.0,1.5,107
0.15,-1.5,76
0.15,-1.35,78
0.15,-1.2,81
0.15,-1.05,83
0.15,-0.9,85
0.15,-0.75,76
0.15,-0.6,121
0.15,-0.45,239
0.15,-0.3,169
0.15,-0.15,168
0.15,0.0,229
0.15,0.15,81
0.15,0.3,81
0.15,0.45,84
0.15,0.6,90
0.15,0.75,95
0.15,0.9,99
0.15,1.05,102
0.15,1.2,104
0.15,1.35,106
0.15,1.5,107
0.3,-1.5,72
0.3,-1.35,83
0.3,-1.2,87
0.3,-1.05,87
0.3,-0.9,86
0.3,-0.75,72
0.3,-0.6,109
0.3,-0.45,207
0.3,-0.3,135
0.3,-0.15,152
0.3,0.0,173
0.3,0.15,119
0.3,0.3,92
0.3,0.45,69
0.3,0.6,88
0.3,0.75,96
0.3,0.9,98
0.3,1.05,107
0.3,1.2,107
0.3,1.35,107
0.3,1.5,107
0.45,-1.5,66
0.45,-1.35,79
0.45,-1.2,81
0.45,-1.05,85
0.45,-0.9,87
0.45,-0.75,87
0.45,-0.6,104
0.45,-0.45,113
0.45,-0.3,77
0.45,-0.15,114
0.45,0.0,165
0.45,0.15,160
0.45,0.3,118
0.45,0.45,94
0.45,0.6,96
0.45,0.75,99
0.45,0.9,101
0.45,1.05,101
0.45,1.2,107
0.45,1.35,107
0.45,1.5,107
0.6,-1.5,55
0.6,-1.35,55
0.6,-1.2,65
0.6,-1.05,80
0.6,-0.9,86
0.6,-0.75,90
0.6,-0.6,95
0.6,-0.45,95
0.6,-0.3,85
0.6,-0.15,77
0.6,0.0,184
0.6,0.15,205
0.6,0.3,132
0.6,0.45,112
0.6,0.6,103
0.6,0.75,102
0.6,0.9,106
0.6,1.05,106
0.6,1.2,106
0.6,1.35,107
0.6,1.5,98
0.75,-1.5,46
0.75,-1.35,42
0.75,-1.2,40
0.75,-1.05,46
0.75,-0.9,54
0.75,-0.75,68
0.75,-0.6,65
0.75,-0.45,61
0.75,-0.3,56
0.75,-0.15,9
0.75,0.0,68
0.75,0.15,100
0.75,0.3,100
0.75,0.45,94
0.75,0.6,92
0.75,0.75,82
0.75,0.9,82
0.75,1.05,82
0.75,1.2,89
0.75,1.35,89
0.75,1.5,89
0.9,-1.5,34
0.9,-1.35,24
0.9,-1.2,17
0.9,-1.05,23
0.9,-0.9,39
0.9,-0.75,43
0.9,-0.6,31
0.9,-0.45,16
0.9,-0.3,47
0.9,-0.15,62
0.9,0.0,69
0.9,0.15,71
0.9,0.3,74
0.9,0.45,86
0.9,0.6,82
0.9,0.75,92
0.9,0.9,89
0.9,1.05,94
0.9,1.2,95
0.9,1.35,95
0.9,1.5,95
1.05,-1.5,31
1.05,-1.35,16
1.05,-1.2,0
1.05,-1.05,4
1.05,-0.9,24
1.05,-0.75,32
1.05,-0.6,23
1.05,-0.45,8
1.05,-0.3,48
1.05,-0.15,88
1.05,0.0,84
1.05,0.15,69
1.05,0.3,75
1.05,0.45,82
1.05,0.6,91
1.05,0.75,96
1.05,0.9,99
1.05,1.05,96
1.05,1.2,97
1.05,1.35,117
1.05,1.5,118
1.2,-1.5,26
1.2,-1.35,15
1.2,-1.2,7
1.2,-1.05,11
1.2,-0.9,26
1.2,-0.75,34
1.2,-0.6,37
1.2,-0.45,44
1.2,-0.3,59
1.2,-0.15,70
1.2,0.0,36
1.2,0.15,61
1.2,0.3,70
1.2,0.45,89
1.2,0.6,98
1.2,0.75,103
1.2,0.9,106
1.2,1.05,121
1.2,1.2,124
1.2,1.35,120
1.2,1.5,120
1.35,-1.5,41
1.35,-1.35,34
1.35,-1.2,29
1.35,-1.05,31
1.35,-0.9,40
1.35,-0.75,39
1.35,-0.6,42
1.35,-0.45,51
1.35,-0.3,60
1.35,-0.15,62
1.35,0.0,48
1.35,0.15,64
1.35,0.3,78
1.35,0.45,88
1.35,0.6,92
1.35,0.75,106
1.35,0.9,108
1.35,1.05,109
1.35,1.2,115
1.35,1.35,110
1.35,1.5,110
1.5,-1.5,43
1.5,-1.35,42
1.5,-1.2,42
1.5,-1.05,45
1.5,-0.9,48
1.5,-0.75,50
1.5,-0.6,41
1.5,-0.45,38
1.5,-0.3,62
1.5,-0.15,66
1.5,0.0,62
1.5,0.15,81
1.5,0.3,98
1.5,0.45,105
1.5,0.6,115
1.5,0.75,117
1.5,0.9,112
1.5,1.05,111
1.5,1.2,110
1.5,1.35,110
1.5,1.5,110
1.65,-1.5,51
1.65,-1.35,51
1.65,-1.2,53
1.65,-1.05,55
1.65,-0.9,56
1.65,-0.75,53
1.65,-0.6,47
1.65,-0.45,28
1.65,-0.3,60
1.65,-0.15,56
1.65,0.0,76
1.65,0.15,95
1.65,0.3,146
1.65,0.45,141
1.65,0.6,124
1.65,0.75,131
1.65,0.9,132
1.65,1.05,130
1.65,1.2,128
1.65,1.35,126
1.65,1.5,124
1.8,-1.5,63
1.8,-1.35,64
1.8,-1.2,66
1.8,-1.05,60
1.8,-0.9,62
1.8,-0.75,67
1.8,-0.6,62
1.8,-0.45,56
1.8,-0.3,44
1.8,-0.15,6
1.8,0.0,79
1.8,0.15,93
1.8,0.3,255
1.8,0.45,173
1.8,0.6,143
1.8,0.75,142
1.8,0.9,138
1.8,1.05,134
1.8,1.2,129
1.8,1.35,126
1.8,1.5,124
1.95,-1.5,74
1.95,-1.35,76
1.95,-1.2,74
1.95,-1.05,78
1.95,-0.9,85
1.95,-0.75,82
1.95,-0.6,83
1.95,-0.45,78
1.95,-0.3,60
1.95,-0.15,32
1.95,0.0,28
1.95,0.15,72
1.95,0.3,129
1.95,0.45,147
1.95,0.6,150
1.95,0.75,148
1.95,0.9,141
1.95,1.05,133
1.95,1.2,128
1.95,1.35,141
1.95,1.5,130
2.1,-1.5,88
2.1,-1.35,91
2.1,-1.2,91
2.1,-1.05,96
2.1,-0.9,98
2.1,-0.75,111
2.1,-0.6,134
2.1,-0.45,163
2.1,-0.3,69
2.1,-0.15,56
2.1,0.0,13
2.1,0.15,79
2.1,0.3,100
2.1,0.45,155
2.1,0.6,175
2.1,0.75,155
2.1,0.9,138
2.1,1.05,138
2.1,1.2,132
2.1,1.35,129
2.1,1.5,128
2.25,-1.5,108
2.25,-1.35,115
2.25,-1.2,118
2.25,-1.05,121
2.25,-0.9,109
2.25,-0.75,121
2.25,-0.6,158
2.25,-0.45,245
2.25,-0.3,119
2.25,-0.15,80
2.25,0.0,99
2.25,0.15,188
2.25,0.3,123
2.25,0.45,189
2.25,0.6,227
2.25,0.75,163
2.25,0.9,140
2.25,1.05,130
2.25,1.2,126
2.25,1.35,124
2.25,1.5,124
2.4,-1.5,130
2.4,-1.35,135
2.4,-1.2,118
2.4,-1.05,121
2.4,-0.9,120
2.4,-0.75,123
2.4,-0.6,121
2.4,-0.45,122
2.4,-0.3,88
2.4,-0.15,69
2.4,0.0,78
2.4,0.15,132
2.4,0.3,107
2.4,0.45,107
2.4,0.6,148
2.4,0.75,123
2.4,0.9,108
2.4,1.05,111
2.4,1.2,110
2.4,1.35,111
2.4,1.5,115
2.55,-1.5,129
2.55,-1.35,129
2.55,-1.2,129
2.55,-1.05,129
2.55,-0.9,129
2.55,-0.75,113
2.55,-0.6,113
2.55,-0.45,98
2.55,-0.3,77
2.55,-0.15,42
2.55,0.0,13
2.55,0.15,36
2.55,0.3,76
2.55,0.45,78
2.55,0.6,82
2.55,0.75,77
2.55,0.9,80
2.55,1.05,87
2.55,1.2,91
2.55,1.35,93
2.55,1.5,111
2.7,-1.5,124
2.7,-1.35,124
2.7,-1.2,124
2.7,-1.05,123
2.7,-0.9,122
2.7,-0.75,120
2.7,-0.6,120
2.7,-0.45,114
2.7,-0.3,135
2.7,-0.15,13
2.7,0.0,19
2.7,0.15,35
2.7,0.3,27
2.7,0.45,4
2.7,0.6,43
2.7,0.75,19
2.7,0.9,57
2.7,1.05,85
2.7,1.2,96
2.7,1.35,105
2.7,1.5,109
2.85,-1.5,149
2.85,-1.35,147
2.85,-1.2,126
2.85,-1.05,113
2.85,-0.9,113
2.85,-0.75,110
2.85,-0.6,97
2.85,-0.45,89
2.85,-0.3,56
2.85,-0.15,6
2.85,0.0,44
2.85,0.15,63
2.85,0.3,43
2.85,0.45,170
2.85,0.6,88
2.85,0.75,35
2.85,0.9,67
2.85,1.05,86
2.85,1.2,96
2.85,1.35,102
2.85,1.5,105
3.0,-1.5,137
3.0,-1.35,136
3.0,-1.2,135
3.0,-1.05,133
3.0,-0.9,122
3.0,-0.75,122
3.0,-0.6,123
3.0,-0.45,122
3.0,-0.3,80
3.0,-0.15,67
3.0,0.0,81
3.0,0.15,96
3.0,0.3,110
3.0,0.45,195
3.0,0.6,137
3.0,0.75,101
3.0,0.9,82
3.0,1.05,88
3.0,1.2,91
3.0,1.35,94
3.0,1.5,95
3.15,-1.5,139
3.15,-1.35,138
3.15,-1.2,134
3.15,-1.05,132
3.15,-0.9,127
3.15,-0.75,113
3.15,-0.6,180
3.15,-0.45,237
3.15,-0.3,103
3.15,-0.15,92
3.15,0.0,9
3.15,0.15,123
3.15,0.3,70
3.15,0.45,112
3.15,0.6,123
3.15,0.75,114
3.15,0.9,106
3.15,1.05,112
3.15,1.2,96
3.15,1.35,111
3.15,1.5,101
3.3,-1.5,154
3.3,-1.35,141
3.3,-1.2,137
3.3,-1.05,135
3.3,-0.9,128
3.3,-0.75,103
3.3,-0.6,119
3.3,-0.45,128
3.3,-0.3,78
3.3,-0.15,81
3.3,0.0,123
3.3,0.15,129
3.3,0.3,126
3.3,0.45,94
3.3,0.6,125
3.3,0.75,121
3.3,0.9,113
3.3,1.05,116
3.3,1.2,116
3.3,1.35,100
3.3,1.5,111
3.45,-1.5,157
3.45,-1.35,153
3.45,-1.2,153
3.45,-1.05,153
3.45,-0.9,152
3.45,-0.75,150
3.45,-0.6,149
3.45,-0.45,125
3.45,-0.3,75
3.45,-0.15,56
3.45,0.0,85
3.45,0.15,108
3.45,0.3,153
3.45,0.45,248
3.45,0.6,155
3.45,0.75,140
3.45,0.9,116
3.45,1.05,111
3.45,1.2,107
3.45,1.35,104
3.45,1.5,102
3.6,-1.5,192
3.6,-1.35,192
3.6,-1.2,193
3.6,-1.05,206
3.6,-0.9,192
3.6,-0.75,208
3.6,-0.6,197
3.6,-0.45,147
3.6,-0.3,99
3.6,-0.15,121
3.6,0.0,80
3.6,0.15,72
3.6,0.3,88
3.6,0.45,145
3.6,0.6,149
3.6,0.75,139
3.6,0.9,121
3.6,1.05,113
3.6,1.2,109
3.6,1.35,106
3.6,1.5,104
3.75,-1.5,194
3.75,-1.35,196
3.75,-1.2,198
3.75,-1.05,203
3.75,-0.9,221
3.75,-0.75,238
3.75,-0.6,255
3.75,-0.45,208
3.75,-0.3,210
3.75,-0.15,196
3.75,0.0,121
3.75,0.15,62
3.75,0.3,67
3.75,0.45,98
3.75,0.6,116
3.75,0.75,119
3.75,0.9,126
3.75,1.05,119
3.75,1.2,116
3.75,1.35,113
3.75,1.5,104
3.9,-1.5,194
3.9,-1.35,196
3.9,-1.2,200
3.9,-1.05,219
3.9,-0.9,225
3.9,-0.75,229
3.9,-0.6,224
3.9,-0.45,153
3.9,-0.3,219
3.9,-0.15,123
3.9,0.0,125
3.9,0.15,62
3.9,0.3,71
3.9,0.45,129
3.9,0.6,138
3.9,0.75,133
3.9,0.9,127
3.9,1.05,122
3.9,1.2,117
3.9,1.35,107
3.9,1.5,113
4.05,-1.5,216
4.05,-1.35,216
4.05,-1.2,217
4.05,-1.05,206
4.05,-0.9,213
4.05,-0.75,236
4.05,-0.6,250
4.05,-0.45,255
4.05,-0.3,202
4.05,-0.15,147
4.05,0.0,78
4.05,0.15,48
4.05,0.3,111
4.05,0.45,232
4.05,0.6,184
4.05,0.75,144
4.05,0.9,125
4.05,1.05,114
4.05,1.2,108
4.05,1.35,113
4.05,1.5,113
4.2,-1.5,212
4.2,-1.35,210
4.2,-1.2,207
4.2,-1.05,204
4.2,-0.9,205
4.2,-0.75,209
4.2,-0.6,238
4.2,-0.45,255
4.2,-0.3,133
4.2,-0.15,75
4.2,0.0,145
4.2,0.15,77
4.2,0.3,128
4.2,0.45,223
4.2,0.6,169
4.2,0.75,138
4.2,0.9,116
4.2,1.05,110
4.2,1.2,101
4.2,1.35,102
4.2,1.5,105
4.35,-1.5,212
4.35,-1.35,208
4.35,-1.2,200
4.35,-1.05,169
4.35,-0.9,149
4.35,-0.75,141
4.35,-0.6,203
4.35,-0.45,255
4.35,-0.3,135
4.35,-0.15,91
4.35,0.0,75
4.35,0.15,101
4.35,0.3,126
4.35,0.45,148
4.35,0.6,142
4.35,0.75,124
4.35,0.9,103
4.35,1.05,82
4.35,1.2,78
4.35,1.35,91
4.35,1.5,96
4.5,-1.5,197
4.5,-1.35,192
4.5,-1.2,180
4.5,-1.05,166
4.5,-0.9,126
4.5,-0.75,74
4.5,-0.6,146
4.5,-0.45,148
4.5,-0.3,102
4.5,-0.15,148
4.5,0.0,103
4.5,0.15,72
4.5,0.3,129
4.5,0.45,135
4.5,0.6,130
4.5,0.75,116
4.5,0.9,95
4.5,1.05,71
4.5,1.2,70
4.5,1.35,77
4.5,1.5,81
4.65,-1.5,180
4.65,-1.35,176
4.65,-1.2,171
4.65,-1.05,163
4.65,-0.9,146
4.65,-0.75,137
4.65,-0.6,248
4.65,-0.45,103
4.65,-0.3,95
4.65,-0.15,48
4.65,0.0,39
4.65,0.15,80
4.65,0.3,213
4.65,0.45,158
4.65,0.6,148
4.65,0.75,120
4.65,0.9,103
4.65,1.05,84
4.65,1.2,80
4.65,1.35,88
4.65,1.5,96
4.8,-1.5,180
4.8,-1.35,180
4.8,-1.2,180
4.8,-1.05,180
4.8,-0.9,177
4.8,-0.75,186
4.8,-0.6,182
4.8,-0.45,158
4.8,-0.3,255
4.8,-0.15,119
4.8,0.0,209
4.8,0.15,83
4.8,0.3,127
4.8,0.45,171
4.8,0.6,146
4.8,0.75,127
4.8,0.9,117
4.8,1.05,107
4.8,1.2,103
4.8,1.35,105
4.8,1.5,110
4.95,-1.5,180
4.95,-1.35,182
4.95,-1.2,185
4.95,-1.05,192
4.95,-0.9,208
4.95,-0.75,246
4.95,-0.6,255
4.95,-0.45,150
4.95,-0.3,163
4.95,-0.15,35
4.95,0.0,133
4.95,0.15,175
4.95,0.3,170
4.95,0.45,151
4.95,0.6,137
4.95,0.75,125
4.95,0.9,127
4.95,1.05,127
4.95,1.2,125
4.95,1.35,126
4.95,1.5,129
5.1,-1.5,141
5.1,-1.35,145
5.1,-1.2,166
5.1,-1.05,176
5.1,-0.9,194
5.1,-0.75,239
5.1,-0.6,236
5.1,-0.45,158
5.1,-0.3,218
5.1,-0.15,90
5.1,0.0,154
5.1,0.15,255
5.1,0.3,181
5.1,0.45,83
5.1,0.6,79
5.1,0.75,119
5.1,0.9,127
5.1,1.05,124
5.1,1.2,116
5.1,1.35,133
5.1,1.5,135
5.25,-1.5,128
5.25,-1.35,142
5.25,-1.2,136
5.25,-1.05,139
5.25,-0.9,148
5.25,-0.75,162
5.25,-0.6,174
5.25,-0.45,175
5.25,-0.3,255
5.25,-0.15,76
5.25,0.0,76
5.25,0.15,173
5.25,0.3,79
5.25,0.45,53
5.25,0.6,62
5.25,0.75,103
5.25,0.9,105
5.25,1.05,121
5.25,1.2,105
5.25,1.35,105
5.25,1.5,105
5.4,-1.5,104
5.4,-1.35,115
5.4,-1.2,112
5.4,-1.05,106
5.4,-0.9,96
5.4,-0.75,100
5.4,-0.6,112
5.4,-0.45,95
5.4,-0.3,68
5.4,-0.15,95
5.4,0.0,77
5.4,0.15,208
5.4,0.3,142
5.4,0.45,83
5.4,0.6,88
5.4,0.75,105
5.4,0.9,100
5.4,1.05,111
5.4,1.2,105
5.4,1.35,105
5.4,1.5,105
5.55,-1.5,102
5.55,-1.35,99
5.55,-1.2,92
5.55,-1.05,68
5.55,-0.9,43
5.55,-0.75,10
5.55,-0.6,48
5.55,-0.45,63
5.55,-0.3,84
5.55,-0.15,125
5.55,0.0,75
5.55,0.15,124
5.55,0.3,86
5.55,0.45,65
5.55,0.6,83
5.55,0.75,105
5.55,0.9,93
5.55,1.05,104
5.55,1.2,105
5.55,1.35,91
5.55,1.5,91
5.7,-1.5,102
5.7,-1.35,89
5.7,-1.2,66
5.7,-1.05,39
5.7,-0.9,39
5.7,-0.75,29
5.7,-0.6,44
5.7,-0.45,14
5.7,-0.3,155
5.7,-0.15,100
5.7,0.0,87
5.7,0.15,55
5.7,0.3,21
5.7,0.45,48
5.7,0.6,83
5.7,0.75,85
5.7,0.9,82
5.7,1.05,78
5.7,1.2,75
5.7,1.35,73
5.7,1.5,75
5.85,-1.5,61
5.85,-1.35,61
5.85,-1.2,60
5.85,-1.05,43
5.85,-0.9,47
5.85,-0.75,70
5.85,-0.6,80
5.85,-0.45,52
5.85,-0.3,68
5.85,-0.15,78
5.85,0.0,98
5.85,0.15,23
5.85,0.3,50
5.85,0.45,85
5.85,0.6,142
5.85,0.75,114
5.85,0.9,96
5.85,1.05,86
5.85,1.2,80
5.85,1.35,76
5.85,1.5,73
6.0,-1.5,82
6.0,-1.35,65
6.0,-1.2,67
6.0,-1.05,70
6.0,-0.9,76
6.0,-0.75,95
6.0,-0.6,111
6.0,-0.45,74
6.0,-0.3,6
6.0,-0.15,7
6.0,0.0,97
6.0,0.15,34
6.0,0.3,45
6.0,0.45,70
6.0,0.6,225
6.0,0.75,125
6.0,0.9,99
6.0,1.05,100
6.0,1.2,94
6.0,1.35,91
6.0,1.5,69
6.15,-1.5,95
6.15,-1.35,91
6.15,-1.2,93
6.15,-1.05,97
6.15,-0.9,115
6.15,-0.75,118
6.15,-0.6,112
6.15,-0.45,89
6.15,-0.3,104
6.15,-0.15,55
6.15,0.0,131
6.15,0.15,93
6.15,0.3,24
6.15,0.45,68
6.15,0.6,117
6.15,0.75,116
6.15,0.9,107
6.15,1.05,102
6.15,1.2,97
6.15,1.35,94
6.15,1.5,92
6.3,-1.5,100
6.3,-1.35,101
6.3,-1.2,103
6.3,-1.05,122
6.3,-0.9,146
6.3,-0.75,129
6.3,-0.6,111
6.3,-0.45,109
6.3,-0.3,51
6.3,-0.15,0
6.3,0.0,66
6.3,0.15,165
6.3,0.3,58
6.3,0.45,56
6.3,0.6,84
6.3,0.75,95
6.3,0.9,80
6.3,1.05,77
6.3,1.2,77
6.3,1.35,77
6.3,1.5,77
6.45,-1.5,104
6.45,-1.35,121
6.45,-1.2,130
6.45,-1.05,130
6.45,-0.9,122
6.45,-0.75,135
6.45,-0.6,178
6.45,-0.45,140
6.45,-0.3,26
6.45,-0.15,77
6.45,0.0,64
6.45,0.15,89
6.45,0.3,138
6.45,0.45,92
6.45,0.6,78
6.45,0.75,83
6.45,0.9,70
6.45,1.05,89
6.45,1.2,90
6.45,1.35,90
6.45,1.5,90
6.6,-1.5,68
6.6,-1.35,86
6.6,-1.2,83
6.6,-1.05,77
6.6,-0.9,73
6.6,-0.75,65
6.6,-0.6,98
6.6,-0.45,104
6.6,-0.3,86
6.6,-0.15,28
6.6,0.0,32
6.6,0.15,106
6.6,0.3,80
6.6,0.45,100
6.6,0.6,91
6.6,0.75,85
6.6,0.9,106
6.6,1.05,98
6.6,1.2,84
6.6,1.35,85
6.6,1.5,87
6.75,-1.5,68
6.75,-1.35,62
6.75,-1.2,60
6.75,-1.05,54
6.75,-0.9,42
6.75,-0.75,11
6.75,-0.6,61
6.75,-0.45,255
6.75,-0.3,0
6.75,-0.15,67
6.75,0.0,51
6.75,0.15,56
6.75,0.3,67
6.75,0.45,67
6.75,0.6,51
6.75,0.75,59
6.75,0.9,40
6.75,1.05,43
6.75,1.2,63
6.75,1.35,89
6.75,1.5,97
6.9,-1.5,48
6.9,-1.35,48
6.9,-1.2,48
6.9,-1.05,48
6.9,-0.9,47
6.9,-0.75,46
6.9,-0.6,48
6.9,-0.45,9
6.9,-0.3,36
6.9,-0.15,97
6.9,0.0,214
6.9,0.15,35
6.9,0.3,190
6.9,0.45,11
6.9,0.6,4
6.9,0.75,21
6.9,0.9,37
6.9,1.05,47
6.9,1.2,50
6.9,1.35,52
6.9,1.5,53
7.05,-1.5,53
7.05,-1.35,55
7.05,-1.2,58
7.05,-1.05,61
7.05,-0.9,75
7.05,-0.75,88
7.05,-0.6,12
7.05,-0.45,55
7.05,-0.3,43
7.05,-0.15,9
7.05,0.0,37
7.05,0.15,1
7.05,0.3,29
7.05,0.45,54
7.05,0.6,35
7.05,0.75,34
7.05,0.9,45
7.05,1.05,50
7.05,1.2,52
7.05,1.35,58
7.05,1.5,59
7.2,-1.5,53
7.2,-1.35,53
7.2,-1.2,58
7.2,-1.05,78
7.2,-0.9,107
7.2,-0.75,227
7.2,-0.6,49
7.2,-0.45,123
7.2,-0.3,27
7.2,-0.15,88
7.2,0.0,22
7.2,0.15,251
7.2,0.3,58
7.2,0.45,76
7.2,0.6,65
7.2,0.75,65
7.2,0.9,60
7.2,1.05,61
7.2,1.2,61
7.2,1.35,61
7.2,1.5,61
7.35,-1.5,53
7.35,-1.35,53
7.35,-1.2,57
7.35,-1.05,64
7.35,-0.9,74
7.35,-0.75,72
7.35,-0.6,55
7.35,-0.45,90
7.35,-0.3,76
7.35,-0.15,5
7.35,0.0,46
7.35,0.15,27
7.35,0.3,65
7.35,0.45,69
7.35,0.6,51
7.35,0.75,51
7.35,0.9,61
7.35,1.05,60
7.35,1.2,60
7.35,1.35,61
7.35,1.5,61
7.5,-1.5,74
7.5,-1.35,75
7.5,-1.2,86
7.5,-1.05,95
7.5,-0.9,90
7.5,-0.75,75
7.5,-0.6,40
7.5,-0.45,9
7.5,-0.3,61
7.5,-0.15,36
7.5,0.0,186
7.5,0.15,43
7.5,0.3,41
7.5,0.45,66
7.5,0.6,57
7.5,0.75,52
7.5,0.9,51
7.5,1.05,51
7.5,1.2,51
7.5,1.35,51
7.5,1.5,51
7.65,-1.5,81
7.65,-1.35,81
7.65,-1.2,80
7.65,-1.05,78
7.65,-0.9,69
7.65,-0.75,76
7.65,-0.6,96
7.65,-0.45,73
7.65,-0.3,13
7.65,-0.15,23
7.65,0.0,12
7.65,0.15,40
7.65,0.3,59
7.65,0.45,60
7.65,0.6,55
7.65,0.75,55
7.65,0.9,53
7.65,1.05,52
7.65,1.2,51
7.65,1.35,51
7.65,1.5,51
7.8,-1.5,71
7.8,-1.35,60
7.8,-1.2,60
7.8,-1.05,60
7.8,-0.9,60
7.8,-0.75,59
7.8,-0.6,74
7.8,-0.45,35
7.8,-0.3,255
7.8,-0.15,28
7.8,0.0,11
7.8,0.15,2
7.8,0.3,39
7.8,0.45,30
7.8,0.6,29
7.8,0.75,45
7.8,0.9,47
7.8,1.05,49
7.8,1.2,50
7.8,1.35,50
7.8,1.5,50
7.95,-1.5,41
7.95,-1.35,56
7.95,-1.2,55
7.95,-1.05,53
7.95,-0.9,50
7.95,-0.75,38
7.95,-0.6,17
7.95,-0.45,20
7.95,-0.3,124
7.95,-0.15,132
7.95,0.0,17
7.95,0.15,11
7.95,0.3,10
7.95,0.45,15
7.95,0.6,15
7.95,0.75,22
7.95,0.9,25
7.95,1.05,40
7.95,1.2,46
7.95,1.35,47
7.95,1.5,48
8.1,-1.5,32
8.1,-1.35,32
8.1,-1.2,32
8.1,-1.05,32
8.1,-0.9,30
8.1,-0.75,27
8.1,-0.6,27
8.1,-0.45,54
8.1,-0.3,30
8.1,-0.15,17
8.1,0.0,25
8.1,0.15,4
8.1,0.3,0
8.1,0.45,21
8.1,0.6,31
8.1,0.75,26
8.1,0.9,25
8.1,1.05,28
8.1,1.2,29
8.1,1.35,29
8.1,1.5,29
8.25,-1.5,57
8.25,-1.35,56
8.25,-1.2,54
8.25,-1.05,51
8.25,-0.9,48
8.25,-0.75,44
8.25,-0.6,27
8.25,-0.45,126
8.25,-0.3,138
8.25,-0.15,100
8.25,0.0,55
8.25,0.15,4
8.25,0.3,4
8.25,0.45,22
8.25,0.6,39
8.25,0.75,29
8.25,0.9,26
8.25,1.05,25
8.25,1.2,29
8.25,1.35,29
8.25,1.5,29
8.4,-1.5,56
8.4,-1.35,59
8.4,-1.2,59
8.4,-1.05,59
8.4,-0.9,75
8.4,-0.75,71
8.4,-0.6,84
8.4,-0.45,153
8.4,-0.3,4
8.4,-0.15,92
8.4,0.0,41
8.4,0.15,36
8.4,0.3,7
8.4,0.45,16
8.4,0.6,26
8.4,0.75,28
8.4,0.9,48
8.4,1.05,50
8.4,1.2,52
8.4,1.35,53
8.4,1.5,59
8.55,-1.5,56
8.55,-1.35,56
8.55,-1.2,56
8.55,-1.05,58
8.55,-0.9,65
8.55,-0.75,78
8.55,-0.6,93
8.55,-0.45,67
8.55,-0.3,15
8.55,-0.15,54
8.55,0.0,53
8.55,0.15,53
8.55,0.3,34
8.55,0.45,32
8.55,0.6,58
8.55,0.75,61
8.55,0.9,73
8.55,1.05,74
8.55,1.2,75
8.55,1.35,76
8.55,1.5,81
8.7,-1.5,61
8.7,-1.35,61
8.7,-1.2,61
8.7,-1.05,61
8.7,-0.9,61
8.7,-0.75,50
8.7,-0.6,48
8.7,-0.45,31
8.7,-0.3,51
8.7,-0.15,4
8.7,0.0,7
8.7,0.15,51
8.7,0.3,81
8.7,0.45,94
8.7,0.6,87
8.7,0.75,85
8.7,0.9,97
8.7,1.05,99
8.7,1.2,100
8.7,1.35,100
8.7,1.5,100
8.85,-1.5,77
8.85,-1.35,82
8.85,-1.2,67
8.85,-1.05,67
8.85,-0.9,65
8.85,-0.75,57
8.85,-0.6,34
8.85,-0.45,42
8.85,-0.3,141
8.85,-0.15,218
8.85,0.0,65
8.85,0.15,99
8.85,0.3,164
8.85,0.45,163
8.85,0.6,74
8.85,0.75,91
8.85,0.9,109
8.85,1.05,113
8.85,1.2,113
8.85,1.35,112
8.85,1.5,111
9.0,-1.5,82
9.0,-1.35,87
9.0,-1.2,85
9.0,-1.05,67
9.0,-0.9,82
9.0,-0.75,84
9.0,-0.6,84
9.0,-0.45,70
9.0,-0.3,129
9.0,-0.15,34
9.0,0.0,32
9.0,0.15,153
9.0,0.3,255
9.0,0.45,255
9.0,0.6,150
9.0,0.75,125
9.0,0.9,128
9.0,1.05,129
9.0,1.2,124
9.0,1.35,122
9.0,1.5,120
9.15,-1.5,82
9.15,-1.35,96
9.15,-1.2,94
9.15,-1.05,88
9.15,-0.9,85
9.15,-0.75,74
9.15,-0.6,74
9.15,-0.45,54
9.15,-0.3,66
9.15,-0.15,96
9.15,0.0,35
9.15,0.15,147
9.15,0.3,225
9.15,0.45,222
9.15,0.6,174
9.15,0.75,148
9.15,0.9,139
9.15,1.05,135
9.15,1.2,133
9.15,1.35,130
9.15,1.5,124
9.3,-1.5,125
9.3,-1.35,119
9.3,-1.2,116
9.3,-1.05,103
9.3,-0.9,91
9.3,-0.75,80
9.3,-0.6,90
9.3,-0.45,67
9.3,-0.3,45
9.3,-0.15,42
9.3,0.0,45
9.3,0.15,79
9.3,0.3,163
9.3,0.45,162
9.3,0.6,155
9.3,0.75,144
9.3,0.9,137
9.3,1.05,132
9.3,1.2,129
9.3,1.35,126
9.3,1.5,124
9.45,-1.5,140
9.45,-1.35,138
9.45,-1.2,123
9.45,-1.05,122
9.45,-0.9,129
9.45,-0.75,114
9.45,-0.6,128
9.45,-0.45,115
9.45,-0.3,87
9.45,-0.15,0
9.45,0.0,33
9.45,0.15,65
9.45,0.3,98
9.45,0.45,116
9.45,0.6,138
9.45,0.75,134
9.45,0.9,132
9.45,1.05,129
9.45,1.2,126
9.45,1.35,124
9.45,1.5,124
9.6,-1.5,143
9.6,-1.35,143
9.6,-1.2,144
9.6,-1.05,126
9.6,-0.9,131
9.6,-0.75,134
9.6,-0.6,151
9.6,-0.45,224
9.6,-0.3,95
9.6,-0.15,41
9.6,0.0,47
9.6,0.15,55
9.6,0.3,69
9.6,0.45,100
9.6,0.6,110
9.6,0.75,123
9.6,0.9,118
9.6,1.05,129
9.6,1.2,127
9.6,1.35,126
9.6,1.5,125
9.75,-1.5,122
9.75,-1.35,122
9.75,-1.2,123
9.75,-1.05,150
9.75,-0.9,163
9.75,-0.75,159
9.75,-0.6,145
9.75,-0.45,181
9.75,-0.3,68
9.75,-0.15,50
9.75,0.0,63
9.75,0.15,61
9.75,0.3,76
9.75,0.45,83
9.75,0.6,105
9.75,0.75,111
9.75,0.9,111
9.75,1.05,110
9.75,1.2,109
9.75,1.35,122
9.75,1.5,122
9.9,-1.5,122
9.9,-1.35,123
9.9,-1.2,124
9.9,-1.05,125
9.9,-0.9,139
9.9,-0.75,142
9.9,-0.6,142
9.9,-0.45,77
9.9,-0.3,40
9.9,-0.15,51
9.9,0.0,93
9.9,0.15,98
9.9,0.3,101
9.9,0.45,112
9.9,0.6,108
9.9,0.75,111
9.9,0.9,111
9.9,1.05,106
9.9,1.2,107
9.9,1.35,109
9.9,1.5,111
10.05,-1.5,121
10.05,-1.35,117
10.05,-1.2,117
10.05,-1.05,118
10.05,-0.9,121
10.05,-0.75,126
10.05,-0.6,135
10.05,-0.45,113
10.05,-0.3,65
10.05,-0.15,151
10.05,0.0,160
10.05,0.15,136
10.05,0.3,127
10.05,0.45,104
10.05,0.6,97
10.05,0.75,86
10.05,0.9,93
10.05,1.05,92
10.05,1.2,111
10.05,1.35,125
10.05,1.5,117
10.2,-1.5,117
10.2,-1.35,117
10.2,-1.2,120
10.2,-1.05,104
10.2,-0.9,112
10.2,-0.75,115
10.2,-0.6,89
10.2,-0.45,74
10.2,-0.3,136
10.2,-0.15,35
10.2,0.0,137
10.2,0.15,152
10.2,0.3,144
10.2,0.45,109
10.2,0.6,89
10.2,0.75,84
10.2,0.9,87
10.2,1.05,95
10.2,1.2,96
10.2,1.35,106
10.2,1.5,113
10.35,-1.5,117
10.35,-1.35,117
10.35,-1.2,120
10.35,-1.05,120
10.35,-0.9,115
10.35,-0.75,97
10.35,-0.6,98
10.35,-0.45,129
10.35,-0.3,122
10.35,-0.15,238
10.35,0.0,231
10.35,0.15,116
10.35,0.3,119
10.35,0.45,109
10.35,0.6,87
10.35,0.75,41
10.35,0.9,46
10.35,1.05,81
10.35,1.2,108
10.35,1.35,126
10.35,1.5,137
10.5,-1.5,125
10.5,-1.35,138
10.5,-1.2,117
10.5,-1.05,114
10.5,-0.9,98
10.5,-0.75,92
10.5,-0.6,68
10.5,-0.45,76
10.5,-0.3,65
10.5,-0.15,128
10.5,0.0,76
10.5,0.15,147
10.5,0.3,159
10.5,0.45,145
10.5,0.6,98
10.5,0.75,7
10.5,0.9,20
10.5,1.05,67
10.5,1.2,98
10.5,1.35,115
10.5,1.5,126
10.65,-1.5,139
10.65,-1.35,137
10.65,-1.2,122
10.65,-1.05,99
10.65,-0.9,102
10.65,-0.75,97
10.65,-0.6,90
10.65,-0.45,89
10.65,-0.3,63
10.65,-0.15,90
10.65,0.0,146
10.65,0.15,186
10.65,0.3,164
10.65,0.45,144
10.65,0.6,107
10.65,0.75,67
10.65,0.9,59
10.65,1.05,82
10.65,1.2,101
10.65,1.35,113
10.65,1.5,121
10.8,-1.5,154
10.8,-1.35,127
10.8,-1.2,125
10.8,-1.05,122
10.8,-0.9,102
10.8,-0.75,97
10.8,-0.6,123
10.8,-0.45,224
10.8,-0.3,29
10.8,-0.15,52
10.8,0.0,92
10.8,0.15,209
10.8,0.3,183
10.8,0.45,168
10.8,0.6,144
10.8,0.75,117
10.8,0.9,103
10.8,1.05,105
10.8,1.2,107
10.8,1.35,113
10.8,1.5,130
10.95,-1.5,154
10.95,-1.35,154
10.95,-1.2,154
10.95,-1.05,129
10.95,-0.9,116
10.95,-0.75,88
10.95,-0.6,108
10.95,-0.45,119
10.95,-0.3,25
10.95,-0.15,170
10.95,0.0,107
10.95,0.15,171
10.95,0.3,197
10.95,0.45,179
10.95,0.6,157
10.95,0.75,141
10.95,0.9,129
10.95,1.05,124
10.95,1.2,123
10.95,1.35,137
10.95,1.5,140
11.1,-1.5,147
11.1,-1.35,147
11.1,-1.2,147
11.1,-1.05,158
11.1,-0.9,133
11.1,-0.75,139
11.1,-0.6,108
11.1,-0.45,139
11.1,-0.3,52
11.1,-0.15,151
11.1,0.0,117
11.1,0.15,133
11.1,0.3,218
11.1,0.45,191
11.1,0.6,165
11.1,0.75,165
11.1,0.9,158
11.1,1.05,152
11.1,1.2,150
11.1,1.35,149
11.1,1.5,149
11.25,-1.5,114
11.25,-1.35,115
11.25,-1.2,117
11.25,-1.05,117
11.25,-0.9,132
11.25,-0.75,146
11.25,-0.6,202
11.25,-0.45,119
11.25,-0.3,128
11.25,-0.15,87
11.25,0.0,128
11.25,0.15,133
11.25,0.3,162
11.25,0.45,166
11.25,0.6,163
11.25,0.75,156
11.25,0.9,164
11.25,1.05,159
11.25,1.2,138
11.25,1.35,136
11.25,1.5,131
11.4,-1.5,92
11.4,-1.35,92
11.4,-1.2,93
11.4,-1.05,98
11.4,-0.9,117
11.4,-0.75,156
11.4,-0.6,194
11.4,-0.45,47
11.4,-0.3,74
11.4,-0.15,48
11.4,0.0,163
11.4,0.15,117
11.4,0.3,117
11.4,0.45,119
11.4,0.6,118
11.4,0.75,130
11.4,0.9,145
11.4,1.05,142
11.4,1.2,139
11.4,1.35,138
11.4,1.5,127
11.55,-1.5,92
11.55,-1.35,92
11.55,-1.2,92
11.55,-1.05,92
11.55,-0.9,92
11.55,-0.75,99
11.55,-0.6,132
11.55,-0.45,58
11.55,-0.3,150
11.55,-0.15,48
11.55,0.0,58
11.55,0.15,74
11.55,0.3,75
11.55,0.45,85
11.55,0.6,87
11.55,0.75,93
11.55,0.9,91
11.55,1.05,91
11.55,1.2,99
11.55,1.35,98
11.55,1.5,115
11.7,-1.5,95
11.7,-1.35,95
11.7,-1.2,95
11.7,-1.05,93
11.7,-0.9,114
11.7,-0.75,89
11.7,-0.6,53
11.7,-0.45,0
11.7,-0.3,50
11.7,-0.15,57
11.7,0.0,47
11.7,0.15,58
11.7,0.3,64
11.7,0.45,71
11.7,0.6,79
11.7,0.75,91
11.7,0.9,93
11.7,1.05,94
11.7,1.2,78
11.7,1.35,76
11.7,1.5,73
11.85,-1.5,103
11.85,-1.35,102
11.85,-1.2,95
11.85,-1.05,69
11.85,-0.9,67
11.85,-0.75,39
11.85,-0.6,47
11.85,-0.45,73
11.85,-0.3,17
11.85,-0.15,31
11.85,0.0,59
11.85,0.15,52
11.85,0.3,52
11.85,0.45,52
11.85,0.6,71
11.85,0.75,92
11.85,0.9,94
11.85,1.05,86
11.85,1.2,84
11.85,1.35,82
11.85,1.5,80
12.0,-1.5,83
12.0,-1.35,84
12.0,-1.2,83
12.0,-1.05,58
12.0,-0.9,60
12.0,-0.75,63
12.0,-0.6,70
12.0,-0.45,78
12.0,-0.3,74
12.0,-0.15,64
12.0,0.0,75
12.0,0.15,75
12.0,0.3,75
12.0,0.45,75
12.0,0.6,52
12.0,0.75,52
12.0,0.9,67
12.0,1.05,86
12.0,1.2,84
12.0,1.35,84
12.0,1.5,84
12.15,-1.5,53
12.15,-1.35,55
12.15,-1.2,62
12.15,-1.05,58
12.15,-0.9,64
12.15,-0.75,67
12.15,-0.6,62
12.15,-0.45,43
12.15,-0.3,63
12.15,-0.15,68
12.15,0.0,75
12.15,0.15,70
12.15,0.3,76
12.15,0.45,76
12.15,0.6,76
12.15,0.75,76
12.15,0.9,76
12.15,1.05,73
12.15,1.2,69
12.15,1.35,57
12.15,1.5,72
12.3,-1.5,26
12.3,-1.35,27
12.3,-1.2,29
12.3,-1.05,36
12.3,-0.9,42
12.3,-0.75,47
12.3,-0.6,63
12.3,-0.45,27
12.3,-0.3,38
12.3,-0.15,21
12.3,0.0,31
12.3,0.15,61
12.3,0.3,64
12.3,0.45,65
12.3,0.6,65
12.3,0.75,45
12.3,0.9,43
12.3,1.05,41
12.3,1.2,37
12.3,1.35,34
12.3,1.5,32
12.45,-1.5,26
12.45,-1.35,28
12.45,-1.2,31
12.45,-1.05,34
12.45,-0.9,39
12.45,-0.75,42
12.45,-0.6,50
12.45,-0.45,51
12.45,-0.3,52
12.45,-0.15,23
12.45,0.0,21
12.45,0.15,37
12.45,0.3,30
12.45,0.45,32
12.45,0.6,38
12.45,0.75,33
12.45,0.9,31
12.45,1.05,28
12.45,1.2,32
12.45,1.35,28
12.45,1.5,25
12.6,-1.5,20
12.6,-1.35,24
12.6,-1.2,27
12.6,-1.05,30
12.6,-0.9,33
12.6,-0.75,29
12.6,-0.6,25
12.6,-0.45,19
12.6,-0.3,59
12.6,-0.15,16
12.6,0.0,22
12.6,0.15,20
12.6,0.3,24
12.6,0.45,30
12.6,0.6,36
12.6,0.75,35
12.6,0.9,33
12.6,1.05,24
12.6,1.2,19
12.6,1.35,15
12.6,1.5,12
12.75,-1.5,11
12.75,-1.35,16
12.75,-1.2,23
12.75,-1.05,27
12.75,-0.9,26
12.75,-0.75,17
12.75,-0.6,3
12.75,-0.45,0
12.75,-0.3,23
12.75,-0.15,16
12.75,0.0,20
12.75,0.15,23
12.75,0.3,20
12.75,0.45,20
12.75,0.6,20
12.75,0.75,28
12.75,0.9,25
12.75,1.05,20
12.75,1.2,19
12.75,1.35,9
12.75,1.5,6
12.9,-1.5,1
12.9,-1.35,6
12.9,-1.2,16
12.9,-1.05,21
12.9,-0.9,24
12.9,-0.75,21
12.9,-0.6,17
12.9,-0.45,18
12.9,-0.3,14
12.9,-0.15,4
12.9,0.0,17
12.9,0.15,22
12.9,0.3,19
12.9,0.45,20
12.9,0.6,15
12.9,0.75,13
12.9,0.9,15
12.9,1.05,17
12.9,1.2,9
12.9,1.35,3
12.9,1.5,0
13.05,-1.5,0
13.05,-1.35,4
13.05,-1.2,16
13.05,-1.05,23
13.05,-0.9,24
13.05,-0.75,24
13.05,-0.6,22
13.05,-0.45,21
13.05,-0.3,19
13.05,-0.15,14
13.05,0.0,19
13.05,0.15,18
13.05,0.3,19
13.05,0.45,20
13.05,0.6,19
13.05,0.75,17
13.05,0.9,11
13.05,1.05,8
13.05,1.2,5
13.05,1.35,1
13.05,1.5,0
