-3.0,-1.5,0
-3.0,-1.35,9
-3.0,-1.2,46
-3.0,-1.05,87
-3.0,-0.9,120
-3.0,-0.75,140
-3.0,-0.6,138
-3.0,-0.45,123
-3.0,-0.3,101
-3.0,-0.15,83
-3.0,0.0,65
-3.0,0.15,47
-3.0,0.3,36
-3.0,0.45,31
-3.0,0.6,36
-3.0,0.75,38
-3.0,0.9,32
-3.0,1.05,23
-3.0,1.2,19
-3.0,1.35,7
-3.0,1.5,0
-2.85,-1.5,8
-2.85,-1.35,23
-2.85,-1.2,60
-2.85,-1.05,106
-2.85,-0.9,149
-2.85,-0.75,175
-2.85,-0.6,166
-2.85,-0.45,139
-2.85,-0.3,109
-2.85,-0.15,87
-2.85,0.0,66
-2.85,0.15,43
-2.85,0.3,19
-2.85,0.45,7
-2.85,0.6,30
-2.85,0.75,38
-2.85,0.9,26
-2.85,1.05,7
-2.85,1.2,11
-2.85,1.35,13
-2.85,1.5,7
-2.7,-1.5,32
-2.7,-1.35,46
-2.7,-1.2,74
-2.7,-1.05,116
-2.7,-0.9,170
-2.7,-0.75,206
-2.7,-0.6,189
-2.7,-0.45,149
-2.7,-0.3,120
-2.7,-0.15,93
-2.7,0.0,78
-2.7,0.15,48
-2.7,0.3,22
-2.7,0.45,8
-2.7,0.6,42
-2.7,0.75,45
-2.7,0.9,29
-2.7,1.05,0
-2.7,1.2,9
-2.7,1.35,22
-2.7,1.5,24
-2.55,-1.5,47
-2.55,-1.35,56
-2.55,-1.2,71
-2.55,-1.05,102
-2.55,-0.9,151
-2.55,-0.75,186
-2.55,-0.6,174
-2.55,-0.45,144
-2.55,-0.3,125
-2.55,-0.15,109
-2.55,0.0,86
-2.55,0.15,63
-2.55,0.3,50
-2.55,0.45,45
-2.55,0.6,49
-2.55,0.75,52
-2.55,0.9,47
-2.55,1.05,33
-2.55,1.2,29
-2.55,1.35,25
-2.55,1.5,25
-2.4,-1.5,49
-2.4,-1.35,47
-2.4,-1.2,47
-2.4,-1.05,61
-2.4,-0.9,99
-2.4,-0.75,132
-2.4,-0.6,138
-2.4,-0.45,136
-2.4,-0.3,137
-2.4,-0.15,135
-2.4,0.0,99
-2.4,0.15,58
-2.4,0.3,54
-2.4,0.45,62
-2.4,0.6,64
-2.4,0.75,70
-2.4,0.9,77
-2.4,1.05,70
-2.4,1.2,41
-2.4,1.35,4
-2.4,1.5,16
-2.25,-1.5,46
-2.25,-1.35,33
-2.25,-1.2,14
-2.25,-1.05,13
-2.25,-0.9,53
-2.25,-0.75,95
-2.25,-0.6,116
-2.25,-0.45,135
-2.25,-0.3,161
-2.25,-0.15,183
-2.25,0.0,136
-2.25,0.15,74
-2.25,0.3,66
-2.25,0.45,79
-2.25,0.6,87
-2.25,0.75,105
-2.25,0.9,128
-2.25,1.05,126
-2.25,1.2,72
-2.25,1.35,13
-2.25,1.5,24
-2.1,-1.5,46
-2.1,-1.35,29
-2.1,-1.2,6
-2.1,-1.05,1
-2.1,-0.9,38
-2.1,-0.75,80
-2.1,-0.6,106
-2.1,-0.45,128
-2.1,-0.3,167
-2.1,-0.15,204
-2.1,0.0,158
-2.1,0.15,111
-2.1,0.3,96
-2.1,0.45,101
-2.1,0.6,112
-2.1,0.75,141
-2.1,0.9,183
-2.1,1.05,196
-2.1,1.2,141
-2.1,1.35,85
-2.1,1.5,70
-1.95,-1.5,52
-1.95,-1.35,40
-1.95,-1.2,27
-1.95,-1.05,29
-1.95,-0.9,53
-1.95,-0.75,79
-1.95,-0.6,98
-1.95,-0.45,111
-1.95,-0.3,124
-1.95,-0.15,133
-1.95,0.0,129
-1.95,0.15,121
-1.95,0.3,116
-1.95,0.45,115
-1.95,0.6,131
-1.95,0.75,161
-1.95,0.9,193
-1.95,1.05,202
-1.95,1.2,185
-1.95,1.35,148
-1.95,1.5,119
-1.8,-1.5,69
-1.8,-1.35,64
-1.8,-1.2,54
-1.8,-1.05,59
-1.8,-0.9,72
-1.8,-0.75,93
-1.8,-0.6,99
-1.8,-0.45,90
-1.8,-0.3,69
-1.8,-0.15,48
-1.8,0.0,112
-1.8,0.15,132
-1.8,0.3,122
-1.8,0.45,126
-1.8,0.6,151
-1.8,0.75,180
-1.8,0.9,217
-1.8,1.05,255
-1.8,1.2,252
-1.8,1.35,199
-1.8,1.5,159
-1.65,-1.5,79
-1.65,-1.35,80
-1.65,-1.2,83
-1.65,-1.05,90
-1.65,-0.9,99
-1.65,-0.75,102
-1.65,-0.6,99
-1.65,-0.45,91
-1.65,-0.3,60
-1.65,-0.15,21
-1.65,0.0,192
-1.65,0.15,153
-1.65,0.3,142
-1.65,0.45,141
-1.65,0.6,157
-1.65,0.75,189
-1.65,0.9,243
-1.65,1.05,255
-1.65,1.2,255
-1.65,1.35,224
-1.65,1.5,181
-1.5,-1.5,86
-1.5,-1.35,91
-1.5,-1.2,99
-1.5,-1.05,111
-1.5,-0.9,118
-1.5,-0.75,116
-1.5,-0.6,106
-1.5,-0.45,93
-1.5,-0.3,88
-1.5,-0.15,119
-1.5,0.0,171
-1.5,0.15,159
-1.5,0.3,155
-1.5,0.45,154
-1.5,0.6,164
-1.5,0.75,191
-1.5,0.9,221
-1.5,1.05,255
-1.5,1.2,248
-1.5,1.35,215
-1.5,1.5,184
-1.35,-1.5,89
-1.35,-1.35,96
-1.35,-1.2,108
-1.35,-1.05,134
-1.35,-0.9,153
-1.35,-0.75,146
-1.35,-0.6,118
-1.35,-0.45,103
-1.35,-0.3,104
-1.35,-0.15,118
-1.35,0.0,135
-1.35,0.15,152
-1.35,0.3,152
-1.35,0.45,153
-1.35,0.6,153
-1.35,0.75,172
-1.35,0.9,193
-1.35,1.05,213
-1.35,1.2,208
-1.35,1.35,196
-1.35,1.5,184
-1.2,-1.5,84
-1.2,-1.35,91
-1.2,-1.2,105
-1.2,-1.05,137
-1.2,-0.9,193
-1.2,-0.75,179
-1.2,-0.6,116
-1.2,-0.45,88
-1.2,-0.3,95
-1.2,-0.15,111
-1.2,0.0,134
-1.2,0.15,149
-1.2,0.3,150
-1.2,0.45,135
-1.2,0.6,134
-1.2,0.75,151
-1.2,0.9,176
-1.2,1.05,192
-1.2,1.2,198
-1.2,1.35,198
-1.2,1.5,192
-1.05,-1.5,74
-1.05,-1.35,78
-1.05,-1.2,86
-1.05,-1.05,109
-1.05,-0.9,155
-1.05,-0.75,144
-1.05,-0.6,77
-1.05,-0.45,41
-1.05,-0.3,70
-1.05,-0.15,108
-1.05,0.0,142
-1.05,0.15,150
-1.05,0.3,143
-1.05,0.45,114
-1.05,0.6,108
-1.05,0.75,140
-1.05,0.9,167
-1.05,1.05,180
-1.05,1.2,185
-1.05,1.35,184
-1.05,1.5,175
-0.9,-1.5,68
-0.9,-1.35,68
-0.9,-1.2,66
-0.9,-1.05,60
-0.9,-0.9,65
-0.9,-0.75,78
-0.9,-0.6,46
-0.9,-0.45,0
-0.9,-0.3,60
-0.9,-0.15,119
-0.9,0.0,159
-0.9,0.15,167
-0.9,0.3,153
-0.9,0.45,136
-0.9,0.6,131
-0.9,0.75,161
-0.9,0.9,172
-0.9,1.05,177
-0.9,1.2,172
-0.9,1.35,170
-0.9,1.5,166
-0.75,-1.5,58
-0.75,-1.35,55
-0.75,-1.2,55
-0.75,-1.05,49
-0.75,-0.9,48
-0.75,-0.75,50
-0.75,-0.6,54
-0.75,-0.45,68
-0.75,-0.3,124
-0.75,-0.15,160
-0.75,0.0,189
-0.75,0.15,196
-0.75,0.3,188
-0.75,0.45,176
-0.75,0.6,181
-0.75,0.75,187
-0.75,0.9,185
-0.75,1.05,168
-0.75,1.2,159
-0.75,1.35,153
-0.75,1.5,158
-0.6,-1.5,56
-0.6,-1.35,58
-0.6,-1.2,46
-0.6,-1.05,24
-0.6,-0.9,7
-0.6,-0.75,24
-0.6,-0.6,24
-0.6,-0.45,137
-0.6,-0.3,242
-0.6,-0.15,211
-0.6,0.0,216
-0.6,0.15,232
-0.6,0.3,213
-0.6,0.45,202
-0.6,0.6,212
-0.6,0.75,236
-0.6,0.9,203
-0.6,1.05,169
-0.6,1.2,152
-0.6,1.35,144
-0.6,1.5,140
-0.45,-1.5,54
-0.45,-1.35,56
-0.45,-1.2,44
-0.45,-1.05,23
-0.45,-0.9,12
-0.45,-0.75,27
-0.45,-0.6,32
-0.45,-0.45,168
-0.45,-0.3,255
-0.45,-0.15,235
-0.45,0.0,249
-0.45,0.15,255
-0.45,0.3,207
-0.45,0.45,200
-0.45,0.6,224
-0.45,0.75,255
-0.45,0.9,207
-0.45,1.05,156
-0.45,1.2,139
-0.45,1.35,131
-0.45,1.5,114
-0.3,-1.5,53
-0.3,-1.35,49
-0.3,-1.2,51
-0.3,-1.05,43
-0.3,-0.9,42
-0.3,-0.75,51
-0.3,-0.6,71
-0.3,-0.45,124
-0.3,-0.3,183
-0.3,-0.15,201
-0.3,0.0,231
-0.3,0.15,233
-0.3,0.3,113
-0.3,0.45,204
-0.3,0.6,176
-0.3,0.75,109
-0.3,0.9,109
-0.3,1.05,122
-0.3,1.2,110
-0.3,1.35,96
-0.3,1.5,93
-0.15,-1.5,54
-0.15,-1.35,52
-0.15,-1.2,49
-0.15,-1.05,54
-0.15,-0.9,55
-0.15,-0.75,61
-0.15,-0.6,63
-0.15,-0.45,73
-0.15,-0.3,124
-0.15,-0.15,164
-0.15,0.0,197
-0.15,0.15,214
-0.15,0.3,255
-0.15,0.45,233
-0.15,0.6,142
-0.15,0.75,85
-0.15,0.9,76
-0.15,1.05,81
-0.15,1.2,87
-0.15,1.35,90
-0.15,1.5,79
0.0,-1.5,54
0.0,-1.35,54
0.0,-1.2,54
0.0,-1.05,55
0.0,-0.9,59
0.0,-0.75,67
0.0,-0.6,49
0.0,-0.45,22
0.0,-0.3,71
0.0,-0.15,136
0.0,0.0,182
0.0,0.15,201
0.0,0.3,204
0.0,0.45,157
0.0,0.6,94
0.0,0.75,58
0.0,0.9,14
0.0,1.05,52
0.0,1.2,61
0.0,1.35,67
0.0,1.5,71
0.15,-1.5,54
0.15,-1.35,48
0.15,-1.2,58
0.15,-1.05,59
0.15,-0.9,66
0.15,-0.75,86
0.15,-0.6,76
0.15,-0.45,2
0.15,-0.3,45
0.15,-0.15,130
0.15,0.0,195
0.15,0.15,210
0.15,0.3,213
0.15,0.45,118
0.15,0.6,51
0.15,0.75,50
0.15,0.9,26
0.15,1.05,47
0.15,1.2,60
0.15,1.35,67
0.15,1.5,71
0.3,-1.5,47
0.3,-1.35,48
0.3,-1.2,50
0.3,-1.05,61
0.3,-0.9,65
0.3,-0.75,78
0.3,-0.6,65
0.3,-0.45,47
0.3,-0.3,64
0.3,-0.15,121
0.3,0.0,189
0.3,0.15,233
0.3,0.3,255
0.3,0.45,112
0.3,0.6,50
0.3,0.75,52
0.3,0.9,50
0.3,1.05,51
0.3,1.2,56
0.3,1.35,54
0.3,1.5,58
0.45,-1.5,31
0.45,-1.35,32
0.45,-1.2,41
0.45,-1.05,45
0.45,-0.9,56
0.45,-0.75,64
0.45,-0.6,67
0.45,-0.45,63
0.45,-0.3,87
0.45,-0.15,108
0.45,0.0,153
0.45,0.15,192
0.45,0.3,188
0.45,0.45,108
0.45,0.6,65
0.45,0.75,49
0.45,0.9,49
0.45,1.05,49
0.45,1.2,50
0.45,1.35,48
0.45,1.5,48
0.6,-1.5,30
0.6,-1.35,31
0.6,-1.2,32
0.6,-1.05,41
0.6,-0.9,50
0.6,-0.75,54
0.6,-0.6,70
0.6,-0.45,85
0.6,-0.3,98
0.6,-0.15,108
0.6,0.0,132
0.6,0.15,143
0.6,0.3,126
0.6,0.45,74
0.6,0.6,40
0.6,0.75,13
0.6,0.9,38
0.6,1.05,46
0.6,1.2,48
0.6,1.35,49
0.6,1.5,51
0.75,-1.5,30
0.75,-1.35,31
0.75,-1.2,36
0.75,-1.05,34
0.75,-0.9,33
0.75,-0.75,35
0.75,-0.6,53
0.75,-0.45,80
0.75,-0.3,102
0.75,-0.15,116
0.75,0.0,131
0.75,0.15,128
0.75,0.3,109
0.75,0.45,55
0.75,0.6,0
0.75,0.75,17
0.75,0.9,48
0.75,1.05,47
0.75,1.2,49
0.75,1.35,50
0.75,1.5,51
0.9,-1.5,31
0.9,-1.35,30
0.9,-1.2,27
0.9,-1.05,29
0.9,-0.9,17
0.9,-0.75,8
0.9,-0.6,29
0.9,-0.45,63
0.9,-0.3,91
0.9,-0.15,134
0.9,0.0,138
0.9,0.15,125
0.9,0.3,114
0.9,0.45,120
0.9,0.6,81
0.9,0.75,59
0.9,0.9,51
0.9,1.05,51
0.9,1.2,52
0.9,1.35,53
0.9,1.5,50
1.05,-1.5,32
1.05,-1.35,38
1.05,-1.2,34
1.05,-1.05,26
1.05,-0.9,12
1.05,-0.75,0
1.05,-0.6,22
1.05,-0.45,55
1.05,-0.3,103
1.05,-0.15,164
1.05,0.0,156
1.05,0.15,115
1.05,0.3,111
1.05,0.45,206
1.05,0.6,231
1.05,0.75,91
1.05,0.9,64
1.05,1.05,56
1.05,1.2,54
1.05,1.35,54
1.05,1.5,54
1.2,-1.5,41
1.2,-1.35,42
1.2,-1.2,38
1.2,-1.05,27
1.2,-0.9,18
1.2,-0.75,17
1.2,-0.6,30
1.2,-0.45,58
1.2,-0.3,97
1.2,-0.15,179
1.2,0.0,166
1.2,0.15,104
1.2,0.3,77
1.2,0.45,35
1.2,0.6,88
1.2,0.75,68
1.2,0.9,59
1.2,1.05,53
1.2,1.2,53
1.2,1.35,54
1.2,1.5,54
1.35,-1.5,42
1.35,-1.35,47
1.35,-1.2,45
1.35,-1.05,24
1.35,-0.9,10
1.35,-0.75,10
1.35,-0.6,26
1.35,-0.45,48
1.35,-0.3,61
1.35,-0.15,83
1.35,0.0,103
1.35,0.15,81
1.35,0.3,60
1.35,0.45,48
1.35,0.6,56
1.35,0.75,101
1.35,0.9,49
1.35,1.05,49
1.35,1.2,51
1.35,1.35,53
1.35,1.5,54
1.5,-1.5,41
1.5,-1.35,42
1.5,-1.2,36
1.5,-1.05,17
1.5,-0.9,2
1.5,-0.75,2
1.5,-0.6,21
1.5,-0.45,48
1.5,-0.3,50
1.5,-0.15,60
1.5,0.0,71
1.5,0.15,73
1.5,0.3,71
1.5,0.45,55
1.5,0.6,54
1.5,0.75,43
1.5,0.9,13
1.5,1.05,43
1.5,1.2,50
1.5,1.35,53
1.5,1.5,54
1.65,-1.5,34
1.65,-1.35,32
1.65,-1.2,25
1.65,-1.05,13
1.65,-0.9,4
1.65,-0.75,2
1.65,-0.6,18
1.65,-0.45,42
1.65,-0.3,52
1.65,-0.15,60
1.65,0.0,57
1.65,0.15,99
1.65,0.3,156
1.65,0.45,4
1.65,0.6,47
1.65,0.75,44
1.65,0.9,38
1.65,1.05,44
1.65,1.2,49
1.65,1.35,52
1.65,1.5,54
1.8,-1.5,35
1.8,-1.35,31
1.8,-1.2,24
1.8,-1.05,14
1.8,-0.9,0
1.8,-0.75,0
1.8,-0.6,17
1.8,-0.45,32
1.8,-0.3,45
1.8,-0.15,43
1.8,0.0,19
1.8,0.15,39
1.8,0.3,70
1.8,0.45,46
1.8,0.6,46
1.8,0.75,48
1.8,0.9,45
1.8,1.05,45
1.8,1.2,38
1.8,1.35,38
1.8,1.5,38
1.95,-1.5,39
1.95,-1.35,35
1.95,-1.2,29
1.95,-1.05,23
1.95,-0.9,12
1.95,-0.75,13
1.95,-0.6,23
1.95,-0.45,35
1.95,-0.3,48
1.95,-0.15,37
1.95,0.0,27
1.95,0.15,53
1.95,0.3,62
1.95,0.45,58
1.95,0.6,51
1.95,0.75,48
1.95,0.9,48
1.95,1.05,45
1.95,1.2,44
1.95,1.35,35
1.95,1.5,34
2.1,-1.5,47
2.1,-1.35,45
2.1,-1.2,42
2.1,-1.05,36
2.1,-0.9,28
2.1,-0.75,34
2.1,-0.6,40
2.1,-0.45,51
2.1,-0.3,59
2.1,-0.15,64
2.1,0.0,199
2.1,0.15,84
2.1,0.3,66
2.1,0.45,58
2.1,0.6,50
2.1,0.75,46
2.1,0.9,46
2.1,1.05,35
2.1,1.2,32
2.1,1.35,33
2.1,1.5,32
2.25,-1.5,52
2.25,-1.35,52
2.25,-1.2,53
2.25,-1.05,51
2.25,-0.9,55
2.25,-0.75,52
2.25,-0.6,61
2.25,-0.45,55
2.25,-0.3,60
2.25,-0.15,74
2.25,0.0,84
2.25,0.15,76
2.25,0.3,54
2.25,0.45,41
2.25,0.6,34
2.25,0.75,35
2.25,0.9,30
2.25,1.05,27
2.25,1.2,25
2.25,1.35,27
2.25,1.5,30
2.4,-1.5,57
2.4,-1.35,57
2.4,-1.2,57
2.4,-1.05,65
2.4,-0.9,74
2.4,-0.75,73
2.4,-0.6,66
2.4,-0.45,54
2.4,-0.3,46
2.4,-0.15,63
2.4,0.0,69
2.4,0.15,60
2.4,0.3,51
2.4,0.45,29
2.4,0.6,18
2.4,0.75,14
2.4,0.9,18
2.4,1.05,20
2.4,1.2,21
2.4,1.35,22
2.4,1.5,22
2.55,-1.5,66
2.55,-1.35,62
2.55,-1.2,57
2.55,-1.05,76
2.55,-0.9,91
2.55,-0.75,84
2.55,-0.6,77
2.55,-0.45,56
2.55,-0.3,9
2.55,-0.15,171
2.55,0.0,81
2.55,0.15,56
2.55,0.3,34
2.55,0.45,13
2.55,0.6,0
2.55,0.75,3
2.55,0.9,12
2.55,1.05,18
2.55,1.2,21
2.55,1.35,21
2.55,1.5,21
2.7,-1.5,65
2.7,-1.35,67
2.7,-1.2,75
2.7,-1.05,111
2.7,-0.9,116
2.7,-0.75,91
2.7,-0.6,77
2.7,-0.45,72
2.7,-0.3,79
2.7,-0.15,127
2.7,0.0,77
2.7,0.15,48
2.7,0.3,34
2.7,0.45,0
2.7,0.6,5
2.7,0.75,2
2.7,0.9,12
2.7,1.05,18
2.7,1.2,21
2.7,1.35,23
2.7,1.5,24
2.85,-1.5,62
2.85,-1.35,54
2.85,-1.2,82
2.85,-1.05,112
2.85,-0.9,126
2.85,-0.75,87
2.85,-0.6,68
2.85,-0.45,79
2.85,-0.3,82
2.85,-0.15,79
2.85,0.0,48
2.85,0.15,46
2.85,0.3,38
2.85,0.45,9
2.85,0.6,13
2.85,0.75,10
2.85,0.9,21
2.85,1.05,24
2.85,1.2,24
2.85,1.35,25
2.85,1.5,25
3.0,-1.5,62
3.0,-1.35,56
3.0,-1.2,76
3.0,-1.05,98
3.0,-0.9,92
3.0,-0.75,68
3.0,-0.6,55
3.0,-0.45,104
3.0,-0.3,106
3.0,-0.15,75
3.0,0.0,35
3.0,0.15,42
3.0,0.3,66
3.0,0.45,9
3.0,0.6,41
3.0,0.75,41
3.0,0.9,36
3.0,1.05,31
3.0,1.2,30
3.0,1.35,27
3.0,1.5,27
3.15,-1.5,63
3.15,-1.35,64
3.15,-1.2,73
3.15,-1.05,81
3.15,-0.9,70
3.15,-0.75,23
3.15,-0.6,56
3.15,-0.45,205
3.15,-0.3,125
3.15,-0.15,81
3.15,0.0,38
3.15,0.15,28
3.15,0.3,41
3.15,0.45,9
3.15,0.6,29
3.15,0.75,41
3.15,0.9,39
3.15,1.05,35
3.15,1.2,33
3.15,1.35,32
3.15,1.5,31
3.3,-1.5,61
3.3,-1.35,61
3.3,-1.2,62
3.3,-1.05,73
3.3,-0.9,69
3.3,-0.75,58
3.3,-0.6,93
3.3,-0.45,123
3.3,-0.3,111
3.3,-0.15,93
3.3,0.0,89
3.3,0.15,81
3.3,0.3,62
3.3,0.45,76
3.3,0.6,44
3.3,0.75,48
3.3,0.9,44
3.3,1.05,38
3.3,1.2,35
3.3,1.35,31
3.3,1.5,31
3.45,-1.5,58
3.45,-1.35,56
3.45,-1.2,59
3.45,-1.05,61
3.45,-0.9,76
3.45,-0.75,85
3.45,-0.6,119
3.45,-0.45,172
3.45,-0.3,147
3.45,-0.15,104
3.45,0.0,85
3.45,0.15,41
3.45,0.3,63
3.45,0.45,63
3.45,0.6,53
3.45,0.75,46
3.45,0.9,47
3.45,1.05,43
3.45,1.2,42
3.45,1.35,41
3.45,1.5,37
3.6,-1.5,61
3.6,-1.35,56
3.6,-1.2,51
3.6,-1.05,56
3.6,-0.9,77
3.6,-0.75,78
3.6,-0.6,78
3.6,-0.45,172
3.6,-0.3,159
3.6,-0.15,121
3.6,0.0,79
3.6,0.15,60
3.6,0.3,68
3.6,0.45,66
3.6,0.6,58
3.6,0.75,47
3.6,0.9,44
3.6,1.05,43
3.6,1.2,42
3.6,1.35,41
3.6,1.5,54
3.75,-1.5,64
3.75,-1.35,57
3.75,-1.2,51
3.75,-1.05,55
3.75,-0.9,69
3.75,-0.75,93
3.75,-0.6,133
3.75,-0.45,165
3.75,-0.3,175
3.75,-0.15,123
3.75,0.0,60
3.75,0.15,69
3.75,0.3,82
3.75,0.45,88
3.75,0.6,61
3.75,0.75,55
3.75,0.9,55
3.75,1.05,54
3.75,1.2,55
3.75,1.35,55
3.75,1.5,56
3.9,-1.5,65
3.9,-1.35,61
3.9,-1.2,55
3.9,-1.05,49
3.9,-0.9,43
3.9,-0.75,30
3.9,-0.6,190
3.9,-0.45,190
3.9,-0.3,194
3.9,-0.15,130
3.9,0.0,79
3.9,0.15,73
3.9,0.3,67
3.9,0.45,57
3.9,0.6,38
3.9,0.75,48
3.9,0.9,56
3.9,1.05,57
3.9,1.2,57
3.9,1.35,57
3.9,1.5,57
4.05,-1.5,62
4.05,-1.35,65
4.05,-1.2,61
4.05,-1.05,58
4.05,-0.9,54
4.05,-0.75,63
4.05,-0.6,126
4.05,-0.45,153
4.05,-0.3,142
4.05,-0.15,102
4.05,0.0,97
4.05,0.15,91
4.05,0.3,61
4.05,0.45,42
4.05,0.6,4
4.05,0.75,45
4.05,0.9,53
4.05,1.05,56
4.05,1.2,57
4.05,1.35,56
4.05,1.5,56
4.2,-1.5,62
4.2,-1.35,61
4.2,-1.2,67
4.2,-1.05,68
4.2,-0.9,71
4.2,-0.75,85
4.2,-0.6,102
4.2,-0.45,113
4.2,-0.3,113
4.2,-0.15,105
4.2,0.0,99
4.2,0.15,82
4.2,0.3,61
4.2,0.45,69
4.2,0.6,78
4.2,0.75,51
4.2,0.9,56
4.2,1.05,57
4.2,1.2,56
4.2,1.35,56
4.2,1.5,56
4.35,-1.5,63
4.35,-1.35,62
4.35,-1.2,62
4.35,-1.05,63
4.35,-0.9,65
4.35,-0.75,79
4.35,-0.6,83
4.35,-0.45,82
4.35,-0.3,102
4.35,-0.15,98
4.35,0.0,98
4.35,0.15,90
4.35,0.3,65
4.35,0.45,101
4.35,0.6,105
4.35,0.75,66
4.35,0.9,58
4.35,1.05,56
4.35,1.2,56
4.35,1.35,56
4.35,1.5,56
4.5,-1.5,68
4.5,-1.35,62
4.5,-1.2,62
4.5,-1.05,68
4.5,-0.9,69
4.5,-0.75,68
4.5,-0.6,53
4.5,-0.45,27
4.5,-0.3,86
4.5,-0.15,97
4.5,0.0,77
4.5,0.15,140
4.5,0.3,87
4.5,0.45,66
4.5,0.6,65
4.5,0.75,64
4.5,0.9,65
4.5,1.05,65
4.5,1.2,65
4.5,1.35,66
4.5,1.5,60
4.65,-1.5,69
4.65,-1.35,67
4.65,-1.2,64
4.65,-1.05,67
4.65,-0.9,67
4.65,-0.75,77
4.65,-0.6,66
4.65,-0.45,77
4.65,-0.3,155
4.65,-0.15,115
4.65,0.0,100
4.65,0.15,60
4.65,0.3,82
4.65,0.45,34
4.65,0.6,49
4.65,0.75,68
4.65,0.9,73
4.65,1.05,74
4.65,1.2,76
4.65,1.35,81
4.65,1.5,81
4.8,-1.5,77
4.8,-1.35,84
4.8,-1.2,74
4.8,-1.05,56
4.8,-0.9,75
4.8,-0.75,91
4.8,-0.6,71
4.8,-0.45,55
4.8,-0.3,138
4.8,-0.15,105
4.8,0.0,127
4.8,0.15,92
4.8,0.3,93
4.8,0.45,67
4.8,0.6,54
4.8,0.75,64
4.8,0.9,75
4.8,1.05,80
4.8,1.2,80
4.8,1.35,81
4.8,1.5,81
4.95,-1.5,122
4.95,-1.35,110
4.95,-1.2,86
4.95,-1.05,60
4.95,-0.9,83
4.95,-0.75,107
4.95,-0.6,89
4.95,-0.45,67
4.95,-0.3,130
4.95,-0.15,133
4.95,0.0,156
4.95,0.15,165
4.95,0.3,255
4.95,0.45,117
4.95,0.6,71
4.95,0.75,72
4.95,0.9,70
4.95,1.05,78
4.95,1.2,78
4.95,1.35,82
4.95,1.5,82
5.1,-1.5,122
5.1,-1.35,116
5.1,-1.2,109
5.1,-1.05,107
5.1,-0.9,126
5.1,-0.75,144
5.1,-0.6,163
5.1,-0.45,167
5.1,-0.3,153
5.1,-0.15,168
5.1,0.0,131
5.1,0.15,107
5.1,0.3,96
5.1,0.45,125
5.1,0.6,103
5.1,0.75,83
5.1,0.9,74
5.1,1.05,70
5.1,1.2,70
5.1,1.35,71
5.1,1.5,71
5.25,-1.5,128
5.25,-1.35,128
5.25,-1.2,130
5.25,-1.05,136
5.25,-0.9,148
5.25,-0.75,165
5.25,-0.6,204
5.25,-0.45,251
5.25,-0.3,114
5.25,-0.15,140
5.25,0.0,14
5.25,0.15,31
5.25,0.3,40
5.25,0.45,162
5.25,0.6,144
5.25,0.75,92
5.25,0.9,82
5.25,1.05,77
5.25,1.2,75
5.25,1.35,74
5.25,1.5,74
5.4,-1.5,147
5.4,-1.35,150
5.4,-1.2,155
5.4,-1.05,162
5.4,-0.9,170
5.4,-0.75,173
5.4,-0.6,137
5.4,-0.45,248
5.4,-0.3,51
5.4,-0.15,86
5.4,0.0,43
5.4,0.15,4
5.4,0.3,14
5.4,0.45,30
5.4,0.6,67
5.4,0.75,60
5.4,0.9,56
5.4,1.05,54
5.4,1.2,56
5.4,1.35,56
5.4,1.5,52
5.55,-1.5,149
5.55,-1.35,152
5.55,-1.2,156
5.55,-1.05,163
5.55,-0.9,170
5.55,-0.75,183
5.55,-0.6,190
5.55,-0.45,102
5.55,-0.3,74
5.55,-0.15,86
5.55,0.0,197
5.55,0.15,12
5.55,0.3,8
5.55,0.45,47
5.55,0.6,19
5.55,0.75,39
5.55,0.9,45
5.55,1.05,50
5.55,1.2,50
5.55,1.35,51
5.55,1.5,51
5.7,-1.5,151
5.7,-1.35,132
5.7,-1.2,135
5.7,-1.05,155
5.7,-0.9,162
5.7,-0.75,177
5.7,-0.6,211
5.7,-0.45,162
5.7,-0.3,85
5.7,-0.15,56
5.7,0.0,73
5.7,0.15,69
5.7,0.3,44
5.7,0.45,46
5.7,0.6,24
5.7,0.75,36
5.7,0.9,41
5.7,1.05,43
5.7,1.2,44
5.7,1.35,45
5.7,1.5,49
5.85,-1.5,105
5.85,-1.35,103
5.85,-1.2,105
5.85,-1.05,112
5.85,-0.9,113
5.85,-0.75,122
5.85,-0.6,132
5.85,-0.45,89
5.85,-0.3,52
5.85,-0.15,23
5.85,0.0,150
5.85,0.15,96
5.85,0.3,45
5.85,0.45,44
5.85,0.6,49
5.85,0.75,44
5.85,0.9,41
5.85,1.05,50
5.85,1.2,50
5.85,1.35,50
5.85,1.5,50
6.0,-1.5,105
6.0,-1.35,104
6.0,-1.2,95
6.0,-1.05,91
6.0,-0.9,90
6.0,-0.75,43
6.0,-0.6,61
6.0,-0.45,51
6.0,-0.3,131
6.0,-0.15,93
6.0,0.0,113
6.0,0.15,239
6.0,0.3,83
6.0,0.45,56
6.0,0.6,63
6.0,0.75,64
6.0,0.9,51
6.0,1.05,46
6.0,1.2,46
6.0,1.35,50
6.0,1.5,50
6.15,-1.5,102
6.15,-1.35,99
6.15,-1.2,95
6.15,-1.05,86
6.15,-0.9,51
6.15,-0.75,30
6.15,-0.6,50
6.15,-0.45,81
6.15,-0.3,109
6.15,-0.15,50
6.15,0.0,44
6.15,0.15,127
6.15,0.3,128
6.15,0.45,83
6.15,0.6,64
6.15,0.75,57
6.15,0.9,52
6.15,1.05,37
6.15,1.2,37
6.15,1.35,38
6.15,1.5,38
6.3,-1.5,75
6.3,-1.35,62
6.3,-1.2,61
6.3,-1.05,60
6.3,-0.9,58
6.3,-0.75,58
6.3,-0.6,61
6.3,-0.45,6
6.3,-0.3,70
6.3,-0.15,109
6.3,0.0,38
6.3,0.15,50
6.3,0.3,49
6.3,0.45,47
6.3,0.6,48
6.3,0.75,45
6.3,0.9,37
6.3,1.05,39
6.3,1.2,39
6.3,1.35,41
6.3,1.5,41
6.45,-1.5,75
6.45,-1.35,74
6.45,-1.2,74
6.45,-1.05,64
6.45,-0.9,63
6.45,-0.75,71
6.45,-0.6,78
6.45,-0.45,243
6.45,-0.3,21
6.45,-0.15,40
6.45,0.0,18
6.45,0.15,44
6.45,0.3,0
6.45,0.45,14
6.45,0.6,36
6.45,0.75,36
6.45,0.9,38
6.45,1.05,40
6.45,1.2,41
6.45,1.35,41
6.45,1.5,41
6.6,-1.5,75
6.6,-1.35,75
6.6,-1.2,75
6.6,-1.05,75
6.6,-0.9,78
6.6,-0.75,29
6.6,-0.6,77
6.6,-0.45,80
6.6,-0.3,51
6.6,-0.15,74
6.6,0.0,106
6.6,0.15,74
6.6,0.3,9
6.6,0.45,20
6.6,0.6,37
6.6,0.75,43
6.6,0.9,42
6.6,1.05,42
6.6,1.2,43
6.6,1.35,44
6.6,1.5,48
6.75,-1.5,40
6.75,-1.35,41
6.75,-1.2,43
6.75,-1.05,49
6.75,-0.9,59
6.75,-0.75,101
6.75,-0.6,116
6.75,-0.45,65
6.75,-0.3,19
6.75,-0.15,58
6.75,0.0,178
6.75,0.15,68
6.75,0.3,38
6.75,0.45,64
6.75,0.6,62
6.75,0.75,40
6.75,0.9,46
6.75,1.05,48
6.75,1.2,48
6.75,1.35,51
6.75,1.5,65
6.9,-1.5,69
6.9,-1.35,69
6.9,-1.2,58
6.9,-1.05,59
6.9,-0.9,60
6.9,-0.75,54
6.9,-0.6,10
6.9,-0.45,56
6.9,-0.3,13
6.9,-0.15,14
6.9,0.0,116
6.9,0.15,0
6.9,0.3,20
6.9,0.45,199
6.9,0.6,83
6.9,0.75,66
6.9,0.9,69
6.9,1.05,67
6.9,1.2,66
6.9,1.35,69
6.9,1.5,68
7.05,-1.5,66
7.05,-1.35,66
7.05,-1.2,66
7.05,-1.05,58
7.05,-0.9,54
7.05,-0.75,44
7.05,-0.6,21
7.05,-0.45,13
7.05,-0.3,74
7.05,-0.15,94
7.05,0.0,116
7.05,0.15,76
7.05,0.3,40
7.05,0.45,80
7.05,0.6,86
7.05,0.75,80
7.05,0.9,80
7.05,1.05,80
7.05,1.2,79
7.05,1.35,71
7.05,1.5,69
7.2,-1.5,62
7.2,-1.35,62
7.2,-1.2,62
7.2,-1.05,50
7.2,-0.9,50
7.2,-0.75,55
7.2,-0.6,71
7.2,-0.45,33
7.2,-0.3,25
7.2,-0.15,15
7.2,0.0,99
7.2,0.15,22
7.2,0.3,44
7.2,0.45,64
7.2,0.6,64
7.2,0.75,78
7.2,0.9,79
7.2,1.05,80
7.2,1.2,79
7.2,1.35,78
7.2,1.5,77
7.35,-1.5,61
7.35,-1.35,61
7.35,-1.2,61
7.35,-1.05,61
7.35,-0.9,63
7.35,-0.75,72
7.35,-0.6,122
7.35,-0.45,30
7.35,-0.3,34
7.35,-0.15,39
7.35,0.0,138
7.35,0.15,118
7.35,0.3,137
7.35,0.45,77
7.35,0.6,95
7.35,0.75,96
7.35,0.9,85
7.35,1.05,82
7.35,1.2,81
7.35,1.35,77
7.35,1.5,76
7.5,-1.5,75
7.5,-1.35,74
7.5,-1.2,69
7.5,-1.05,67
7.5,-0.9,62
7.5,-0.75,55
7.5,-0.6,55
7.5,-0.45,111
7.5,-0.3,18
7.5,-0.15,39
7.5,0.0,87
7.5,0.15,191
7.5,0.3,59
7.5,0.45,58
7.5,0.6,89
7.5,0.75,96
7.5,0.9,79
7.5,1.05,82
7.5,1.2,81
7.5,1.35,71
7.5,1.5,70
7.65,-1.5,67
7.65,-1.35,66
7.65,-1.2,64
7.65,-1.05,55
7.65,-0.9,50
7.65,-0.75,28
7.65,-0.6,55
7.65,-0.45,36
7.65,-0.3,7
7.65,-0.15,23
7.65,0.0,112
7.65,0.15,52
7.65,0.3,50
7.65,0.45,49
7.65,0.6,68
7.65,0.75,66
7.65,0.9,72
7.65,1.05,70
7.65,1.2,57
7.65,1.35,55
7.65,1.5,55
7.8,-1.5,68
7.8,-1.35,68
7.8,-1.2,71
7.8,-1.05,75
7.8,-0.9,59
7.8,-0.75,55
7.8,-0.6,127
7.8,-0.45,35
7.8,-0.3,57
7.8,-0.15,57
7.8,0.0,8
7.8,0.15,10
7.8,0.3,12
7.8,0.45,31
7.8,0.6,47
7.8,0.75,41
7.8,0.9,43
7.8,1.05,46
7.8,1.2,55
7.8,1.35,55
7.8,1.5,55
7.95,-1.5,68
7.95,-1.35,68
7.95,-1.2,68
7.95,-1.05,69
7.95,-0.9,84
7.95,-0.75,84
7.95,-0.6,54
7.95,-0.45,3
7.95,-0.3,44
7.95,-0.15,5
7.95,0.0,35
7.95,0.15,9
7.95,0.3,29
7.95,0.45,25
7.95,0.6,23
7.95,0.75,41
7.95,0.9,47
7.95,1.05,50
7.95,1.2,52
7.95,1.35,53
7.95,1.5,53
8.1,-1.5,68
8.1,-1.35,58
8.1,-1.2,76
8.1,-1.05,85
8.1,-0.9,78
8.1,-0.75,97
8.1,-0.6,92
8.1,-0.45,54
8.1,-0.3,39
8.1,-0.15,145
8.1,0.0,7
8.1,0.15,42
8.1,0.3,53
8.1,0.45,16
8.1,0.6,7
8.1,0.75,21
8.1,0.9,37
8.1,1.05,45
8.1,1.2,47
8.1,1.35,48
8.1,1.5,49
8.25,-1.5,109
8.25,-1.35,102
8.25,-1.2,102
8.25,-1.05,93
8.25,-0.9,95
8.25,-0.75,110
8.25,-0.6,45
8.25,-0.45,32
8.25,-0.3,102
8.25,-0.15,81
8.25,0.0,18
8.25,0.15,71
8.25,0.3,57
8.25,0.45,38
8.25,0.6,27
8.25,0.75,34
8.25,0.9,38
8.25,1.05,53
8.25,1.2,56
8.25,1.35,47
8.25,1.5,48
8.4,-1.5,97
8.4,-1.35,97
8.4,-1.2,97
8.4,-1.05,102
8.4,-0.9,96
8.4,-0.75,97
8.4,-0.6,110
8.4,-0.45,110
8.4,-0.3,31
8.4,-0.15,18
8.4,0.0,18
8.4,0.15,65
8.4,0.3,76
8.4,0.45,76
8.4,0.6,71
8.4,0.75,52
8.4,0.9,53
8.4,1.05,51
8.4,1.2,52
8.4,1.35,72
8.4,1.5,58
8.55,-1.5,79
8.55,-1.35,79
8.55,-1.2,78
8.55,-1.05,77
8.55,-0.9,87
8.55,-0.75,57
8.55,-0.6,171
8.55,-0.45,113
8.55,-0.3,41
8.55,-0.15,22
8.55,0.0,61
8.55,0.15,101
8.55,0.3,76
8.55,0.45,48
8.55,0.6,57
8.55,0.75,37
8.55,0.9,37
8.55,1.05,37
8.55,1.2,37
8.55,1.35,38
8.55,1.5,38
8.7,-1.5,53
8.7,-1.35,53
8.7,-1.2,53
8.7,-1.05,53
8.7,-0.9,51
8.7,-0.75,50
8.7,-0.6,46
8.7,-0.45,20
8.7,-0.3,7
8.7,-0.15,44
8.7,0.0,98
8.7,0.15,27
8.7,0.3,43
8.7,0.45,47
8.7,0.6,29
8.7,0.75,17
8.7,0.9,17
8.7,1.05,21
8.7,1.2,21
8.7,1.35,45
8.7,1.5,61
8.85,-1.5,42
8.85,-1.35,42
8.85,-1.2,43
8.85,-1.05,45
8.85,-0.9,48
8.85,-0.75,63
8.85,-0.6,35
8.85,-0.45,124
8.85,-0.3,82
8.85,-0.15,70
8.85,0.0,28
8.85,0.15,12
8.85,0.3,13
8.85,0.45,21
8.85,0.6,25
8.85,0.75,48
8.85,0.9,52
8.85,1.05,53
8.85,1.2,43
8.85,1.35,48
8.85,1.5,48
9.0,-1.5,40
9.0,-1.35,40
9.0,-1.2,40
9.0,-1.05,38
9.0,-0.9,42
9.0,-0.75,44
9.0,-0.6,44
9.0,-0.45,20
9.0,-0.3,92
9.0,-0.15,119
9.0,0.0,40
9.0,0.15,0
9.0,0.3,0
9.0,0.45,17
9.0,0.6,38
9.0,0.75,53
9.0,0.9,57
9.0,1.05,58
9.0,1.2,43
9.0,1.35,43
9.0,1.5,43
9.15,-1.5,40
9.15,-1.35,40
9.15,-1.2,40
9.15,-1.05,37
9.15,-0.9,25
9.15,-0.75,21
9.15,-0.6,12
9.15,-0.45,12
9.15,-0.3,70
9.15,-0.15,36
9.15,0.0,49
9.15,0.15,30
9.15,0.3,44
9.15,0.45,59
9.15,0.6,45
9.15,0.75,42
9.15,0.9,42
9.15,1.05,42
9.15,1.2,51
9.15,1.35,35
9.15,1.5,33
9.3,-1.5,33
9.3,-1.35,33
9.3,-1.2,36
9.3,-1.05,31
9.3,-0.9,21
9.3,-0.75,12
9.3,-0.6,23
9.3,-0.45,36
9.3,-0.3,12
9.3,-0.15,67
9.3,0.0,79
9.3,0.15,90
9.3,0.3,165
9.3,0.45,116
9.3,0.6,81
9.3,0.75,66
9.3,0.9,55
9.3,1.05,50
9.3,1.2,47
9.3,1.35,38
9.3,1.5,36
9.45,-1.5,30
9.45,-1.35,30
9.45,-1.2,27
9.45,-1.05,27
9.45,-0.9,24
9.45,-0.75,20
9.45,-0.6,32
9.45,-0.45,4
9.45,-0.3,67
9.45,-0.15,22
9.45,0.0,99
9.45,0.15,102
9.45,0.3,255
9.45,0.45,158
9.45,0.6,110
9.45,0.75,89
9.45,0.9,80
9.45,1.05,75
9.45,1.2,50
9.45,1.35,47
9.45,1.5,45
9.6,-1.5,37
9.6,-1.35,38
9.6,-1.2,33
9.6,-1.05,35
9.6,-0.9,33
9.6,-0.75,42
9.6,-0.6,45
9.6,-0.45,30
9.6,-0.3,67
9.6,-0.15,57
9.6,0.0,19
9.6,0.15,0
9.6,0.3,86
9.6,0.45,108
9.6,0.6,100
9.6,0.75,92
9.6,0.9,84
9.6,1.05,76
9.6,1.2,73
9.6,1.35,71
9.6,1.5,46
9.75,-1.5,51
9.75,-1.35,48
9.75,-1.2,48
9.75,-1.05,48
9.75,-0.9,49
9.75,-0.75,44
9.75,-0.6,16
9.75,-0.45,56
9.75,-0.3,39
9.75,-0.15,21
9.75,0.0,35
9.75,0.15,50
9.75,0.3,69
9.75,0.45,83
9.75,0.6,82
9.75,0.75,82
9.75,0.9,81
9.75,1.05,80
9.75,1.2,75
9.75,1.35,74
9.75,1.5,65
9.9,-1.5,52
9.9,-1.35,52
9.9,-1.2,50
9.9,-1.05,50
9.9,-0.9,53
9.9,-0.75,54
9.9,-0.6,44
9.9,-0.45,65
9.9,-0.3,44
9.9,-0.15,178
9.9,0.0,82
9.9,0.15,61
9.9,0.3,66
9.9,0.45,65
9.9,0.6,76
9.9,0.75,80
9.9,0.9,82
9.9,1.05,79
9.9,1.2,72
9.9,1.35,72
9.9,1.5,72
10.05,-1.5,53
10.05,-1.35,53
10.05,-1.2,53
10.05,-1.05,54
10.05,-0.9,55
10.05,-0.75,63
10.05,-0.6,101
10.05,-0.45,63
10.05,-0.3,57
10.05,-0.15,191
10.05,0.0,55
10.05,0.15,35
10.05,0.3,65
10.05,0.45,66
10.05,0.6,79
10.05,0.75,83
10.05,0.9,71
10.05,1.05,61
10.05,1.2,61
10.05,1.35,69
10.05,1.5,70
10.2,-1.5,50
10.2,-1.35,50
10.2,-1.2,50
10.2,-1.05,51
10.2,-0.9,50
10.2,-0.75,49
10.2,-0.6,49
10.2,-0.45,51
10.2,-0.3,56
10.2,-0.15,153
10.2,0.0,75
10.2,0.15,65
10.2,0.3,74
10.2,0.45,77
10.2,0.6,79
10.2,0.75,85
10.2,0.9,87
10.2,1.05,74
10.2,1.2,75
10.2,1.35,75
10.2,1.5,60
10.35,-1.5,53
10.35,-1.35,53
10.35,-1.2,49
10.35,-1.05,49
10.35,-0.9,48
10.35,-0.75,35
10.35,-0.6,0
10.35,-0.45,18
10.35,-0.3,71
10.35,-0.15,110
10.35,0.0,90
10.35,0.15,89
10.35,0.3,91
10.35,0.45,93
10.35,0.6,81
10.35,0.75,81
10.35,0.9,90
10.35,1.05,88
10.35,1.2,89
10.35,1.35,90
10.35,1.5,91
10.5,-1.5,66
10.5,-1.35,66
10.5,-1.2,66
10.5,-1.05,61
10.5,-0.9,50
10.5,-0.75,45
10.5,-0.6,37
10.5,-0.45,40
10.5,-0.3,168
10.5,-0.15,123
10.5,0.0,71
10.5,0.15,84
10.5,0.3,91
10.5,0.45,94
10.5,0.6,96
10.5,0.75,98
10.5,0.9,83
10.5,1.05,83
10.5,1.2,92
10.5,1.35,93
10.5,1.5,114
10.65,-1.5,63
10.65,-1.35,61
10.65,-1.2,61
10.65,-1.05,71
10.65,-0.9,65
10.65,-0.75,49
10.65,-0.6,66
10.65,-0.45,28
10.65,-0.3,93
10.65,-0.15,88
10.65,0.0,54
10.65,0.15,82
10.65,0.3,102
10.65,0.45,107
10.65,0.6,110
10.65,0.75,111
10.65,0.9,101
10.65,1.05,117
10.65,1.2,117
10.65,1.35,108
10.65,1.5,117
10.8,-1.5,98
10.8,-1.35,98
10.8,-1.2,94
10.8,-1.05,90
10.8,-0.9,85
10.8,-0.75,82
10.8,-0.6,82
10.8,-0.45,74
10.8,-0.3,94
10.8,-0.15,81
10.8,0.0,104
10.8,0.15,106
10.8,0.3,120
10.8,0.45,108
10.8,0.6,107
10.8,0.75,108
10.8,0.9,113
10.8,1.05,114
10.8,1.2,116
10.8,1.35,117
10.8,1.5,117
10.95,-1.5,97
10.95,-1.35,97
10.95,-1.2,100
10.95,-1.05,106
10.95,-0.9,125
10.95,-0.75,137
10.95,-0.6,135
10.95,-0.45,135
10.95,-0.3,63
10.95,-0.15,146
10.95,0.0,147
10.95,0.15,137
10.95,0.3,132
10.95,0.45,131
10.95,0.6,133
10.95,0.75,122
10.95,0.9,124
10.95,1.05,125
10.95,1.2,125
10.95,1.35,125
10.95,1.5,106
11.1,-1.5,105
11.1,-1.35,107
11.1,-1.2,110
11.1,-1.05,117
11.1,-0.9,142
11.1,-0.75,206
11.1,-0.6,197
11.1,-0.45,178
11.1,-0.3,219
11.1,-0.15,184
11.1,0.0,158
11.1,0.15,143
11.1,0.3,124
11.1,0.45,124
11.1,0.6,126
11.1,0.75,142
11.1,0.9,144
11.1,1.05,125
11.1,1.2,125
11.1,1.35,125
11.1,1.5,124
11.25,-1.5,90
11.25,-1.35,91
11.25,-1.2,104
11.25,-1.05,105
11.25,-0.9,106
11.25,-0.75,131
11.25,-0.6,104
11.25,-0.45,255
11.25,-0.3,189
11.25,-0.15,142
11.25,0.0,123
11.25,0.15,124
11.25,0.3,143
11.25,0.45,138
11.25,0.6,142
11.25,0.75,144
11.25,0.9,144
11.25,1.05,130
11.25,1.2,128
11.25,1.35,123
11.25,1.5,108
11.4,-1.5,90
11.4,-1.35,89
11.4,-1.2,87
11.4,-1.05,82
11.4,-0.9,67
11.4,-0.75,16
11.4,-0.6,76
11.4,-0.45,80
11.4,-0.3,119
11.4,-0.15,126
11.4,0.0,87
11.4,0.15,111
11.4,0.3,125
11.4,0.45,139
11.4,0.6,146
11.4,0.75,139
11.4,0.9,137
11.4,1.05,134
11.4,1.2,131
11.4,1.35,111
11.4,1.5,108
11.55,-1.5,83
11.55,-1.35,81
11.55,-1.2,97
11.55,-1.05,88
11.55,-0.9,63
11.55,-0.75,41
11.55,-0.6,28
11.55,-0.45,190
11.55,-0.3,74
11.55,-0.15,69
11.55,0.0,69
11.55,0.15,89
11.55,0.3,121
11.55,0.45,148
11.55,0.6,157
11.55,0.75,149
11.55,0.9,140
11.55,1.05,134
11.55,1.2,114
11.55,1.35,108
11.55,1.5,105
11.7,-1.5,78
11.7,-1.35,87
11.7,-1.2,84
11.7,-1.05,79
11.7,-0.9,58
11.7,-0.75,50
11.7,-0.6,44
11.7,-0.45,61
11.7,-0.3,68
11.7,-0.15,125
11.7,0.0,69
11.7,0.15,81
11.7,0.3,168
11.7,0.45,225
11.7,0.6,189
11.7,0.75,157
11.7,0.9,139
11.7,1.05,140
11.7,1.2,114
11.7,1.35,107
11.7,1.5,105
11.85,-1.5,67
11.85,-1.35,67
11.85,-1.2,82
11.85,-1.05,82
11.85,-0.9,79
11.85,-0.75,83
11.85,-0.6,74
11.85,-0.45,79
11.85,-0.3,49
11.85,-0.15,35
11.85,0.0,0
11.85,0.15,69
11.85,0.3,221
11.85,0.45,255
11.85,0.6,207
11.85,0.75,164
11.85,0.9,142
11.85,1.05,129
11.85,1.2,119
11.85,1.35,111
11.85,1.5,105
12.0,-1.5,64
12.0,-1.35,64
12.0,-1.2,65
12.0,-1.05,70
12.0,-0.9,73
12.0,-0.75,78
12.0,-0.6,125
12.0,-0.45,37
12.0,-0.3,0
12.0,-0.15,25
12.0,0.0,23
12.0,0.15,64
12.0,0.3,138
12.0,0.45,189
12.0,0.6,169
12.0,0.75,143
12.0,0.9,126
12.0,1.05,113
12.0,1.2,102
12.0,1.35,94
12.0,1.5,87
12.15,-1.5,64
12.15,-1.35,67
12.15,-1.2,68
12.15,-1.05,65
12.15,-0.9,61
12.15,-0.75,52
12.15,-0.6,41
12.15,-0.45,67
12.15,-0.3,33
12.15,-0.15,114
12.15,0.0,47
12.15,0.15,68
12.15,0.3,94
12.15,0.45,120
12.15,0.6,125
12.15,0.75,119
12.15,0.9,109
12.15,1.05,101
12.15,1.2,92
12.15,1.35,84
12.15,1.5,77
12.3,-1.5,62
12.3,-1.35,65
12.3,-1.2,67
12.3,-1.05,43
12.3,-0.9,38
12.3,-0.75,32
12.3,-0.6,23
12.3,-0.45,0
12.3,-0.3,24
12.3,-0.15,59
12.3,0.0,53
12.3,0.15,61
12.3,0.3,71
12.3,0.45,96
12.3,0.6,104
12.3,0.75,102
12.3,0.9,96
12.3,1.05,88
12.3,1.2,82
12.3,1.35,73
12.3,1.5,66
12.45,-1.5,48
12.45,-1.35,39
12.45,-1.2,41
12.45,-1.05,42
12.45,-0.9,20
12.45,-0.75,20
12.45,-0.6,20
12.45,-0.45,7
12.45,-0.3,22
12.45,-0.15,38
12.45,0.0,44
12.45,0.15,41
12.45,0.3,63
12.45,0.45,71
12.45,0.6,77
12.45,0.75,78
12.45,0.9,87
12.45,1.05,79
12.45,1.2,69
12.45,1.35,59
12.45,1.5,52
12.6,-1.5,23
12.6,-1.35,27
12.6,-1.2,33
12.6,-1.05,40
12.6,-0.9,41
12.6,-0.75,41
12.6,-0.6,35
12.6,-0.45,12
12.6,-0.3,22
12.6,-0.15,22
12.6,0.0,39
12.6,0.15,42
12.6,0.3,43
12.6,0.45,67
12.6,0.6,72
12.6,0.75,72
12.6,0.9,64
12.6,1.05,56
12.6,1.2,54
12.6,1.35,41
12.6,1.5,33
12.75,-1.5,16
12.75,-1.35,24
12.75,-1.2,37
12.75,-1.05,44
12.75,-0.9,47
12.75,-0.75,49
12.75,-0.6,49
12.75,-0.45,12
12.75,-0.3,28
12.75,-0.15,31
12.75,0.0,32
12.75,0.15,49
12.75,0.3,39
12.75,0.45,64
12.75,0.6,68
12.75,0.75,67
12.75,0.9,61
12.75,1.05,47
12.75,1.2,32
12.75,1.35,18
12.75,1.5,11
12.9,-1.5,1
12.9,-1.35,14
12.9,-1.2,33
12.9,-1.05,44
12.9,-0.9,50
12.9,-0.75,55
12.9,-0.6,102
12.9,-0.45,66
12.9,-0.3,39
12.9,-0.15,35
12.9,0.0,35
12.9,0.15,34
12.9,0.3,51
12.9,0.45,53
12.9,0.6,61
12.9,0.75,60
12.9,0.9,54
12.9,1.05,41
12.9,1.2,23
12.9,1.35,5
12.9,1.5,0
13.05,-1.5,0
13.05,-1.35,10
13.05,-1.2,31
13.05,-1.05,43
13.05,-0.9,51
13.05,-0.75,57
13.05,-0.6,68
13.05,-0.45,60
13.05,-0.3,46
13.05,-0.15,42
13.05,0.0,37
13.05,0.15,36
13.05,0.3,36
13.05,0.45,36
13.05,0.6,36
13.05,0.75,48
13.05,0.9,48
13.05,1.05,36
13.05,1.2,19
13.05,1.35,3
13.05,1.5,0
