-3.0,-1.5,0
-3.0,-1.35,1
-3.0,-1.2,22
-3.0,-1.05,47
-3.0,-0.9,69
-3.0,-0.75,83
-3.0,-0.6,104
-3.0,-0.45,109
-3.0,-0.3,111
-3.0,-0.15,111
-3.0,0.0,111
-3.0,0.15,113
-3.0,0.3,114
-3.0,0.45,115
-3.0,0.6,148
-3.0,0.75,221
-3.0,0.9,209
-3.0,1.05,166
-3.0,1.2,109
-3.0,1.35,32
-3.0,1.5,0
-2.85,-1.5,1
-2.85,-1.35,9
-2.85,-1.2,29
-2.85,-1.05,53
-2.85,-0.9,73
-2.85,-0.75,87
-2.85,-0.6,96
-2.85,-0.45,110
-2.85,-0.3,110
-2.85,-0.15,108
-2.85,0.0,105
-2.85,0.15,104
-2.85,0.3,103
-2.85,0.45,82
-2.85,0.6,84
-2.85,0.75,238
-2.85,0.9,218
-2.85,1.05,182
-2.85,1.2,137
-2.85,1.35,68
-2.85,1.5,27
-2.7,-1.5,16
-2.7,-1.35,24
-2.7,-1.2,39
-2.7,-1.05,64
-2.7,-0.9,80
-2.7,-0.75,92
-2.7,-0.6,100
-2.7,-0.45,104
-2.7,-0.3,110
-2.7,-0.15,104
-2.7,0.0,91
-2.7,0.15,89
-2.7,0.3,99
-2.7,0.45,93
-2.7,0.6,102
-2.7,0.75,170
-2.7,0.9,204
-2.7,1.05,214
-2.7,1.2,184
-2.7,1.35,130
-2.7,1.5,91
-2.55,-1.5,37
-2.55,-1.35,42
-2.55,-1.2,54
-2.55,-1.05,67
-2.55,-0.9,80
-2.55,-0.75,89
-2.55,-0.6,97
-2.55,-0.45,109
-2.55,-0.3,110
-2.55,-0.15,103
-2.55,0.0,74
-2.55,0.15,67
-2.55,0.3,97
-2.55,0.45,109
-2.55,0.6,126
-2.55,0.75,168
-2.55,0.9,245
-2.55,1.05,255
-2.55,1.2,237
-2.55,1.35,175
-2.55,1.5,135
-2.4,-1.5,54
-2.4,-1.35,60
-2.4,-1.2,66
-2.4,-1.05,76
-2.4,-0.9,86
-2.4,-0.75,95
-2.4,-0.6,103
-2.4,-0.45,110
-2.4,-0.3,121
-2.4,-0.15,116
-2.4,0.0,100
-2.4,0.15,94
-2.4,0.3,104
-2.4,0.45,106
-2.4,0.6,115
-2.4,0.75,155
-2.4,0.9,246
-2.4,1.05,255
-2.4,1.2,244
-2.4,1.35,188
-2.4,1.5,146
-2.25,-1.5,66
-2.25,-1.35,71
-2.25,-1.2,74
-2.25,-1.05,79
-2.25,-0.9,89
-2.25,-0.75,98
-2.25,-0.6,108
-2.25,-0.45,119
-2.25,-0.3,133
-2.25,-0.15,144
-2.25,0.0,133
-2.25,0.15,126
-2.25,0.3,111
-2.25,0.45,90
-2.25,0.6,80
-2.25,0.75,116
-2.25,0.9,172
-2.25,1.05,211
-2.25,1.2,200
-2.25,1.35,166
-2.25,1.5,144
-2.1,-1.5,73
-2.1,-1.35,77
-2.1,-1.2,82
-2.1,-1.05,84
-2.1,-0.9,87
-2.1,-0.75,94
-2.1,-0.6,107
-2.1,-0.45,122
-2.1,-0.3,147
-2.1,-0.15,197
-2.1,0.0,212
-2.1,0.15,136
-2.1,0.3,115
-2.1,0.45,87
-2.1,0.6,68
-2.1,0.75,92
-2.1,0.9,123
-2.1,1.05,150
-2.1,1.2,149
-2.1,1.35,145
-2.1,1.5,135
-1.95,-1.5,77
-1.95,-1.35,80
-1.95,-1.2,83
-1.95,-1.05,86
-1.95,-0.9,87
-1.95,-0.75,86
-1.95,-0.6,96
-1.95,-0.45,113
-1.95,-0.3,138
-1.95,-0.15,186
-1.95,0.0,203
-1.95,0.15,135
-1.95,0.3,120
-1.95,0.45,98
-1.95,0.6,65
-1.95,0.75,80
-1.95,0.9,101
-1.95,1.05,118
-1.95,1.2,123
-1.95,1.35,122
-1.95,1.5,119
-1.8,-1.5,73
-1.8,-1.35,75
-1.8,-1.2,76
-1.8,-1.05,78
-1.8,-0.9,84
-1.8,-0.75,82
-1.8,-0.6,82
-1.8,-0.45,91
-1.8,-0.3,108
-1.8,-0.15,127
-1.8,0.0,128
-1.8,0.15,107
-1.8,0.3,95
-1.8,0.45,73
-1.8,0.6,65
-1.8,0.75,73
-1.8,0.9,86
-1.8,1.05,92
-1.8,1.2,96
-1.8,1.35,100
-1.8,1.5,100
-1.65,-1.5,73
-1.65,-1.35,73
-1.65,-1.2,73
-1.65,-1.05,75
-1.65,-0.9,73
-1.65,-0.75,70
-1.65,-0.6,69
-1.65,-0.45,71
-1.65,-0.3,80
-1.65,-0.15,86
-1.65,0.0,85
-1.65,0.15,77
-1.65,0.3,72
-1.65,0.45,69
-1.65,0.6,65
-1.65,0.75,66
-1.65,0.9,72
-1.65,1.05,80
-1.65,1.2,85
-1.65,1.35,89
-1.65,1.5,92
-1.5,-1.5,81
-1.5,-1.35,81
-1.5,-1.2,74
-1.5,-1.05,73
-1.5,-0.9,70
-1.5,-0.75,64
-1.5,-0.6,61
-1.5,-0.45,61
-1.5,-0.3,65
-1.5,-0.15,65
-1.5,0.0,61
-1.5,0.15,56
-1.5,0.3,58
-1.5,0.45,53
-1.5,0.6,54
-1.5,0.75,54
-1.5,0.9,57
-1.5,1.05,58
-1.5,1.2,77
-1.5,1.35,81
-1.5,1.5,85
-1.35,-1.5,96
-1.35,-1.35,94
-1.35,-1.2,74
-1.35,-1.05,72
-1.35,-0.9,70
-1.35,-0.75,64
-1.35,-0.6,62
-1.35,-0.45,61
-1.35,-0.3,59
-1.35,-0.15,59
-1.35,0.0,50
-1.35,0.15,39
-1.35,0.3,45
-1.35,0.45,51
-1.35,0.6,58
-1.35,0.75,53
-1.35,0.9,53
-1.35,1.05,55
-1.35,1.2,56
-1.35,1.35,77
-1.35,1.5,78
-1.2,-1.5,101
-1.2,-1.35,86
-1.2,-1.2,84
-1.2,-1.05,79
-1.2,-0.9,65
-1.2,-0.75,63
-1.2,-0.6,62
-1.2,-0.45,60
-1.2,-0.3,56
-1.2,-0.15,54
-1.2,0.0,43
-1.2,0.15,11
-1.2,0.3,17
-1.2,0.45,49
-1.2,0.6,61
-1.2,0.75,60
-1.2,0.9,49
-1.2,1.05,55
-1.2,1.2,67
-1.2,1.35,76
-1.2,1.5,82
-1.05,-1.5,103
-1.05,-1.35,92
-1.05,-1.2,90
-1.05,-1.05,88
-1.05,-0.9,83
-1.05,-0.75,79
-1.05,-0.6,65
-1.05,-0.45,63
-1.05,-0.3,59
-1.05,-0.15,59
-1.05,0.0,57
-1.05,0.15,39
-1.05,0.3,50
-1.05,0.45,77
-1.05,0.6,88
-1.05,0.75,62
-1.05,0.9,17
-1.05,1.05,57
-1.05,1.2,88
-1.05,1.35,98
-1.05,1.5,100
-0.9,-1.5,102
-0.9,-1.35,103
-0.9,-1.2,102
-0.9,-1.05,93
-0.9,-0.9,91
-0.9,-0.75,87
-0.9,-0.6,71
-0.9,-0.45,65
-0.9,-0.3,64
-0.9,-0.15,69
-0.9,0.0,63
-0.9,0.15,79
-0.9,0.3,122
-0.9,0.45,118
-0.9,0.6,120
-0.9,0.75,65
-0.9,0.9,31
-0.9,1.05,72
-0.9,1.2,110
-0.9,1.35,107
-0.9,1.5,104
-0.75,-1.5,103
-0.75,-1.35,103
-0.75,-1.2,103
-0.75,-1.05,106
-0.75,-0.9,104
-0.75,-0.75,100
-0.75,-0.6,105
-0.75,-0.45,86
-0.75,-0.3,74
-0.75,-0.15,87
-0.75,0.0,79
-0.75,0.15,104
-0.75,0.3,249
-0.75,0.45,173
-0.75,0.6,124
-0.75,0.75,81
-0.75,0.9,69
-0.75,1.05,95
-0.75,1.2,123
-0.75,1.35,115
-0.75,1.5,111
-0.6,-1.5,104
-0.6,-1.35,105
-0.6,-1.2,106
-0.6,-1.05,106
-0.6,-0.9,108
-0.6,-0.75,111
-0.6,-0.6,120
-0.6,-0.45,104
-0.6,-0.3,82
-0.6,-0.15,104
-0.6,0.0,80
-0.6,0.15,87
-0.6,0.3,176
-0.6,0.45,178
-0.6,0.6,145
-0.6,0.75,109
-0.6,0.9,86
-0.6,1.05,100
-0.6,1.2,110
-0.6,1.35,111
-0.6,1.5,110
-0.45,-1.5,104
-0.45,-1.35,105
-0.45,-1.2,106
-0.45,-1.05,107
-0.45,-0.9,109
-0.45,-0.75,111
-0.45,-0.6,116
-0.45,-0.45,131
-0.45,-0.3,152
-0.45,-0.15,126
-0.45,0.0,91
-0.45,0.15,109
-0.45,0.3,201
-0.45,0.45,230
-0.45,0.6,68
-0.45,0.75,127
-0.45,0.9,113
-0.45,1.05,109
-0.45,1.2,108
-0.45,1.35,102
-0.45,1.5,102
-0.3,-1.5,98
-0.3,-1.35,99
-0.3,-1.2,100
-0.3,-1.05,101
-0.3,-0.9,106
-0.3,-0.75,105
-0.3,-0.6,103
-0.3,-0.45,130
-0.3,-0.3,255
-0.3,-0.15,202
-0.3,0.0,85
-0.3,0.15,66
-0.3,0.3,206
-0.3,0.45,191
-0.3,0.6,149
-0.3,0.75,145
-0.3,0.9,136
-0.3,1.05,101
-0.3,1.2,97
-0.3,1.35,86
-0.3,1.5,87
-0.15,-1.5,93
-0.15,-1.35,93
-0.15,-1.2,93
-0.15,-1.05,93
-0.15,-0.9,93
-0.15,-0.75,90
-0.15,-0.6,76
-0.15,-0.45,76
-0.15,-0.3,167
-0.15,-0.15,114
-0.15,0.0,71
-0.15,0.15,103
-0.15,0.3,192
-0.15,0.45,153
-0.15,0.6,165
-0.15,0.75,146
-0.15,0.9,136
-0.15,1.05,87
-0.15,1.2,75
-0.15,1.35,71
-0.15,1.5,75
0.0,-1.5,102
0.0,-1.35,101
0.0,-1.2,100
0.0,-1.05,98
0.0,-0.9,85
0.0,-0.75,79
0.0,-0.6,75
0.0,-0.45,69
0.0,-0.3,79
0.0,-0.15,110
0.0,0.0,81
0.0,0.15,90
0.0,0.3,89
0.0,0.45,113
0.0,0.6,141
0.0,0.75,129
0.0,0.9,84
0.0,1.05,71
0.0,1.2,61
0.0,1.35,64
0.0,1.5,72
0.15,-1.5,65
0.15,-1.35,76
0.15,-1.2,64
0.15,-1.05,60
0.15,-0.9,72
0.15,-0.75,68
0.15,-0.6,63
0.15,-0.45,43
0.15,-0.3,13
0.15,-0.15,63
0.15,0.0,104
0.15,0.15,123
0.15,0.3,106
0.15,0.45,86
0.15,0.6,96
0.15,0.75,70
0.15,0.9,65
0.15,1.05,62
0.15,1.2,61
0.15,1.35,65
0.15,1.5,68
0.3,-1.5,63
0.3,-1.35,73
0.3,-1.2,72
0.3,-1.05,69
0.3,-0.9,72
0.3,-0.75,72
0.3,-0.6,54
0.3,-0.45,49
0.3,-0.3,39
0.3,-0.15,48
0.3,0.0,53
0.3,0.15,76
0.3,0.3,129
0.3,0.45,154
0.3,0.6,86
0.3,0.75,54
0.3,0.9,57
0.3,1.05,60
0.3,1.2,62
0.3,1.35,63
0.3,1.5,66
0.45,-1.5,73
0.45,-1.35,73
0.45,-1.2,73
0.45,-1.05,66
0.45,-0.9,70
0.45,-0.75,79
0.45,-0.6,81
0.45,-0.45,68
0.45,-0.3,53
0.45,-0.15,0
0.45,0.0,62
0.45,0.15,81
0.45,0.3,115
0.45,0.45,128
0.45,0.6,29
0.45,0.75,22
0.45,0.9,53
0.45,1.05,59
0.45,1.2,61
0.45,1.35,63
0.45,1.5,64
0.6,-1.5,67
0.6,-1.35,67
0.6,-1.2,68
0.6,-1.05,64
0.6,-0.9,65
0.6,-0.75,93
0.6,-0.6,133
0.6,-0.45,115
0.6,-0.3,89
0.6,-0.15,81
0.6,0.0,154
0.6,0.15,119
0.6,0.3,149
0.6,0.45,35
0.6,0.6,0
0.6,0.75,37
0.6,0.9,60
0.6,1.05,61
0.6,1.2,59
0.6,1.35,56
0.6,1.5,55
0.75,-1.5,66
0.75,-1.35,66
0.75,-1.2,64
0.75,-1.05,65
0.75,-0.9,69
0.75,-0.75,84
0.75,-0.6,170
0.75,-0.45,72
0.75,-0.3,124
0.75,-0.15,79
0.75,0.0,102
0.75,0.15,39
0.75,0.3,65
0.75,0.45,49
0.75,0.6,47
0.75,0.75,97
0.75,0.9,94
0.75,1.05,68
0.75,1.2,53
0.75,1.35,52
0.75,1.5,50
0.9,-1.5,68
0.9,-1.35,67
0.9,-1.2,67
0.9,-1.05,63
0.9,-0.9,63
0.9,-0.75,60
0.9,-0.6,72
0.9,-0.45,42
0.9,-0.3,38
0.9,-0.15,51
0.9,0.0,17
0.9,0.15,21
0.9,0.3,47
0.9,0.45,50
0.9,0.6,58
0.9,0.75,81
0.9,0.9,80
0.9,1.05,63
0.9,1.2,63
0.9,1.35,61
0.9,1.5,60
1.05,-1.5,69
1.05,-1.35,67
1.05,-1.2,65
1.05,-1.05,56
1.05,-0.9,55
1.05,-0.75,52
1.05,-0.6,58
1.05,-0.45,26
1.05,-0.3,18
1.05,-0.15,54
1.05,0.0,58
1.05,0.15,50
1.05,0.3,61
1.05,0.45,62
1.05,0.6,59
1.05,0.75,70
1.05,0.9,70
1.05,1.05,69
1.05,1.2,67
1.05,1.35,66
1.05,1.5,62
1.2,-1.5,73
1.2,-1.35,71
1.2,-1.2,68
1.2,-1.05,64
1.2,-0.9,51
1.2,-0.75,46
1.2,-0.6,52
1.2,-0.45,14
1.2,-0.3,113
1.2,-0.15,122
1.2,0.0,89
1.2,0.15,63
1.2,0.3,90
1.2,0.45,71
1.2,0.6,66
1.2,0.75,63
1.2,0.9,69
1.2,1.05,70
1.2,1.2,68
1.2,1.35,67
1.2,1.5,62
1.35,-1.5,76
1.35,-1.35,74
1.35,-1.2,71
1.35,-1.05,63
1.35,-0.9,60
1.35,-0.75,44
1.35,-0.6,36
1.35,-0.45,79
1.35,-0.3,161
1.35,-0.15,124
1.35,0.0,46
1.35,0.15,29
1.35,0.3,69
1.35,0.45,78
1.35,0.6,66
1.35,0.75,49
1.35,0.9,61
1.35,1.05,69
1.35,1.2,70
1.35,1.35,70
1.35,1.5,67
1.5,-1.5,96
1.5,-1.35,94
1.5,-1.2,90
1.5,-1.05,77
1.5,-0.9,73
1.5,-0.75,68
1.5,-0.6,57
1.5,-0.45,98
1.5,-0.3,219
1.5,-0.15,72
1.5,0.0,32
1.5,0.15,25
1.5,0.3,73
1.5,0.45,91
1.5,0.6,119
1.5,0.75,47
1.5,0.9,69
1.5,1.05,66
1.5,1.2,69
1.5,1.35,66
1.5,1.5,66
1.65,-1.5,98
1.65,-1.35,96
1.65,-1.2,100
1.65,-1.05,112
1.65,-0.9,123
1.65,-0.75,70
1.65,-0.6,88
1.65,-0.45,104
1.65,-0.3,81
1.65,-0.15,66
1.65,0.0,36
1.65,0.15,64
1.65,0.3,135
1.65,0.45,94
1.65,0.6,162
1.65,0.75,141
1.65,0.9,76
1.65,1.05,66
1.65,1.2,66
1.65,1.35,66
1.65,1.5,74
1.8,-1.5,96
1.8,-1.35,98
1.8,-1.2,106
1.8,-1.05,124
1.8,-0.9,182
1.8,-0.75,191
1.8,-0.6,82
1.8,-0.45,104
1.8,-0.3,98
1.8,-0.15,65
1.8,0.0,1
1.8,0.15,24
1.8,0.3,45
1.8,0.45,34
1.8,0.6,24
1.8,0.75,76
1.8,0.9,71
1.8,1.05,66
1.8,1.2,66
1.8,1.35,70
1.8,1.5,75
1.95,-1.5,100
1.95,-1.35,104
1.95,-1.2,110
1.95,-1.05,122
1.95,-0.9,135
1.95,-0.75,126
1.95,-0.6,76
1.95,-0.45,2
1.95,-0.3,96
1.95,-0.15,67
1.95,0.0,28
1.95,0.15,17
1.95,0.3,17
1.95,0.45,42
1.95,0.6,35
1.95,0.75,45
1.95,0.9,61
1.95,1.05,71
1.95,1.2,74
1.95,1.35,75
1.95,1.5,75
2.1,-1.5,106
2.1,-1.35,108
2.1,-1.2,108
2.1,-1.05,107
2.1,-0.9,111
2.1,-0.75,150
2.1,-0.6,111
2.1,-0.45,33
2.1,-0.3,13
2.1,-0.15,27
2.1,0.0,36
2.1,0.15,28
2.1,0.3,59
2.1,0.45,41
2.1,0.6,10
2.1,0.75,25
2.1,0.9,59
2.1,1.05,71
2.1,1.2,75
2.1,1.35,75
2.1,1.5,75
2.25,-1.5,108
2.25,-1.35,108
2.25,-1.2,108
2.25,-1.05,106
2.25,-0.9,107
2.25,-0.75,86
2.25,-0.6,41
2.25,-0.45,54
2.25,-0.3,26
2.25,-0.15,0
2.25,0.0,12
2.25,0.15,30
2.25,0.3,44
2.25,0.45,59
2.25,0.6,58
2.25,0.75,64
2.25,0.9,72
2.25,1.05,70
2.25,1.2,70
2.25,1.35,75
2.25,1.5,75
2.4,-1.5,100
2.4,-1.35,101
2.4,-1.2,107
2.4,-1.05,100
2.4,-0.9,113
2.4,-0.75,119
2.4,-0.6,77
2.4,-0.45,60
2.4,-0.3,16
2.4,-0.15,0
2.4,0.0,0
2.4,0.15,34
2.4,0.3,36
2.4,0.45,78
2.4,0.6,87
2.4,0.75,112
2.4,0.9,91
2.4,1.05,79
2.4,1.2,75
2.4,1.35,72
2.4,1.5,70
2.55,-1.5,112
2.55,-1.35,99
2.55,-1.2,89
2.55,-1.05,96
2.55,-0.9,106
2.55,-0.75,195
2.55,-0.6,104
2.55,-0.45,62
2.55,-0.3,83
2.55,-0.15,23
2.55,0.0,23
2.55,0.15,60
2.55,0.3,121
2.55,0.45,116
2.55,0.6,160
2.55,0.75,136
2.55,0.9,89
2.55,1.05,78
2.55,1.2,72
2.55,1.35,70
2.55,1.5,70
2.7,-1.5,96
2.7,-1.35,84
2.7,-1.2,87
2.7,-1.05,88
2.7,-0.9,91
2.7,-0.75,89
2.7,-0.6,71
2.7,-0.45,59
2.7,-0.3,48
2.7,-0.15,28
2.7,0.0,56
2.7,0.15,79
2.7,0.3,137
2.7,0.45,88
2.7,0.6,69
2.7,0.75,80
2.7,0.9,75
2.7,1.05,76
2.7,1.2,70
2.7,1.35,70
2.7,1.5,70
2.85,-1.5,82
2.85,-1.35,85
2.85,-1.2,82
2.85,-1.05,74
2.85,-0.9,54
2.85,-0.75,65
2.85,-0.6,33
2.85,-0.45,48
2.85,-0.3,19
2.85,-0.15,54
2.85,0.0,59
2.85,0.15,66
2.85,0.3,86
2.85,0.45,58
2.85,0.6,1
2.85,0.75,34
2.85,0.9,62
2.85,1.05,70
2.85,1.2,74
2.85,1.35,70
2.85,1.5,70
3.0,-1.5,76
3.0,-1.35,75
3.0,-1.2,73
3.0,-1.05,71
3.0,-0.9,38
3.0,-0.75,61
3.0,-0.6,75
3.0,-0.45,52
3.0,-0.3,53
3.0,-0.15,55
3.0,0.0,65
3.0,0.15,65
3.0,0.3,95
3.0,0.45,36
3.0,0.6,27
3.0,0.75,49
3.0,0.9,56
3.0,1.05,67
3.0,1.2,71
3.0,1.35,74
3.0,1.5,74
3.15,-1.5,82
3.15,-1.35,80
3.15,-1.2,67
3.15,-1.05,67
3.15,-0.9,76
3.15,-0.75,166
3.15,-0.6,114
3.15,-0.45,63
3.15,-0.3,26
3.15,-0.15,17
3.15,0.0,19
3.15,0.15,100
3.15,0.3,89
3.15,0.45,130
3.15,0.6,109
3.15,0.75,73
3.15,0.9,59
3.15,1.05,62
3.15,1.2,62
3.15,1.35,73
3.15,1.5,74
3.3,-1.5,91
3.3,-1.35,90
3.3,-1.2,88
3.3,-1.05,85
3.3,-0.9,74
3.3,-0.75,74
3.3,-0.6,72
3.3,-0.45,94
3.3,-0.3,20
3.3,-0.15,62
3.3,0.0,30
3.3,0.15,42
3.3,0.3,122
3.3,0.45,115
3.3,0.6,111
3.3,0.75,86
3.3,0.9,70
3.3,1.05,65
3.3,1.2,68
3.3,1.35,64
3.3,1.5,64
3.45,-1.5,90
3.45,-1.35,92
3.45,-1.2,91
3.45,-1.05,86
3.45,-0.9,71
3.45,-0.75,47
3.45,-0.6,69
3.45,-0.45,93
3.45,-0.3,183
3.45,-0.15,83
3.45,0.0,87
3.45,0.15,255
3.45,0.3,111
3.45,0.45,102
3.45,0.6,92
3.45,0.75,82
3.45,0.9,79
3.45,1.05,68
3.45,1.2,64
3.45,1.35,64
3.45,1.5,69
3.6,-1.5,91
3.6,-1.35,91
3.6,-1.2,92
3.6,-1.05,91
3.6,-0.9,67
3.6,-0.75,8
3.6,-0.6,46
3.6,-0.45,98
3.6,-0.3,91
3.6,-0.15,59
3.6,0.0,65
3.6,0.15,67
3.6,0.3,59
3.6,0.45,52
3.6,0.6,55
3.6,0.75,62
3.6,0.9,72
3.6,1.05,66
3.6,1.2,66
3.6,1.35,65
3.6,1.5,69
3.75,-1.5,91
3.75,-1.35,91
3.75,-1.2,89
3.75,-1.05,103
3.75,-0.9,139
3.75,-0.75,95
3.75,-0.6,198
3.75,-0.45,119
3.75,-0.3,59
3.75,-0.15,198
3.75,0.0,73
3.75,0.15,75
3.75,0.3,26
3.75,0.45,30
3.75,0.6,50
3.75,0.75,57
3.75,0.9,57
3.75,1.05,67
3.75,1.2,69
3.75,1.35,95
3.75,1.5,88
3.9,-1.5,83
3.9,-1.35,76
3.9,-1.2,75
3.9,-1.05,75
3.9,-0.9,181
3.9,-0.75,198
3.9,-0.6,140
3.9,-0.45,116
3.9,-0.3,59
3.9,-0.15,59
3.9,0.0,65
3.9,0.15,100
3.9,0.3,18
3.9,0.45,24
3.9,0.6,55
3.9,0.75,61
3.9,0.9,79
3.9,1.05,71
3.9,1.2,72
3.9,1.35,73
3.9,1.5,98
4.05,-1.5,98
4.05,-1.35,92
4.05,-1.2,83
4.05,-1.05,75
4.05,-0.9,107
4.05,-0.75,75
4.05,-0.6,80
4.05,-0.45,140
4.05,-0.3,181
4.05,-0.15,75
4.05,0.0,52
4.05,0.15,57
4.05,0.3,81
4.05,0.45,115
4.05,0.6,93
4.05,0.75,89
4.05,0.9,90
4.05,1.05,90
4.05,1.2,94
4.05,1.35,110
4.05,1.5,119
4.2,-1.5,97
4.2,-1.35,93
4.2,-1.2,84
4.2,-1.05,65
4.2,-0.9,76
4.2,-0.75,63
4.2,-0.6,99
4.2,-0.45,157
4.2,-0.3,212
4.2,-0.15,191
4.2,0.0,97
4.2,0.15,52
4.2,0.3,132
4.2,0.45,155
4.2,0.6,89
4.2,0.75,105
4.2,0.9,104
4.2,1.05,114
4.2,1.2,115
4.2,1.35,119
4.2,1.5,119
4.35,-1.5,79
4.35,-1.35,79
4.35,-1.2,79
4.35,-1.05,86
4.35,-0.9,91
4.35,-0.75,91
4.35,-0.6,128
4.35,-0.45,117
4.35,-0.3,198
4.35,-0.15,255
4.35,0.0,128
4.35,0.15,35
4.35,0.3,233
4.35,0.45,148
4.35,0.6,176
4.35,0.75,125
4.35,0.9,123
4.35,1.05,123
4.35,1.2,123
4.35,1.35,123
4.35,1.5,123
4.5,-1.5,79
4.5,-1.35,79
4.5,-1.2,80
4.5,-1.05,92
4.5,-0.9,114
4.5,-0.75,125
4.5,-0.6,100
4.5,-0.45,32
4.5,-0.3,103
4.5,-0.15,76
4.5,0.0,89
4.5,0.15,68
4.5,0.3,60
4.5,0.45,79
4.5,0.6,102
4.5,0.75,110
4.5,0.9,109
4.5,1.05,123
4.5,1.2,123
4.5,1.35,123
4.5,1.5,123
4.65,-1.5,101
4.65,-1.35,109
4.65,-1.2,106
4.65,-1.05,95
4.65,-0.9,100
4.65,-0.75,130
4.65,-0.6,103
4.65,-0.45,153
4.65,-0.3,73
4.65,-0.15,75
4.65,0.0,255
4.65,0.15,96
4.65,0.3,25
4.65,0.45,59
4.65,0.6,76
4.65,0.75,98
4.65,0.9,99
4.65,1.05,95
4.65,1.2,93
4.65,1.35,113
4.65,1.5,87
4.8,-1.5,128
4.8,-1.35,124
4.8,-1.2,103
4.8,-1.05,77
4.8,-0.9,6
4.8,-0.75,255
4.8,-0.6,130
4.8,-0.45,120
4.8,-0.3,37
4.8,-0.15,89
4.8,0.0,154
4.8,0.15,131
4.8,0.3,11
4.8,0.45,51
4.8,0.6,135
4.8,0.75,146
4.8,0.9,111
4.8,1.05,99
4.8,1.2,93
4.8,1.35,93
4.8,1.5,86
4.95,-1.5,135
4.95,-1.35,138
4.95,-1.2,125
4.95,-1.05,115
4.95,-0.9,126
4.95,-0.75,166
4.95,-0.6,134
4.95,-0.45,189
4.95,-0.3,116
4.95,-0.15,37
4.95,0.0,132
4.95,0.15,65
4.95,0.3,7
4.95,0.45,66
4.95,0.6,90
4.95,0.75,137
4.95,0.9,99
4.95,1.05,82
4.95,1.2,90
4.95,1.35,90
4.95,1.5,83
5.1,-1.5,138
5.1,-1.35,138
5.1,-1.2,119
5.1,-1.05,118
5.1,-0.9,95
5.1,-0.75,72
5.1,-0.6,58
5.1,-0.45,52
5.1,-0.3,11
5.1,-0.15,188
5.1,0.0,159
5.1,0.15,39
5.1,0.3,57
5.1,0.45,55
5.1,0.6,63
5.1,0.75,78
5.1,0.9,81
5.1,1.05,78
5.1,1.2,74
5.1,1.35,71
5.1,1.5,61
5.25,-1.5,159
5.25,-1.35,160
5.25,-1.2,165
5.25,-1.05,154
5.25,-0.9,106
5.25,-0.75,50
5.25,-0.6,30
5.25,-0.45,30
5.25,-0.3,24
5.25,-0.15,139
5.25,0.0,72
5.25,0.15,50
5.25,0.3,42
5.25,0.45,14
5.25,0.6,50
5.25,0.75,55
5.25,0.9,62
5.25,1.05,79
5.25,1.2,79
5.25,1.35,79
5.25,1.5,79
5.4,-1.5,164
5.4,-1.35,159
5.4,-1.2,182
5.4,-1.05,221
5.4,-0.9,184
5.4,-0.75,124
5.4,-0.6,91
5.4,-0.45,59
5.4,-0.3,95
5.4,-0.15,63
5.4,0.0,39
5.4,0.15,31
5.4,0.3,54
5.4,0.45,41
5.4,0.6,34
5.4,0.75,41
5.4,0.9,66
5.4,1.05,73
5.4,1.2,75
5.4,1.35,75
5.4,1.5,77
5.55,-1.5,190
5.55,-1.35,195
5.55,-1.2,202
5.55,-1.05,234
5.55,-0.9,198
5.55,-0.75,161
5.55,-0.6,217
5.55,-0.45,27
5.55,-0.3,45
5.55,-0.15,60
5.55,0.0,30
5.55,0.15,54
5.55,0.3,85
5.55,0.45,67
5.55,0.6,13
5.55,0.75,40
5.55,0.9,60
5.55,1.05,62
5.55,1.2,63
5.55,1.35,72
5.55,1.5,75
5.7,-1.5,170
5.7,-1.35,172
5.7,-1.2,176
5.7,-1.05,179
5.7,-0.9,182
5.7,-0.75,229
5.7,-0.6,153
5.7,-0.45,53
5.7,-0.3,83
5.7,-0.15,66
5.7,0.0,70
5.7,0.15,43
5.7,0.3,44
5.7,0.45,58
5.7,0.6,105
5.7,0.75,85
5.7,0.9,67
5.7,1.05,60
5.7,1.2,61
5.7,1.35,62
5.7,1.5,62
5.85,-1.5,139
5.85,-1.35,138
5.85,-1.2,152
5.85,-1.05,144
5.85,-0.9,138
5.85,-0.75,97
5.85,-0.6,151
5.85,-0.45,69
5.85,-0.3,137
5.85,-0.15,89
5.85,0.0,70
5.85,0.15,68
5.85,0.3,68
5.85,0.45,75
5.85,0.6,156
5.85,0.75,112
5.85,0.9,65
5.85,1.05,64
5.85,1.2,67
5.85,1.35,67
5.85,1.5,67
6.0,-1.5,119
6.0,-1.35,129
6.0,-1.2,120
6.0,-1.05,102
6.0,-0.9,82
6.0,-0.75,87
6.0,-0.6,106
6.0,-0.45,136
6.0,-0.3,146
6.0,-0.15,140
6.0,0.0,94
6.0,0.15,119
6.0,0.3,157
6.0,0.45,129
6.0,0.6,118
6.0,0.75,101
6.0,0.9,74
6.0,1.05,68
6.0,1.2,67
6.0,1.35,67
6.0,1.5,67
6.15,-1.5,109
6.15,-1.35,77
6.15,-1.2,77
6.15,-1.05,82
6.15,-0.9,124
6.15,-0.75,255
6.15,-0.6,54
6.15,-0.45,32
6.15,-0.3,55
6.15,-0.15,72
6.15,0.0,42
6.15,0.15,45
6.15,0.3,115
6.15,0.45,55
6.15,0.6,48
6.15,0.75,71
6.15,0.9,71
6.15,1.05,64
6.15,1.2,65
6.15,1.35,66
6.15,1.5,66
6.3,-1.5,77
6.3,-1.35,77
6.3,-1.2,78
6.3,-1.05,81
6.3,-0.9,80
6.3,-0.75,65
6.3,-0.6,49
6.3,-0.45,88
6.3,-0.3,43
6.3,-0.15,91
6.3,0.0,41
6.3,0.15,186
6.3,0.3,149
6.3,0.45,80
6.3,0.6,41
6.3,0.75,41
6.3,0.9,59
6.3,1.05,60
6.3,1.2,64
6.3,1.35,66
6.3,1.5,66
6.45,-1.5,60
6.45,-1.35,59
6.45,-1.2,58
6.45,-1.05,66
6.45,-0.9,53
6.45,-0.75,14
6.45,-0.6,36
6.45,-0.45,88
6.45,-0.3,79
6.45,-0.15,214
6.45,0.0,64
6.45,0.15,93
6.45,0.3,225
6.45,0.45,80
6.45,0.6,50
6.45,0.75,41
6.45,0.9,52
6.45,1.05,45
6.45,1.2,57
6.45,1.35,59
6.45,1.5,60
6.6,-1.5,59
6.6,-1.35,59
6.6,-1.2,56
6.6,-1.05,56
6.6,-0.9,57
6.6,-0.75,49
6.6,-0.6,64
6.6,-0.45,71
6.6,-0.3,94
6.6,-0.15,74
6.6,0.0,50
6.6,0.15,45
6.6,0.3,52
6.6,0.45,57
6.6,0.6,47
6.6,0.75,41
6.6,0.9,41
6.6,1.05,35
6.6,1.2,37
6.6,1.35,36
6.6,1.5,36
6.75,-1.5,59
6.75,-1.35,60
6.75,-1.2,61
6.75,-1.05,61
6.75,-0.9,66
6.75,-0.75,106
6.75,-0.6,34
6.75,-0.45,155
6.75,-0.3,88
6.75,-0.15,23
6.75,0.0,128
6.75,0.15,70
6.75,0.3,45
6.75,0.45,41
6.75,0.6,35
6.75,0.75,34
6.75,0.9,33
6.75,1.05,30
6.75,1.2,28
6.75,1.35,41
6.75,1.5,41
6.9,-1.5,84
6.9,-1.35,82
6.9,-1.2,80
6.9,-1.05,72
6.9,-0.9,63
6.9,-0.75,112
6.9,-0.6,70
6.9,-0.45,61
6.9,-0.3,119
6.9,-0.15,42
6.9,0.0,81
6.9,0.15,169
6.9,0.3,56
6.9,0.45,31
6.9,0.6,28
6.9,0.75,28
6.9,0.9,28
6.9,1.05,28
6.9,1.2,41
6.9,1.35,41
6.9,1.5,41
7.05,-1.5,51
7.05,-1.35,76
7.05,-1.2,76
7.05,-1.05,63
7.05,-0.9,45
7.05,-0.75,68
7.05,-0.6,83
7.05,-0.45,61
7.05,-0.3,42
7.05,-0.15,42
7.05,0.0,54
7.05,0.15,2
7.05,0.3,48
7.05,0.45,8
7.05,0.6,7
7.05,0.75,31
7.05,0.9,35
7.05,1.05,39
7.05,1.2,41
7.05,1.35,41
7.05,1.5,41
7.2,-1.5,54
7.2,-1.35,54
7.2,-1.2,72
7.2,-1.05,67
7.2,-0.9,72
7.2,-0.75,45
7.2,-0.6,133
7.2,-0.45,5
7.2,-0.3,55
7.2,-0.15,44
7.2,0.0,53
7.2,0.15,20
7.2,0.3,25
7.2,0.45,9
7.2,0.6,17
7.2,0.75,33
7.2,0.9,41
7.2,1.05,41
7.2,1.2,40
7.2,1.35,40
7.2,1.5,40
7.35,-1.5,65
7.35,-1.35,65
7.35,-1.2,54
7.35,-1.05,58
7.35,-0.9,73
7.35,-0.75,106
7.35,-0.6,53
7.35,-0.45,36
7.35,-0.3,4
7.35,-0.15,39
7.35,0.0,132
7.35,0.15,81
7.35,0.3,50
7.35,0.45,37
7.35,0.6,50
7.35,0.75,70
7.35,0.9,54
7.35,1.05,48
7.35,1.2,43
7.35,1.35,41
7.35,1.5,40
7.5,-1.5,90
7.5,-1.35,89
7.5,-1.2,89
7.5,-1.05,89
7.5,-0.9,66
7.5,-0.75,136
7.5,-0.6,53
7.5,-0.45,47
7.5,-0.3,40
7.5,-0.15,47
7.5,0.0,61
7.5,0.15,24
7.5,0.3,42
7.5,0.45,10
7.5,0.6,55
7.5,0.75,120
7.5,0.9,57
7.5,1.05,49
7.5,1.2,44
7.5,1.35,42
7.5,1.5,40
7.65,-1.5,111
7.65,-1.35,103
7.65,-1.2,99
7.65,-1.05,85
7.65,-0.9,66
7.65,-0.75,86
7.65,-0.6,40
7.65,-0.45,245
7.65,-0.3,108
7.65,-0.15,66
7.65,0.0,107
7.65,0.15,153
7.65,0.3,20
7.65,0.45,16
7.65,0.6,33
7.65,0.75,35
7.65,0.9,44
7.65,1.05,45
7.65,1.2,43
7.65,1.35,44
7.65,1.5,40
7.8,-1.5,101
7.8,-1.35,94
7.8,-1.2,81
7.8,-1.05,90
7.8,-0.9,109
7.8,-0.75,93
7.8,-0.6,40
7.8,-0.45,164
7.8,-0.3,95
7.8,-0.15,119
7.8,0.0,103
7.8,0.15,251
7.8,0.3,61
7.8,0.45,33
7.8,0.6,31
7.8,0.75,40
7.8,0.9,47
7.8,1.05,40
7.8,1.2,40
7.8,1.35,40
7.8,1.5,43
7.95,-1.5,101
7.95,-1.35,93
7.95,-1.2,62
7.95,-1.05,37
7.95,-0.9,197
7.95,-0.75,138
7.95,-0.6,71
7.95,-0.45,33
7.95,-0.3,54
7.95,-0.15,35
7.95,0.0,60
7.95,0.15,86
7.95,0.3,119
7.95,0.45,20
7.95,0.6,43
7.95,0.75,44
7.95,0.9,47
7.95,1.05,49
7.95,1.2,50
7.95,1.35,70
7.95,1.5,72
8.1,-1.5,87
8.1,-1.35,85
8.1,-1.2,92
8.1,-1.05,104
8.1,-0.9,134
8.1,-0.75,122
8.1,-0.6,52
8.1,-0.45,117
8.1,-0.3,0
8.1,-0.15,41
8.1,0.0,144
8.1,0.15,94
8.1,0.3,127
8.1,0.45,83
8.1,0.6,63
8.1,0.75,52
8.1,0.9,75
8.1,1.05,84
8.1,1.2,84
8.1,1.35,73
8.1,1.5,74
8.25,-1.5,87
8.25,-1.35,86
8.25,-1.2,87
8.25,-1.05,87
8.25,-0.9,83
8.25,-0.75,60
8.25,-0.6,53
8.25,-0.45,68
8.25,-0.3,51
8.25,-0.15,3
8.25,0.0,56
8.25,0.15,56
8.25,0.3,60
8.25,0.45,66
8.25,0.6,77
8.25,0.75,84
8.25,0.9,84
8.25,1.05,74
8.25,1.2,68
8.25,1.35,68
8.25,1.5,81
8.4,-1.5,74
8.4,-1.35,64
8.4,-1.2,66
8.4,-1.05,48
8.4,-0.9,48
8.4,-0.75,51
8.4,-0.6,34
8.4,-0.45,52
8.4,-0.3,47
8.4,-0.15,78
8.4,0.0,52
8.4,0.15,17
8.4,0.3,37
8.4,0.45,44
8.4,0.6,90
8.4,0.75,60
8.4,0.9,79
8.4,1.05,77
8.4,1.2,77
8.4,1.35,69
8.4,1.5,68
8.55,-1.5,45
8.55,-1.35,57
8.55,-1.2,58
8.55,-1.05,53
8.55,-0.9,48
8.55,-0.75,76
8.55,-0.6,53
8.55,-0.45,107
8.55,-0.3,83
8.55,-0.15,68
8.55,0.0,69
8.55,0.15,255
8.55,0.3,63
8.55,0.45,90
8.55,0.6,176
8.55,0.75,99
8.55,0.9,83
8.55,1.05,72
8.55,1.2,69
8.55,1.35,68
8.55,1.5,68
8.7,-1.5,45
8.7,-1.35,50
8.7,-1.2,50
8.7,-1.05,53
8.7,-0.9,15
8.7,-0.75,51
8.7,-0.6,63
8.7,-0.45,48
8.7,-0.3,59
8.7,-0.15,76
8.7,0.0,57
8.7,0.15,90
8.7,0.3,129
8.7,0.45,89
8.7,0.6,106
8.7,0.75,78
8.7,0.9,68
8.7,1.05,67
8.7,1.2,68
8.7,1.35,68
8.7,1.5,68
8.85,-1.5,45
8.85,-1.35,47
8.85,-1.2,51
8.85,-1.05,62
8.85,-0.9,54
8.85,-0.75,57
8.85,-0.6,59
8.85,-0.45,75
8.85,-0.3,43
8.85,-0.15,11
8.85,0.0,88
8.85,0.15,255
8.85,0.3,102
8.85,0.45,54
8.85,0.6,14
8.85,0.75,1
8.85,0.9,43
8.85,1.05,57
8.85,1.2,62
8.85,1.35,64
8.85,1.5,66
9.0,-1.5,44
9.0,-1.35,45
9.0,-1.2,43
9.0,-1.05,57
9.0,-0.9,50
9.0,-0.75,29
9.0,-0.6,52
9.0,-0.45,43
9.0,-0.3,75
9.0,-0.15,56
9.0,0.0,79
9.0,0.15,110
9.0,0.3,83
9.0,0.45,54
9.0,0.6,34
9.0,0.75,30
9.0,0.9,37
9.0,1.05,48
9.0,1.2,54
9.0,1.35,61
9.0,1.5,63
9.15,-1.5,35
9.15,-1.35,35
9.15,-1.2,44
9.15,-1.05,50
9.15,-0.9,37
9.15,-0.75,52
9.15,-0.6,127
9.15,-0.45,181
9.15,-0.3,115
9.15,-0.15,71
9.15,0.0,61
9.15,0.15,68
9.15,0.3,68
9.15,0.45,24
9.15,0.6,8
9.15,0.75,26
9.15,0.9,31
9.15,1.05,47
9.15,1.2,52
9.15,1.35,59
9.15,1.5,62
9.3,-1.5,38
9.3,-1.35,36
9.3,-1.2,43
9.3,-1.05,17
9.3,-0.9,39
9.3,-0.75,72
9.3,-0.6,39
9.3,-0.45,64
9.3,-0.3,168
9.3,-0.15,80
9.3,0.0,59
9.3,0.15,47
9.3,0.3,53
9.3,0.45,28
9.3,0.6,20
9.3,0.75,20
9.3,0.9,24
9.3,1.05,24
9.3,1.2,40
9.3,1.35,54
9.3,1.5,60
9.45,-1.5,60
9.45,-1.35,59
9.45,-1.2,49
9.45,-1.05,18
9.45,-0.9,46
9.45,-0.75,73
9.45,-0.6,100
9.45,-0.45,80
9.45,-0.3,126
9.45,-0.15,106
9.45,0.0,57
9.45,0.15,0
9.45,0.3,15
9.45,0.45,27
9.45,0.6,39
9.45,0.75,33
9.45,0.9,29
9.45,1.05,27
9.45,1.2,26
9.45,1.35,26
9.45,1.5,26
9.6,-1.5,78
9.6,-1.35,74
9.6,-1.2,66
9.6,-1.05,70
9.6,-0.9,72
9.6,-0.75,69
9.6,-0.6,101
9.6,-0.45,70
9.6,-0.3,76
9.6,-0.15,162
9.6,0.0,75
9.6,0.15,22
9.6,0.3,0
9.6,0.45,33
9.6,0.6,55
9.6,0.75,42
9.6,0.9,40
9.6,1.05,35
9.6,1.2,29
9.6,1.35,28
9.6,1.5,27
9.75,-1.5,94
9.75,-1.35,90
9.75,-1.2,71
9.75,-1.05,88
9.75,-0.9,105
9.75,-0.75,69
9.75,-0.6,76
9.75,-0.45,0
9.75,-0.3,43
9.75,-0.15,134
9.75,0.0,255
9.75,0.15,94
9.75,0.3,58
9.75,0.45,57
9.75,0.6,56
9.75,0.75,43
9.75,0.9,40
9.75,1.05,38
9.75,1.2,36
9.75,1.35,34
9.75,1.5,33
9.9,-1.5,104
9.9,-1.35,108
9.9,-1.2,121
9.9,-1.05,178
9.9,-0.9,124
9.9,-0.75,80
9.9,-0.6,81
9.9,-0.45,46
9.9,-0.3,39
9.9,-0.15,91
9.9,0.0,163
9.9,0.15,117
9.9,0.3,82
9.9,0.45,61
9.9,0.6,59
9.9,0.75,59
9.9,0.9,39
9.9,1.05,39
9.9,1.2,33
9.9,1.35,33
9.9,1.5,33
10.05,-1.5,118
10.05,-1.35,133
10.05,-1.2,154
10.05,-1.05,201
10.05,-0.9,209
10.05,-0.75,91
10.05,-0.6,76
10.05,-0.45,32
10.05,-0.3,19
10.05,-0.15,71
10.05,0.0,92
10.05,0.15,87
10.05,0.3,78
10.05,0.45,61
10.05,0.6,61
10.05,0.75,60
10.05,0.9,41
10.05,1.05,39
10.05,1.2,37
10.05,1.35,35
10.05,1.5,33
10.2,-1.5,134
10.2,-1.35,141
10.2,-1.2,151
10.2,-1.05,165
10.2,-0.9,181
10.2,-0.75,139
10.2,-0.6,143
10.2,-0.45,108
10.2,-0.3,80
10.2,-0.15,75
10.2,0.0,63
10.2,0.15,78
10.2,0.3,80
10.2,0.45,69
10.2,0.6,59
10.2,0.75,57
10.2,0.9,57
10.2,1.05,57
10.2,1.2,36
10.2,1.35,35
10.2,1.5,33
10.35,-1.5,155
10.35,-1.35,156
10.35,-1.2,161
10.35,-1.05,152
10.35,-0.9,131
10.35,-0.75,111
10.35,-0.6,143
10.35,-0.45,116
10.35,-0.3,126
10.35,-0.15,143
10.35,0.0,105
10.35,0.15,73
10.35,0.3,84
10.35,0.45,65
10.35,0.6,58
10.35,0.75,59
10.35,0.9,52
10.35,1.05,54
10.35,1.2,58
10.35,1.35,56
10.35,1.5,34
10.5,-1.5,154
10.5,-1.35,159
10.5,-1.2,151
10.5,-1.05,125
10.5,-0.9,76
10.5,-0.75,215
10.5,-0.6,112
10.5,-0.45,225
10.5,-0.3,174
10.5,-0.15,164
10.5,0.0,117
10.5,0.15,89
10.5,0.3,53
10.5,0.45,27
10.5,0.6,28
10.5,0.75,40
10.5,0.9,37
10.5,1.05,38
10.5,1.2,40
10.5,1.35,63
10.5,1.5,65
10.65,-1.5,133
10.65,-1.35,143
10.65,-1.2,141
10.65,-1.05,138
10.65,-0.9,143
10.65,-0.75,199
10.65,-0.6,157
10.65,-0.45,188
10.65,-0.3,82
10.65,-0.15,84
10.65,0.0,88
10.65,0.15,60
10.65,0.3,44
10.65,0.45,0
10.65,0.6,10
10.65,0.75,32
10.65,0.9,46
10.65,1.05,74
10.65,1.2,63
10.65,1.35,67
10.65,1.5,70
10.8,-1.5,128
10.8,-1.35,118
10.8,-1.2,111
10.8,-1.05,127
10.8,-0.9,175
10.8,-0.75,255
10.8,-0.6,93
10.8,-0.45,43
10.8,-0.3,53
10.8,-0.15,58
10.8,0.0,60
10.8,0.15,60
10.8,0.3,53
10.8,0.45,20
10.8,0.6,22
10.8,0.75,33
10.8,0.9,60
10.8,1.05,66
10.8,1.2,75
10.8,1.35,87
10.8,1.5,82
10.95,-1.5,111
10.95,-1.35,100
10.95,-1.2,100
10.95,-1.05,106
10.95,-0.9,101
10.95,-0.75,80
10.95,-0.6,0
10.95,-0.45,8
10.95,-0.3,32
10.95,-0.15,55
10.95,0.0,67
10.95,0.15,64
10.95,0.3,55
10.95,0.45,44
10.95,0.6,54
10.95,0.75,61
10.95,0.9,72
10.95,1.05,90
10.95,1.2,96
10.95,1.35,103
10.95,1.5,106
11.1,-1.5,119
11.1,-1.35,116
11.1,-1.2,100
11.1,-1.05,88
11.1,-0.9,80
11.1,-0.75,66
11.1,-0.6,47
11.1,-0.45,41
11.1,-0.3,58
11.1,-0.15,61
11.1,0.0,75
11.1,0.15,69
11.1,0.3,57
11.1,0.45,72
11.1,0.6,75
11.1,0.75,94
11.1,0.9,100
11.1,1.05,104
11.1,1.2,107
11.1,1.35,108
11.1,1.5,108
11.25,-1.5,105
11.25,-1.35,101
11.25,-1.2,100
11.25,-1.05,86
11.25,-0.9,82
11.25,-0.75,60
11.25,-0.6,95
11.25,-0.45,98
11.25,-0.3,47
11.25,-0.15,75
11.25,0.0,70
11.25,0.15,73
11.25,0.3,67
11.25,0.45,101
11.25,0.6,110
11.25,0.75,116
11.25,0.9,119
11.25,1.05,130
11.25,1.2,114
11.25,1.35,112
11.25,1.5,111
11.4,-1.5,115
11.4,-1.35,110
11.4,-1.2,87
11.4,-1.05,75
11.4,-0.9,75
11.4,-0.75,115
11.4,-0.6,95
11.4,-0.45,107
11.4,-0.3,47
11.4,-0.15,77
11.4,0.0,58
11.4,0.15,73
11.4,0.3,95
11.4,0.45,118
11.4,0.6,131
11.4,0.75,149
11.4,0.9,145
11.4,1.05,126
11.4,1.2,120
11.4,1.35,116
11.4,1.5,112
11.55,-1.5,114
11.55,-1.35,92
11.55,-1.2,92
11.55,-1.05,93
11.55,-0.9,116
11.55,-0.75,168
11.55,-0.6,174
11.55,-0.45,54
11.55,-0.3,122
11.55,-0.15,56
11.55,0.0,59
11.55,0.15,80
11.55,0.3,101
11.55,0.45,147
11.55,0.6,166
11.55,0.75,170
11.55,0.9,150
11.55,1.05,137
11.55,1.2,127
11.55,1.35,120
11.55,1.5,113
11.7,-1.5,98
11.7,-1.35,98
11.7,-1.2,99
11.7,-1.05,101
11.7,-0.9,103
11.7,-0.75,102
11.7,-0.6,150
11.7,-0.45,62
11.7,-0.3,70
11.7,-0.15,45
11.7,0.0,65
11.7,0.15,85
11.7,0.3,136
11.7,0.45,170
11.7,0.6,242
11.7,0.75,197
11.7,0.9,159
11.7,1.05,139
11.7,1.2,124
11.7,1.35,117
11.7,1.5,109
11.85,-1.5,102
11.85,-1.35,94
11.85,-1.2,94
11.85,-1.05,91
11.85,-0.9,86
11.85,-0.75,64
11.85,-0.6,87
11.85,-0.45,87
11.85,-0.3,156
11.85,-0.15,27
11.85,0.0,73
11.85,0.15,136
11.85,0.3,180
11.85,0.45,112
11.85,0.6,255
11.85,0.75,191
11.85,0.9,155
11.85,1.05,137
11.85,1.2,125
11.85,1.35,113
11.85,1.5,105
12.0,-1.5,97
12.0,-1.35,102
12.0,-1.2,96
12.0,-1.05,89
12.0,-0.9,69
12.0,-0.75,56
12.0,-0.6,56
12.0,-0.45,49
12.0,-0.3,82
12.0,-0.15,123
12.0,0.0,102
12.0,0.15,142
12.0,0.3,180
12.0,0.45,130
12.0,0.6,131
12.0,0.75,145
12.0,0.9,136
12.0,1.05,124
12.0,1.2,115
12.0,1.35,108
12.0,1.5,102
12.15,-1.5,107
12.15,-1.35,97
12.15,-1.2,97
12.15,-1.05,96
12.15,-0.9,78
12.15,-0.75,69
12.15,-0.6,73
12.15,-0.45,52
12.15,-0.3,107
12.15,-0.15,75
12.15,0.0,104
12.15,0.15,108
12.15,0.3,219
12.15,0.45,107
12.15,0.6,99
12.15,0.75,109
12.15,0.9,111
12.15,1.05,108
12.15,1.2,103
12.15,1.35,98
12.15,1.5,93
12.3,-1.5,104
12.3,-1.35,96
12.3,-1.2,103
12.3,-1.05,108
12.3,-0.9,110
12.3,-0.75,131
12.3,-0.6,143
12.3,-0.45,76
12.3,-0.3,59
12.3,-0.15,89
12.3,0.0,84
12.3,0.15,98
12.3,0.3,95
12.3,0.45,0
12.3,0.6,52
12.3,0.75,81
12.3,0.9,91
12.3,1.05,93
12.3,1.2,92
12.3,1.35,88
12.3,1.5,83
12.45,-1.5,80
12.45,-1.35,84
12.45,-1.2,94
12.45,-1.05,100
12.45,-0.9,110
12.45,-0.75,133
12.45,-0.6,207
12.45,-0.45,110
12.45,-0.3,48
12.45,-0.15,68
12.45,0.0,92
12.45,0.15,90
12.45,0.3,80
12.45,0.45,39
12.45,0.6,40
12.45,0.75,60
12.45,0.9,73
12.45,1.05,79
12.45,1.2,78
12.45,1.35,74
12.45,1.5,69
12.6,-1.5,54
12.6,-1.35,61
12.6,-1.2,73
12.6,-1.05,84
12.6,-0.9,95
12.6,-0.75,97
12.6,-0.6,95
12.6,-0.45,7
12.6,-0.3,56
12.6,-0.15,76
12.6,0.0,81
12.6,0.15,87
12.6,0.3,63
12.6,0.45,11
12.6,0.6,7
12.6,0.75,43
12.6,0.9,60
12.6,1.05,65
12.6,1.2,62
12.6,1.35,54
12.6,1.5,47
12.75,-1.5,28
12.75,-1.35,44
12.75,-1.2,64
12.75,-1.05,76
12.75,-0.9,82
12.75,-0.75,73
12.75,-0.6,46
12.75,-0.45,0
12.75,-0.3,10
12.75,-0.15,45
12.75,0.0,49
12.75,0.15,49
12.75,0.3,43
12.75,0.45,25
12.75,0.6,29
12.75,0.75,48
12.75,0.9,56
12.75,1.05,63
12.75,1.2,49
12.75,1.35,33
12.75,1.5,23
12.9,-1.5,1
12.9,-1.35,20
12.9,-1.2,53
12.9,-1.05,70
12.9,-0.9,72
12.9,-0.75,49
12.9,-0.6,38
12.9,-0.45,21
12.9,-0.3,35
12.9,-0.15,37
12.9,0.0,43
12.9,0.15,43
12.9,0.3,39
12.9,0.45,45
12.9,0.6,53
12.9,0.75,55
12.9,0.9,56
12.9,1.05,52
12.9,1.2,37
12.9,1.35,12
12.9,1.5,0
13.05,-1.5,0
13.05,-1.35,14
13.05,-1.2,45
13.05,-1.05,48
13.05,-0.9,38
13.05,-0.75,38
13.05,-0.6,24
13.05,-0.45,24
13.05,-0.3,35
13.05,-0.15,38
13.05,0.0,37
13.05,0.15,42
13.05,0.3,42
13.05,0.45,45
13.05,0.6,55
13.05,0.75,55
13.05,0.9,50
13.05,1.05,50
13.05,1.2,33
13.05,1.35,7
13.05,1.5,0
