-3.0,-1.5,0
-3.0,-1.35,3
-3.0,-1.2,21
-3.0,-1.05,43
-3.0,-0.9,62
-3.0,-0.75,75
-3.0,-0.6,80
-3.0,-0.45,80
-3.0,-0.3,71
-3.0,-0.15,56
-3.0,0.0,35
-3.0,0.15,16
-3.0,0.3,12
-3.0,0.45,22
-3.0,0.6,38
-3.0,0.75,49
-3.0,0.9,47
-3.0,1.05,36
-3.0,1.2,18
-3.0,1.35,2
-3.0,1.5,0
-2.85,-1.5,3
-2.85,-1.35,10
-2.85,-1.2,29
-2.85,-1.05,51
-2.85,-0.9,69
-2.85,-0.75,81
-2.85,-0.6,87
-2.85,-0.45,86
-2.85,-0.3,77
-2.85,-0.15,58
-2.85,0.0,30
-2.85,0.15,4
-2.85,0.3,0
-2.85,0.45,14
-2.85,0.6,37
-2.85,0.75,53
-2.85,0.9,53
-2.85,1.05,42
-2.85,1.2,24
-2.85,1.35,8
-2.85,1.5,2
-2.7,-1.5,22
-2.7,-1.35,30
-2.7,-1.2,46
-2.7,-1.05,64
-2.7,-0.9,79
-2.7,-0.75,89
-2.7,-0.6,94
-2.7,-0.45,94
-2.7,-0.3,87
-2.7,-0.15,70
-2.7,0.0,42
-2.7,0.15,14
-2.7,0.3,6
-2.7,0.45,24
-2.7,0.6,48
-2.7,0.75,61
-2.7,0.9,64
-2.7,1.05,55
-2.7,1.2,40
-2.7,1.35,25
-2.7,1.5,18
-2.55,-1.5,47
-2.55,-1.35,54
-2.55,-1.2,66
-2.55,-1.05,79
-2.55,-0.9,89
-2.55,-0.75,96
-2.55,-0.6,100
-2.55,-0.45,103
-2.55,-0.3,102
-2.55,-0.15,93
-2.55,0.0,74
-2.55,0.15,52
-2.55,0.3,45
-2.55,0.45,56
-2.55,0.6,72
-2.55,0.75,79
-2.55,0.9,80
-2.55,1.05,72
-2.55,1.2,60
-2.55,1.35,48
-2.55,1.5,41
-2.4,-1.5,70
-2.4,-1.35,76
-2.4,-1.2,84
-2.4,-1.05,92
-2.4,-0.9,95
-2.4,-0.75,97
-2.4,-0.6,101
-2.4,-0.45,107
-2.4,-0.3,115
-2.4,-0.15,118
-2.4,0.0,113
-2.4,0.15,104
-2.4,0.3,98
-2.4,0.45,100
-2.4,0.6,104
-2.4,0.75,103
-2.4,0.9,99
-2.4,1.05,91
-2.4,1.2,80
-2.4,1.35,75
-2.4,1.5,67
-2.25,-1.5,93
-2.25,-1.35,92
-2.25,-1.2,97
-2.25,-1.05,99
-2.25,-0.9,97
-2.25,-0.75,91
-2.25,-0.6,90
-2.25,-0.45,101
-2.25,-0.3,124
-2.25,-0.15,143
-2.25,0.0,152
-2.25,0.15,152
-2.25,0.3,148
-2.25,0.45,144
-2.25,0.6,135
-2.25,0.75,129
-2.25,0.9,126
-2.25,1.05,116
-2.25,1.2,105
-2.25,1.35,96
-2.25,1.5,83
-2.1,-1.5,108
-2.1,-1.35,104
-2.1,-1.2,106
-2.1,-1.05,104
-2.1,-0.9,95
-2.1,-0.75,79
-2.1,-0.6,65
-2.1,-0.45,83
-2.1,-0.3,128
-2.1,-0.15,167
-2.1,0.0,189
-2.1,0.15,196
-2.1,0.3,193
-2.1,0.45,182
-2.1,0.6,171
-2.1,0.75,158
-2.1,0.9,146
-2.1,1.05,134
-2.1,1.2,123
-2.1,1.35,107
-2.1,1.5,99
-1.95,-1.5,119
-1.95,-1.35,120
-1.95,-1.2,114
-1.95,-1.05,110
-1.95,-0.9,99
-1.95,-0.75,75
-1.95,-0.6,51
-1.95,-0.45,75
-1.95,-0.3,147
-1.95,-0.15,201
-1.95,0.0,228
-1.95,0.15,240
-1.95,0.3,233
-1.95,0.45,215
-1.95,0.6,195
-1.95,0.75,177
-1.95,0.9,162
-1.95,1.05,148
-1.95,1.2,137
-1.95,1.35,119
-1.95,1.5,111
-1.8,-1.5,128
-1.8,-1.35,129
-1.8,-1.2,123
-1.8,-1.05,120
-1.8,-0.9,113
-1.8,-0.75,98
-1.8,-0.6,90
-1.8,-0.45,125
-1.8,-0.3,197
-1.8,-0.15,243
-1.8,0.0,255
-1.8,0.15,255
-1.8,0.3,255
-1.8,0.45,238
-1.8,0.6,212
-1.8,0.75,190
-1.8,0.9,173
-1.8,1.05,158
-1.8,1.2,139
-1.8,1.35,128
-1.8,1.5,119
-1.65,-1.5,136
-1.65,-1.35,137
-1.65,-1.2,138
-1.65,-1.05,132
-1.65,-0.9,132
-1.65,-0.75,133
-1.65,-0.6,147
-1.65,-0.45,189
-1.65,-0.3,254
-1.65,-0.15,255
-1.65,0.0,255
-1.65,0.15,255
-1.65,0.3,255
-1.65,0.45,244
-1.65,0.6,217
-1.65,0.75,196
-1.65,0.9,178
-1.65,1.05,164
-1.65,1.2,143
-1.65,1.35,133
-1.65,1.5,124
-1.5,-1.5,144
-1.5,-1.35,144
-1.5,-1.2,147
-1.5,-1.05,150
-1.5,-0.9,148
-1.5,-0.75,157
-1.5,-0.6,181
-1.5,-0.45,218
-1.5,-0.3,255
-1.5,-0.15,255
-1.5,0.0,255
-1.5,0.15,240
-1.5,0.3,247
-1.5,0.45,234
-1.5,0.6,212
-1.5,0.75,194
-1.5,0.9,178
-1.5,1.05,156
-1.5,1.2,144
-1.5,1.35,134
-1.5,1.5,126
-1.35,-1.5,148
-1.35,-1.35,151
-1.35,-1.2,155
-1.35,-1.05,159
-1.35,-0.9,164
-1.35,-0.75,172
-1.35,-0.6,187
-1.35,-0.45,211
-1.35,-0.3,241
-1.35,-0.15,255
-1.35,0.0,232
-1.35,0.15,213
-1.35,0.3,221
-1.35,0.45,217
-1.35,0.6,205
-1.35,0.75,186
-1.35,0.9,173
-1.35,1.05,152
-1.35,1.2,142
-1.35,1.35,133
-1.35,1.5,126
-1.2,-1.5,151
-1.2,-1.35,154
-1.2,-1.2,158
-1.2,-1.05,161
-1.2,-0.9,165
-1.2,-0.75,170
-1.2,-0.6,178
-1.2,-0.45,188
-1.2,-0.3,201
-1.2,-0.15,209
-1.2,0.0,210
-1.2,0.15,209
-1.2,0.3,206
-1.2,0.45,199
-1.2,0.6,189
-1.2,0.75,180
-1.2,0.9,163
-1.2,1.05,155
-1.2,1.2,144
-1.2,1.35,138
-1.2,1.5,120
-1.05,-1.5,156
-1.05,-1.35,155
-1.05,-1.2,158
-1.05,-1.05,161
-1.05,-0.9,164
-1.05,-0.75,167
-1.05,-0.6,168
-1.05,-0.45,165
-1.05,-0.3,161
-1.05,-0.15,161
-1.05,0.0,168
-1.05,0.15,176
-1.05,0.3,178
-1.05,0.45,174
-1.05,0.6,169
-1.05,0.75,163
-1.05,0.9,155
-1.05,1.05,151
-1.05,1.2,147
-1.05,1.35,131
-1.05,1.5,118
-0.9,-1.5,154
-0.9,-1.35,157
-0.9,-1.2,160
-0.9,-1.05,161
-0.9,-0.9,166
-0.9,-0.75,169
-0.9,-0.6,167
-0.9,-0.45,151
-0.9,-0.3,124
-0.9,-0.15,106
-0.9,0.0,118
-0.9,0.15,137
-0.9,0.3,145
-0.9,0.45,147
-0.9,0.6,146
-0.9,0.75,144
-0.9,0.9,139
-0.9,1.05,137
-0.9,1.2,126
-0.9,1.35,115
-0.9,1.5,113
-0.75,-1.5,139
-0.75,-1.35,142
-0.75,-1.2,144
-0.75,-1.05,151
-0.75,-0.9,161
-0.75,-0.75,181
-0.75,-0.6,187
-0.75,-0.45,159
-0.75,-0.3,97
-0.75,-0.15,55
-0.75,0.0,81
-0.75,0.15,109
-0.75,0.3,118
-0.75,0.45,123
-0.75,0.6,125
-0.75,0.75,123
-0.75,0.9,115
-0.75,1.05,115
-0.75,1.2,105
-0.75,1.35,105
-0.75,1.5,105
-0.6,-1.5,137
-0.6,-1.35,132
-0.6,-1.2,135
-0.6,-1.05,144
-0.6,-0.9,162
-0.6,-0.75,185
-0.6,-0.6,210
-0.6,-0.45,173
-0.6,-0.3,103
-0.6,-0.15,65
-0.6,0.0,77
-0.6,0.15,87
-0.6,0.3,88
-0.6,0.45,89
-0.6,0.6,81
-0.6,0.75,83
-0.6,0.9,85
-0.6,1.05,86
-0.6,1.2,94
-0.6,1.35,96
-0.6,1.5,97
-0.45,-1.5,120
-0.45,-1.35,124
-0.45,-1.2,129
-0.45,-1.05,128
-0.45,-0.9,141
-0.45,-0.75,160
-0.45,-0.6,173
-0.45,-0.45,147
-0.45,-0.3,110
-0.45,-0.15,85
-0.45,0.0,72
-0.45,0.15,62
-0.45,0.3,57
-0.45,0.45,56
-0.45,0.6,58
-0.45,0.75,59
-0.45,0.9,61
-0.45,1.05,62
-0.45,1.2,70
-0.45,1.35,72
-0.45,1.5,74
-0.3,-1.5,118
-0.3,-1.35,121
-0.3,-1.2,125
-0.3,-1.05,130
-0.3,-0.9,137
-0.3,-0.75,137
-0.3,-0.6,142
-0.3,-0.45,142
-0.3,-0.3,122
-0.3,-0.15,92
-0.3,0.0,69
-0.3,0.15,49
-0.3,0.3,40
-0.3,0.45,42
-0.3,0.6,45
-0.3,0.75,47
-0.3,0.9,48
-0.3,1.05,49
-0.3,1.2,51
-0.3,1.35,52
-0.3,1.5,53
-0.15,-1.5,117
-0.15,-1.35,117
-0.15,-1.2,119
-0.15,-1.05,123
-0.15,-0.9,127
-0.15,-0.75,134
-0.15,-0.6,141
-0.15,-0.45,179
-0.15,-0.3,156
-0.15,-0.15,86
-0.15,0.0,56
-0.15,0.15,28
-0.15,0.3,28
-0.15,0.45,36
-0.15,0.6,41
-0.15,0.75,37
-0.15,0.9,38
-0.15,1.05,39
-0.15,1.2,40
-0.15,1.35,41
-0.15,1.5,42
0.0,-1.5,119
0.0,-1.35,119
0.0,-1.2,116
0.0,-1.05,116
0.0,-0.9,119
0.0,-0.75,123
0.0,-0.6,135
0.0,-0.45,158
0.0,-0.3,127
0.0,-0.15,56
0.0,0.0,60
0.0,0.15,42
0.0,0.3,28
0.0,0.45,35
0.0,0.6,33
0.0,0.75,35
0.0,0.9,36
0.0,1.05,38
0.0,1.2,39
0.0,1.35,41
0.0,1.5,39
0.15,-1.5,118
0.15,-1.35,118
0.15,-1.2,118
0.15,-1.05,117
0.15,-0.9,109
0.15,-0.75,110
0.15,-0.6,104
0.15,-0.45,104
0.15,-0.3,99
0.15,-0.15,153
0.15,0.0,73
0.15,0.15,44
0.15,0.3,34
0.15,0.45,28
0.15,0.6,28
0.15,0.75,32
0.15,0.9,35
0.15,1.05,37
0.15,1.2,36
0.15,1.35,38
0.15,1.5,40
0.3,-1.5,115
0.3,-1.35,114
0.3,-1.2,113
0.3,-1.05,102
0.3,-0.9,101
0.3,-0.75,101
0.3,-0.6,92
0.3,-0.45,87
0.3,-0.3,78
0.3,-0.15,81
0.3,0.0,50
0.3,0.15,37
0.3,0.3,26
0.3,0.45,8
0.3,0.6,19
0.3,0.75,22
0.3,0.9,29
0.3,1.05,31
0.3,1.2,37
0.3,1.35,43
0.3,1.5,45
0.45,-1.5,108
0.45,-1.35,97
0.45,-1.2,96
0.45,-1.05,98
0.45,-0.9,95
0.45,-0.75,92
0.45,-0.6,84
0.45,-0.45,79
0.45,-0.3,56
0.45,-0.15,56
0.45,0.0,32
0.45,0.15,24
0.45,0.3,18
0.45,0.45,1
0.45,0.6,15
0.45,0.75,25
0.45,0.9,30
0.45,1.05,40
0.45,1.2,44
0.45,1.35,46
0.45,1.5,48
0.6,-1.5,95
0.6,-1.35,95
0.6,-1.2,93
0.6,-1.05,88
0.6,-0.9,77
0.6,-0.75,72
0.6,-0.6,65
0.6,-0.45,96
0.6,-0.3,136
0.6,-0.15,59
0.6,0.0,45
0.6,0.15,36
0.6,0.3,33
0.6,0.45,27
0.6,0.6,34
0.6,0.75,36
0.6,0.9,42
0.6,1.05,45
0.6,1.2,48
0.6,1.35,50
0.6,1.5,51
0.75,-1.5,79
0.75,-1.35,68
0.75,-1.2,68
0.75,-1.05,68
0.75,-0.9,69
0.75,-0.75,65
0.75,-0.6,56
0.75,-0.45,97
0.75,-0.3,102
0.75,-0.15,47
0.75,0.0,47
0.75,0.15,51
0.75,0.3,50
0.75,0.45,47
0.75,0.6,44
0.75,0.75,53
0.75,0.9,56
0.75,1.05,63
0.75,1.2,65
0.75,1.35,62
0.75,1.5,63
0.9,-1.5,68
0.9,-1.35,68
0.9,-1.2,68
0.9,-1.05,69
0.9,-0.9,67
0.9,-0.75,69
0.9,-0.6,73
0.9,-0.45,84
0.9,-0.3,120
0.9,-0.15,68
0.9,0.0,59
0.9,0.15,60
0.9,0.3,64
0.9,0.45,60
0.9,0.6,61
0.9,0.75,67
0.9,0.9,72
0.9,1.05,71
0.9,1.2,71
0.9,1.35,71
0.9,1.5,70
1.05,-1.5,66
1.05,-1.35,66
1.05,-1.2,66
1.05,-1.05,66
1.05,-0.9,66
1.05,-0.75,66
1.05,-0.6,65
1.05,-0.45,61
1.05,-0.3,43
1.05,-0.15,52
1.05,0.0,157
1.05,0.15,87
1.05,0.3,84
1.05,0.45,91
1.05,0.6,79
1.05,0.75,85
1.05,0.9,87
1.05,1.05,87
1.05,1.2,84
1.05,1.35,82
1.05,1.5,73
1.2,-1.5,64
1.2,-1.35,64
1.2,-1.2,63
1.2,-1.05,62
1.2,-0.9,61
1.2,-0.75,58
1.2,-0.6,50
1.2,-0.45,59
1.2,-0.3,52
1.2,-0.15,82
1.2,0.0,100
1.2,0.15,98
1.2,0.3,90
1.2,0.45,98
1.2,0.6,107
1.2,0.75,115
1.2,0.9,116
1.2,1.05,95
1.2,1.2,88
1.2,1.35,82
1.2,1.5,82
1.35,-1.5,51
1.35,-1.35,51
1.35,-1.2,50
1.35,-1.05,49
1.35,-0.9,47
1.35,-0.75,58
1.35,-0.6,48
1.35,-0.45,44
1.35,-0.3,66
1.35,-0.15,120
1.35,0.0,219
1.35,0.15,101
1.35,0.3,87
1.35,0.45,94
1.35,0.6,117
1.35,0.75,141
1.35,0.9,121
1.35,1.05,99
1.35,1.2,86
1.35,1.35,78
1.35,1.5,73
1.5,-1.5,49
1.5,-1.35,48
1.5,-1.2,46
1.5,-1.05,35
1.5,-0.9,35
1.5,-0.75,46
1.5,-0.6,37
1.5,-0.45,11
1.5,-0.3,46
1.5,-0.15,68
1.5,0.0,83
1.5,0.15,54
1.5,0.3,60
1.5,0.45,77
1.5,0.6,113
1.5,0.75,154
1.5,0.9,131
1.5,1.05,106
1.5,1.2,82
1.5,1.35,74
1.5,1.5,67
1.65,-1.5,60
1.65,-1.35,50
1.65,-1.2,46
1.65,-1.05,45
1.65,-0.9,45
1.65,-0.75,43
1.65,-0.6,34
1.65,-0.45,37
1.65,-0.3,36
1.65,-0.15,45
1.65,0.0,26
1.65,0.15,51
1.65,0.3,53
1.65,0.45,58
1.65,0.6,74
1.65,0.75,100
1.65,0.9,102
1.65,1.05,83
1.65,1.2,73
1.65,1.35,67
1.65,1.5,64
1.8,-1.5,60
1.8,-1.35,60
1.8,-1.2,62
1.8,-1.05,60
1.8,-0.9,49
1.8,-0.75,47
1.8,-0.6,46
1.8,-0.45,46
1.8,-0.3,45
1.8,-0.15,41
1.8,0.0,36
1.8,0.15,50
1.8,0.3,49
1.8,0.45,54
1.8,0.6,65
1.8,0.75,77
1.8,0.9,71
1.8,1.05,67
1.8,1.2,64
1.8,1.35,62
1.8,1.5,60
1.95,-1.5,67
1.95,-1.35,67
1.95,-1.2,64
1.95,-1.05,63
1.95,-0.9,65
1.95,-0.75,53
1.95,-0.6,49
1.95,-0.45,44
1.95,-0.3,23
1.95,-0.15,47
1.95,0.0,160
1.95,0.15,62
1.95,0.3,25
1.95,0.45,47
1.95,0.6,58
1.95,0.75,53
1.95,0.9,54
1.95,1.05,56
1.95,1.2,54
1.95,1.35,54
1.95,1.5,53
2.1,-1.5,72
2.1,-1.35,73
2.1,-1.2,71
2.1,-1.05,73
2.1,-0.9,75
2.1,-0.75,75
2.1,-0.6,70
2.1,-0.45,49
2.1,-0.3,27
2.1,-0.15,47
2.1,0.0,61
2.1,0.15,55
2.1,0.3,72
2.1,0.45,53
2.1,0.6,41
2.1,0.75,47
2.1,0.9,49
2.1,1.05,49
2.1,1.2,49
2.1,1.35,52
2.1,1.5,52
2.25,-1.5,76
2.25,-1.35,78
2.25,-1.2,77
2.25,-1.05,80
2.25,-0.9,87
2.25,-0.75,101
2.25,-0.6,118
2.25,-0.45,70
2.25,-0.3,47
2.25,-0.15,46
2.25,0.0,29
2.25,0.15,49
2.25,0.3,41
2.25,0.45,36
2.25,0.6,37
2.25,0.75,42
2.25,0.9,47
2.25,1.05,47
2.25,1.2,48
2.25,1.35,46
2.25,1.5,46
2.4,-1.5,74
2.4,-1.35,77
2.4,-1.2,80
2.4,-1.05,84
2.4,-0.9,90
2.4,-0.75,110
2.4,-0.6,177
2.4,-0.45,117
2.4,-0.3,63
2.4,-0.15,49
2.4,0.0,45
2.4,0.15,42
2.4,0.3,31
2.4,0.45,21
2.4,0.6,31
2.4,0.75,36
2.4,0.9,41
2.4,1.05,37
2.4,1.2,37
2.4,1.35,43
2.4,1.5,44
2.55,-1.5,74
2.55,-1.35,74
2.55,-1.2,76
2.55,-1.05,78
2.55,-0.9,82
2.55,-0.75,84
2.55,-0.6,77
2.55,-0.45,24
2.55,-0.3,57
2.55,-0.15,46
2.55,0.0,49
2.55,0.15,50
2.55,0.3,21
2.55,0.45,22
2.55,0.6,17
2.55,0.75,27
2.55,0.9,36
2.55,1.05,39
2.55,1.2,40
2.55,1.35,38
2.55,1.5,39
2.7,-1.5,71
2.7,-1.35,71
2.7,-1.2,71
2.7,-1.05,70
2.7,-0.9,69
2.7,-0.75,66
2.7,-0.6,57
2.7,-0.45,44
2.7,-0.3,41
2.7,-0.15,41
2.7,0.0,58
2.7,0.15,74
2.7,0.3,96
2.7,0.45,44
2.7,0.6,11
2.7,0.75,28
2.7,0.9,33
2.7,1.05,36
2.7,1.2,37
2.7,1.35,38
2.7,1.5,38
2.85,-1.5,51
2.85,-1.35,51
2.85,-1.2,54
2.85,-1.05,53
2.85,-0.9,52
2.85,-0.75,49
2.85,-0.6,49
2.85,-0.45,41
2.85,-0.3,46
2.85,-0.15,58
2.85,0.0,41
2.85,0.15,91
2.85,0.3,69
2.85,0.45,48
2.85,0.6,45
2.85,0.75,39
2.85,0.9,31
2.85,1.05,31
2.85,1.2,35
2.85,1.35,42
2.85,1.5,43
3.0,-1.5,51
3.0,-1.35,51
3.0,-1.2,51
3.0,-1.05,52
3.0,-0.9,53
3.0,-0.75,53
3.0,-0.6,51
3.0,-0.45,51
3.0,-0.3,46
3.0,-0.15,41
3.0,0.0,43
3.0,0.15,71
3.0,0.3,46
3.0,0.45,30
3.0,0.6,42
3.0,0.75,39
3.0,0.9,41
3.0,1.05,58
3.0,1.2,43
3.0,1.35,61
3.0,1.5,61
3.15,-1.5,37
3.15,-1.35,34
3.15,-1.2,47
3.15,-1.05,49
3.15,-0.9,50
3.15,-0.75,50
3.15,-0.6,57
3.15,-0.45,60
3.15,-0.3,77
3.15,-0.15,50
3.15,0.0,94
3.15,0.15,50
3.15,0.3,50
3.15,0.45,41
3.15,0.6,51
3.15,0.75,56
3.15,0.9,59
3.15,1.05,60
3.15,1.2,60
3.15,1.35,61
3.15,1.5,61
3.3,-1.5,45
3.3,-1.35,35
3.3,-1.2,30
3.3,-1.05,33
3.3,-0.9,46
3.3,-0.75,49
3.3,-0.6,57
3.3,-0.45,52
3.3,-0.3,92
3.3,-0.15,107
3.3,0.0,92
3.3,0.15,101
3.3,0.3,5
3.3,0.45,66
3.3,0.6,61
3.3,0.75,66
3.3,0.9,67
3.3,1.05,64
3.3,1.2,64
3.3,1.35,64
3.3,1.5,63
3.45,-1.5,58
3.45,-1.35,53
3.45,-1.2,51
3.45,-1.05,50
3.45,-0.9,48
3.45,-0.75,35
3.45,-0.6,44
3.45,-0.45,45
3.45,-0.3,166
3.45,-0.15,64
3.45,0.0,120
3.45,0.15,44
3.45,0.3,93
3.45,0.45,135
3.45,0.6,87
3.45,0.75,71
3.45,0.9,76
3.45,1.05,78
3.45,1.2,78
3.45,1.35,78
3.45,1.5,78
3.6,-1.5,54
3.6,-1.35,51
3.6,-1.2,45
3.6,-1.05,40
3.6,-0.9,49
3.6,-0.75,54
3.6,-0.6,35
3.6,-0.45,9
3.6,-0.3,6
3.6,-0.15,5
3.6,0.0,118
3.6,0.15,44
3.6,0.3,89
3.6,0.45,135
3.6,0.6,86
3.6,0.75,50
3.6,0.9,75
3.6,1.05,78
3.6,1.2,78
3.6,1.35,78
3.6,1.5,78
3.75,-1.5,54
3.75,-1.35,52
3.75,-1.2,40
3.75,-1.05,11
3.75,-0.9,32
3.75,-0.75,80
3.75,-0.6,54
3.75,-0.45,40
3.75,-0.3,25
3.75,-0.15,45
3.75,0.0,44
3.75,0.15,67
3.75,0.3,255
3.75,0.45,79
3.75,0.6,87
3.75,0.75,78
3.75,0.9,78
3.75,1.05,78
3.75,1.2,64
3.75,1.35,65
3.75,1.5,65
3.9,-1.5,50
3.9,-1.35,50
3.9,-1.2,43
3.9,-1.05,31
3.9,-0.9,51
3.9,-0.75,100
3.9,-0.6,203
3.9,-0.45,57
3.9,-0.3,55
3.9,-0.15,43
3.9,0.0,44
3.9,0.15,43
3.9,0.3,1
3.9,0.45,105
3.9,0.6,85
3.9,0.75,74
3.9,0.9,71
3.9,1.05,60
3.9,1.2,60
3.9,1.35,56
3.9,1.5,56
4.05,-1.5,70
4.05,-1.35,49
4.05,-1.2,47
4.05,-1.05,51
4.05,-0.9,50
4.05,-0.75,74
4.05,-0.6,60
4.05,-0.45,70
4.05,-0.3,56
4.05,-0.15,43
4.05,0.0,130
4.05,0.15,29
4.05,0.3,41
4.05,0.45,75
4.05,0.6,51
4.05,0.75,47
4.05,0.9,48
4.05,1.05,50
4.05,1.2,47
4.05,1.35,47
4.05,1.5,44
4.2,-1.5,54
4.2,-1.35,53
4.2,-1.2,51
4.2,-1.05,62
4.2,-0.9,42
4.2,-0.75,20
4.2,-0.6,46
4.2,-0.45,56
4.2,-0.3,50
4.2,-0.15,25
4.2,0.0,8
4.2,0.15,132
4.2,0.3,46
4.2,0.45,37
4.2,0.6,26
4.2,0.75,38
4.2,0.9,46
4.2,1.05,34
4.2,1.2,37
4.2,1.35,37
4.2,1.5,37
4.35,-1.5,70
4.35,-1.35,70
4.35,-1.2,71
4.35,-1.05,70
4.35,-0.9,63
4.35,-0.75,48
4.35,-0.6,25
4.35,-0.45,28
4.35,-0.3,90
4.35,-0.15,59
4.35,0.0,45
4.35,0.15,50
4.35,0.3,104
4.35,0.45,75
4.35,0.6,37
4.35,0.75,46
4.35,0.9,49
4.35,1.05,49
4.35,1.2,44
4.35,1.35,37
4.35,1.5,37
4.5,-1.5,72
4.5,-1.35,75
4.5,-1.2,81
4.5,-1.05,94
4.5,-0.9,105
4.5,-0.75,109
4.5,-0.6,128
4.5,-0.45,59
4.5,-0.3,112
4.5,-0.15,52
4.5,0.0,45
4.5,0.15,26
4.5,0.3,31
4.5,0.45,49
4.5,0.6,42
4.5,0.75,50
4.5,0.9,50
4.5,1.05,47
4.5,1.2,48
4.5,1.35,48
4.5,1.5,48
4.65,-1.5,90
4.65,-1.35,93
4.65,-1.2,102
4.65,-1.05,116
4.65,-0.9,136
4.65,-0.75,207
4.65,-0.6,70
4.65,-0.45,50
4.65,-0.3,44
4.65,-0.15,122
4.65,0.0,86
4.65,0.15,127
4.65,0.3,67
4.65,0.45,61
4.65,0.6,61
4.65,0.75,46
4.65,0.9,48
4.65,1.05,48
4.65,1.2,48
4.65,1.35,48
4.65,1.5,48
4.8,-1.5,93
4.8,-1.35,94
4.8,-1.2,107
4.8,-1.05,105
4.8,-0.9,106
4.8,-0.75,92
4.8,-0.6,58
4.8,-0.45,47
4.8,-0.3,33
4.8,-0.15,39
4.8,0.0,31
4.8,0.15,71
4.8,0.3,38
4.8,0.45,60
4.8,0.6,30
4.8,0.75,35
4.8,0.9,43
4.8,1.05,39
4.8,1.2,40
4.8,1.35,40
4.8,1.5,40
4.95,-1.5,69
4.95,-1.35,68
4.95,-1.2,74
4.95,-1.05,82
4.95,-0.9,71
4.95,-0.75,74
4.95,-0.6,193
4.95,-0.45,30
4.95,-0.3,240
4.95,-0.15,24
4.95,0.0,45
4.95,0.15,85
4.95,0.3,21
4.95,0.45,12
4.95,0.6,12
4.95,0.75,12
4.95,0.9,37
4.95,1.05,43
4.95,1.2,40
4.95,1.35,40
4.95,1.5,40
5.1,-1.5,84
5.1,-1.35,74
5.1,-1.2,49
5.1,-1.05,45
5.1,-0.9,33
5.1,-0.75,2
5.1,-0.6,48
5.1,-0.45,148
5.1,-0.3,0
5.1,-0.15,80
5.1,0.0,45
5.1,0.15,34
5.1,0.3,6
5.1,0.45,53
5.1,0.6,42
5.1,0.75,43
5.1,0.9,43
5.1,1.05,43
5.1,1.2,42
5.1,1.35,41
5.1,1.5,40
5.25,-1.5,66
5.25,-1.35,65
5.25,-1.2,59
5.25,-1.05,66
5.25,-0.9,48
5.25,-0.75,37
5.25,-0.6,33
5.25,-0.45,88
5.25,-0.3,77
5.25,-0.15,46
5.25,0.0,49
5.25,0.15,46
5.25,0.3,38
5.25,0.45,1
5.25,0.6,34
5.25,0.75,42
5.25,0.9,40
5.25,1.05,42
5.25,1.2,40
5.25,1.35,40
5.25,1.5,51
5.4,-1.5,79
5.4,-1.35,80
5.4,-1.2,97
5.4,-1.05,110
5.4,-0.9,113
5.4,-0.75,114
5.4,-0.6,51
5.4,-0.45,33
5.4,-0.3,38
5.4,-0.15,77
5.4,0.0,20
5.4,0.15,45
5.4,0.3,20
5.4,0.45,75
5.4,0.6,18
5.4,0.75,26
5.4,0.9,31
5.4,1.05,41
5.4,1.2,54
5.4,1.35,43
5.4,1.5,56
5.55,-1.5,80
5.55,-1.35,80
5.55,-1.2,80
5.55,-1.05,81
5.55,-0.9,93
5.55,-0.75,122
5.55,-0.6,53
5.55,-0.45,40
5.55,-0.3,28
5.55,-0.15,0
5.55,0.0,57
5.55,0.15,47
5.55,0.3,77
5.55,0.45,79
5.55,0.6,20
5.55,0.75,39
5.55,0.9,44
5.55,1.05,51
5.55,1.2,59
5.55,1.35,59
5.55,1.5,59
5.7,-1.5,101
5.7,-1.35,76
5.7,-1.2,75
5.7,-1.05,74
5.7,-0.9,74
5.7,-0.75,53
5.7,-0.6,133
5.7,-0.45,41
5.7,-0.3,35
5.7,-0.15,13
5.7,0.0,38
5.7,0.15,65
5.7,0.3,29
5.7,0.45,89
5.7,0.6,42
5.7,0.75,54
5.7,0.9,57
5.7,1.05,57
5.7,1.2,58
5.7,1.35,59
5.7,1.5,60
5.85,-1.5,106
5.85,-1.35,109
5.85,-1.2,123
5.85,-1.05,102
5.85,-0.9,79
5.85,-0.75,99
5.85,-0.6,84
5.85,-0.45,46
5.85,-0.3,234
5.85,-0.15,50
5.85,0.0,35
5.85,0.15,0
5.85,0.3,33
5.85,0.45,43
5.85,0.6,56
5.85,0.75,102
5.85,0.9,102
5.85,1.05,72
5.85,1.2,65
5.85,1.35,59
5.85,1.5,60
6.0,-1.5,115
6.0,-1.35,115
6.0,-1.2,115
6.0,-1.05,115
6.0,-0.9,115
6.0,-0.75,109
6.0,-0.6,109
6.0,-0.45,6
6.0,-0.3,47
6.0,-0.15,39
6.0,0.0,36
6.0,0.15,19
6.0,0.3,24
6.0,0.45,144
6.0,0.6,83
6.0,0.75,110
6.0,0.9,110
6.0,1.05,102
6.0,1.2,98
6.0,1.35,73
6.0,1.5,71
6.15,-1.5,92
6.15,-1.35,100
6.15,-1.2,99
6.15,-1.05,96
6.15,-0.9,97
6.15,-0.75,79
6.15,-0.6,50
6.15,-0.45,93
6.15,-0.3,82
6.15,-0.15,71
6.15,0.0,43
6.15,0.15,22
6.15,0.3,49
6.15,0.45,31
6.15,0.6,129
6.15,0.75,83
6.15,0.9,85
6.15,1.05,95
6.15,1.2,84
6.15,1.35,84
6.15,1.5,83
6.3,-1.5,64
6.3,-1.35,64
6.3,-1.2,63
6.3,-1.05,61
6.3,-0.9,55
6.3,-0.75,30
6.3,-0.6,56
6.3,-0.45,133
6.3,-0.3,237
6.3,-0.15,16
6.3,0.0,71
6.3,0.15,54
6.3,0.3,12
6.3,0.45,137
6.3,0.6,118
6.3,0.75,56
6.3,0.9,70
6.3,1.05,80
6.3,1.2,80
6.3,1.35,82
6.3,1.5,82
6.45,-1.5,74
6.45,-1.35,74
6.45,-1.2,61
6.45,-1.05,62
6.45,-0.9,63
6.45,-0.75,47
6.45,-0.6,54
6.45,-0.45,42
6.45,-0.3,60
6.45,-0.15,38
6.45,0.0,33
6.45,0.15,61
6.45,0.3,42
6.45,0.45,83
6.45,0.6,76
6.45,0.75,31
6.45,0.9,60
6.45,1.05,69
6.45,1.2,88
6.45,1.35,113
6.45,1.5,117
6.6,-1.5,72
6.6,-1.35,72
6.6,-1.2,74
6.6,-1.05,81
6.6,-0.9,98
6.6,-0.75,208
6.6,-0.6,90
6.6,-0.45,140
6.6,-0.3,33
6.6,-0.15,33
6.6,0.0,121
6.6,0.15,73
6.6,0.3,51
6.6,0.45,173
6.6,0.6,89
6.6,0.75,53
6.6,0.9,71
6.6,1.05,80
6.6,1.2,85
6.6,1.35,101
6.6,1.5,103
6.75,-1.5,93
6.75,-1.35,93
6.75,-1.2,84
6.75,-1.05,86
6.75,-0.9,92
6.75,-0.75,93
6.75,-0.6,58
6.75,-0.45,96
6.75,-0.3,57
6.75,-0.15,121
6.75,0.0,57
6.75,0.15,221
6.75,0.3,50
6.75,0.45,94
6.75,0.6,171
6.75,0.75,103
6.75,0.9,108
6.75,1.05,106
6.75,1.2,96
6.75,1.35,96
6.75,1.5,96
6.9,-1.5,103
6.9,-1.35,95
6.9,-1.2,95
6.9,-1.05,95
6.9,-0.9,90
6.9,-0.75,72
6.9,-0.6,72
6.9,-0.45,255
6.9,-0.3,89
6.9,-0.15,75
6.9,0.0,105
6.9,0.15,68
6.9,0.3,50
6.9,0.45,69
6.9,0.6,139
6.9,0.75,168
6.9,0.9,133
6.9,1.05,111
6.9,1.2,104
6.9,1.35,101
6.9,1.5,99
7.05,-1.5,103
7.05,-1.35,103
7.05,-1.2,103
7.05,-1.05,98
7.05,-0.9,99
7.05,-0.75,104
7.05,-0.6,72
7.05,-0.45,84
7.05,-0.3,51
7.05,-0.15,49
7.05,0.0,44
7.05,0.15,40
7.05,0.3,45
7.05,0.45,61
7.05,0.6,133
7.05,0.75,154
7.05,0.9,130
7.05,1.05,118
7.05,1.2,99
7.05,1.35,94
7.05,1.5,91
7.2,-1.5,91
7.2,-1.35,96
7.2,-1.2,99
7.2,-1.05,103
7.2,-0.9,104
7.2,-0.75,77
7.2,-0.6,115
7.2,-0.45,96
7.2,-0.3,52
7.2,-0.15,14
7.2,0.0,31
7.2,0.15,31
7.2,0.3,41
7.2,0.45,49
7.2,0.6,73
7.2,0.75,110
7.2,0.9,113
7.2,1.05,116
7.2,1.2,103
7.2,1.35,96
7.2,1.5,94
7.35,-1.5,89
7.35,-1.35,89
7.35,-1.2,98
7.35,-1.05,105
7.35,-0.9,134
7.35,-0.75,50
7.35,-0.6,113
7.35,-0.45,181
7.35,-0.3,72
7.35,-0.15,145
7.35,0.0,50
7.35,0.15,52
7.35,0.3,59
7.35,0.45,68
7.35,0.6,91
7.35,0.75,101
7.35,0.9,108
7.35,1.05,116
7.35,1.2,115
7.35,1.35,114
7.35,1.5,109
7.5,-1.5,89
7.5,-1.35,89
7.5,-1.2,92
7.5,-1.05,82
7.5,-0.9,80
7.5,-0.75,63
7.5,-0.6,41
7.5,-0.45,50
7.5,-0.3,86
7.5,-0.15,105
7.5,0.0,55
7.5,0.15,66
7.5,0.3,111
7.5,0.45,113
7.5,0.6,113
7.5,0.75,119
7.5,0.9,118
7.5,1.05,114
7.5,1.2,124
7.5,1.35,113
7.5,1.5,113
7.65,-1.5,85
7.65,-1.35,74
7.65,-1.2,72
7.65,-1.05,66
7.65,-0.9,51
7.65,-0.75,44
7.65,-0.6,22
7.65,-0.45,77
7.65,-0.3,75
7.65,-0.15,72
7.65,0.0,29
7.65,0.15,19
7.65,0.3,90
7.65,0.45,200
7.65,0.6,132
7.65,0.75,108
7.65,0.9,116
7.65,1.05,116
7.65,1.2,119
7.65,1.35,116
7.65,1.5,115
7.8,-1.5,72
7.8,-1.35,70
7.8,-1.2,61
7.8,-1.05,54
7.8,-0.9,41
7.8,-0.75,3
7.8,-0.6,93
7.8,-0.45,76
7.8,-0.3,166
7.8,-0.15,115
7.8,0.0,51
7.8,0.15,29
7.8,0.3,93
7.8,0.45,128
7.8,0.6,100
7.8,0.75,102
7.8,0.9,99
7.8,1.05,113
7.8,1.2,114
7.8,1.35,115
7.8,1.5,116
7.95,-1.5,53
7.95,-1.35,52
7.95,-1.2,68
7.95,-1.05,64
7.95,-0.9,56
7.95,-0.75,67
7.95,-0.6,90
7.95,-0.45,117
7.95,-0.3,142
7.95,-0.15,128
7.95,0.0,87
7.95,0.15,72
7.95,0.3,96
7.95,0.45,92
7.95,0.6,92
7.95,0.75,95
7.95,0.9,96
7.95,1.05,95
7.95,1.2,111
7.95,1.35,112
7.95,1.5,113
8.1,-1.5,68
8.1,-1.35,68
8.1,-1.2,68
8.1,-1.05,58
8.1,-0.9,64
8.1,-0.75,72
8.1,-0.6,102
8.1,-0.45,119
8.1,-0.3,129
8.1,-0.15,181
8.1,0.0,137
8.1,0.15,91
8.1,0.3,92
8.1,0.45,96
8.1,0.6,96
8.1,0.75,97
8.1,0.9,95
8.1,1.05,95
8.1,1.2,95
8.1,1.35,95
8.1,1.5,111
8.25,-1.5,68
8.25,-1.35,64
8.25,-1.2,54
8.25,-1.05,55
8.25,-0.9,59
8.25,-0.75,82
8.25,-0.6,96
8.25,-0.45,128
8.25,-0.3,59
8.25,-0.15,94
8.25,0.0,112
8.25,0.15,69
8.25,0.3,67
8.25,0.45,94
8.25,0.6,95
8.25,0.75,97
8.25,0.9,98
8.25,1.05,99
8.25,1.2,100
8.25,1.35,100
8.25,1.5,104
8.4,-1.5,63
8.4,-1.35,53
8.4,-1.2,52
8.4,-1.05,50
8.4,-0.9,53
8.4,-0.75,48
8.4,-0.6,68
8.4,-0.45,69
8.4,-0.3,27
8.4,-0.15,73
8.4,0.0,91
8.4,0.15,75
8.4,0.3,65
8.4,0.45,87
8.4,0.6,97
8.4,0.75,98
8.4,0.9,99
8.4,1.05,100
8.4,1.2,101
8.4,1.35,101
8.4,1.5,101
8.55,-1.5,53
8.55,-1.35,55
8.55,-1.2,52
8.55,-1.05,46
8.55,-0.9,35
8.55,-0.75,2
8.55,-0.6,31
8.55,-0.45,56
8.55,-0.3,53
8.55,-0.15,62
8.55,0.0,79
8.55,0.15,91
8.55,0.3,90
8.55,0.45,93
8.55,0.6,100
8.55,0.75,103
8.55,0.9,104
8.55,1.05,102
8.55,1.2,105
8.55,1.35,109
8.55,1.5,102
8.7,-1.5,53
8.7,-1.35,51
8.7,-1.2,48
8.7,-1.05,48
8.7,-0.9,35
8.7,-0.75,22
8.7,-0.6,39
8.7,-0.45,58
8.7,-0.3,60
8.7,-0.15,53
8.7,0.0,90
8.7,0.15,132
8.7,0.3,126
8.7,0.45,114
8.7,0.6,106
8.7,0.75,112
8.7,0.9,110
8.7,1.05,109
8.7,1.2,109
8.7,1.35,109
8.7,1.5,109
8.85,-1.5,54
8.85,-1.35,53
8.85,-1.2,50
8.85,-1.05,46
8.85,-0.9,48
8.85,-0.75,49
8.85,-0.6,55
8.85,-0.45,63
8.85,-0.3,69
8.85,-0.15,81
8.85,0.0,130
8.85,0.15,206
8.85,0.3,167
8.85,0.45,121
8.85,0.6,112
8.85,0.75,105
8.85,0.9,112
8.85,1.05,112
8.85,1.2,110
8.85,1.35,110
8.85,1.5,109
9.0,-1.5,54
9.0,-1.35,53
9.0,-1.2,50
9.0,-1.05,58
9.0,-0.9,59
9.0,-0.75,58
9.0,-0.6,60
9.0,-0.45,63
9.0,-0.3,66
9.0,-0.15,88
9.0,0.0,125
9.0,0.15,169
9.0,0.3,156
9.0,0.45,122
9.0,0.6,107
9.0,0.75,106
9.0,0.9,102
9.0,1.05,111
9.0,1.2,110
9.0,1.35,109
9.0,1.5,109
9.15,-1.5,54
9.15,-1.35,53
9.15,-1.2,57
9.15,-1.05,65
9.15,-0.9,62
9.15,-0.75,60
9.15,-0.6,56
9.15,-0.45,49
9.15,-0.3,49
9.15,-0.15,82
9.15,0.0,99
9.15,0.15,114
9.15,0.3,118
9.15,0.45,110
9.15,0.6,101
9.15,0.75,104
9.15,0.9,101
9.15,1.05,99
9.15,1.2,110
9.15,1.35,109
9.15,1.5,109
9.3,-1.5,61
9.3,-1.35,59
9.3,-1.2,63
9.3,-1.05,66
9.3,-0.9,63
9.3,-0.75,58
9.3,-0.6,48
9.3,-0.45,25
9.3,-0.3,0
9.3,-0.15,90
9.3,0.0,96
9.3,0.15,94
9.3,0.3,99
9.3,0.45,98
9.3,0.6,95
9.3,0.75,94
9.3,0.9,99
9.3,1.05,98
9.3,1.2,97
9.3,1.35,109
9.3,1.5,109
9.45,-1.5,61
9.45,-1.35,60
9.45,-1.2,69
9.45,-1.05,67
9.45,-0.9,63
9.45,-0.75,58
9.45,-0.6,44
9.45,-0.45,29
9.45,-0.3,20
9.45,-0.15,60
9.45,0.0,82
9.45,0.15,84
9.45,0.3,88
9.45,0.45,90
9.45,0.6,90
9.45,0.75,88
9.45,0.9,97
9.45,1.05,96
9.45,1.2,96
9.45,1.35,95
9.45,1.5,108
9.6,-1.5,62
9.6,-1.35,72
9.6,-1.2,70
9.6,-1.05,68
9.6,-0.9,65
9.6,-0.75,60
9.6,-0.6,50
9.6,-0.45,44
9.6,-0.3,45
9.6,-0.15,59
9.6,0.0,75
9.6,0.15,78
9.6,0.3,82
9.6,0.45,84
9.6,0.6,85
9.6,0.75,85
9.6,0.9,87
9.6,1.05,95
9.6,1.2,95
9.6,1.35,94
9.6,1.5,94
9.75,-1.5,63
9.75,-1.35,73
9.75,-1.2,71
9.75,-1.05,69
9.75,-0.9,67
9.75,-0.75,58
9.75,-0.6,56
9.75,-0.45,54
9.75,-0.3,56
9.75,-0.15,63
9.75,0.0,74
9.75,0.15,74
9.75,0.3,78
9.75,0.45,80
9.75,0.6,82
9.75,0.75,82
9.75,0.9,82
9.75,1.05,93
9.75,1.2,93
9.75,1.35,93
9.75,1.5,93
9.9,-1.5,75
9.9,-1.35,74
9.9,-1.2,72
9.9,-1.05,71
9.9,-0.9,69
9.9,-0.75,61
9.9,-0.6,60
9.9,-0.45,60
9.9,-0.3,62
9.9,-0.15,66
9.9,0.0,74
9.9,0.15,72
9.9,0.3,75
9.9,0.45,78
9.9,0.6,79
9.9,0.75,80
9.9,0.9,81
9.9,1.05,83
9.9,1.2,92
9.9,1.35,92
9.9,1.5,93
10.05,-1.5,75
10.05,-1.35,74
10.05,-1.2,73
10.05,-1.05,72
10.05,-0.9,64
10.05,-0.75,63
10.05,-0.6,63
10.05,-0.45,64
10.05,-0.3,65
10.05,-0.15,68
10.05,0.0,74
10.05,0.15,72
10.05,0.3,74
10.05,0.45,76
10.05,0.6,77
10.05,0.75,78
10.05,0.9,79
10.05,1.05,79
10.05,1.2,82
10.05,1.35,92
10.05,1.5,92
10.2,-1.5,76
10.2,-1.35,75
10.2,-1.2,75
10.2,-1.05,74
10.2,-0.9,66
10.2,-0.75,65
10.2,-0.6,66
10.2,-0.45,66
10.2,-0.3,67
10.2,-0.15,69
10.2,0.0,74
10.2,0.15,72
10.2,0.3,73
10.2,0.45,75
10.2,0.6,76
10.2,0.75,77
10.2,0.9,78
10.2,1.05,78
10.2,1.2,81
10.2,1.35,91
10.2,1.5,91
10.35,-1.5,77
10.35,-1.35,76
10.35,-1.2,76
10.35,-1.05,67
10.35,-0.9,67
10.35,-0.75,67
10.35,-0.6,67
10.35,-0.45,68
10.35,-0.3,69
10.35,-0.15,70
10.35,0.0,74
10.35,0.15,72
10.35,0.3,72
10.35,0.45,74
10.35,0.6,75
10.35,0.75,76
10.35,0.9,77
10.35,1.05,77
10.35,1.2,77
10.35,1.35,77
10.35,1.5,77
10.5,-1.5,65
10.5,-1.35,65
10.5,-1.2,65
10.5,-1.05,68
10.5,-0.9,68
10.5,-0.75,68
10.5,-0.6,69
10.5,-0.45,69
10.5,-0.3,70
10.5,-0.15,71
10.5,0.0,74
10.5,0.15,74
10.5,0.3,72
10.5,0.45,73
10.5,0.6,74
10.5,0.75,75
10.5,0.9,63
10.5,1.05,73
10.5,1.2,73
10.5,1.35,72
10.5,1.5,75
10.65,-1.5,64
10.65,-1.35,64
10.65,-1.2,65
10.65,-1.05,65
10.65,-0.9,66
10.65,-0.75,66
10.65,-0.6,69
10.65,-0.45,70
10.65,-0.3,71
10.65,-0.15,72
10.65,0.0,74
10.65,0.15,74
10.65,0.3,72
10.65,0.45,61
10.65,0.6,62
10.65,0.75,62
10.65,0.9,62
10.65,1.05,61
10.65,1.2,71
10.65,1.35,70
10.65,1.5,73
10.8,-1.5,63
10.8,-1.35,64
10.8,-1.2,64
10.8,-1.05,64
10.8,-0.9,65
10.8,-0.75,66
10.8,-0.6,66
10.8,-0.45,67
10.8,-0.3,68
10.8,-0.15,69
10.8,0.0,70
10.8,0.15,59
10.8,0.3,59
10.8,0.45,60
10.8,0.6,60
10.8,0.75,60
10.8,0.9,60
10.8,1.05,59
10.8,1.2,68
10.8,1.35,68
10.8,1.5,68
10.95,-1.5,62
10.95,-1.35,62
10.95,-1.2,63
10.95,-1.05,63
10.95,-0.9,64
10.95,-0.75,65
10.95,-0.6,66
10.95,-0.45,66
10.95,-0.3,49
10.95,-0.15,50
10.95,0.0,51
10.95,0.15,51
10.95,0.3,52
10.95,0.45,55
10.95,0.6,58
10.95,0.75,58
10.95,0.9,58
10.95,1.05,57
10.95,1.2,57
10.95,1.35,66
10.95,1.5,52
11.1,-1.5,60
11.1,-1.35,60
11.1,-1.2,61
11.1,-1.05,62
11.1,-0.9,63
11.1,-0.75,60
11.1,-0.6,46
11.1,-0.45,47
11.1,-0.3,48
11.1,-0.15,48
11.1,0.0,49
11.1,0.15,49
11.1,0.3,49
11.1,0.45,53
11.1,0.6,53
11.1,0.75,52
11.1,0.9,52
11.1,1.05,55
11.1,1.2,54
11.1,1.35,63
11.1,1.5,62
11.25,-1.5,57
11.25,-1.35,58
11.25,-1.2,59
11.25,-1.05,56
11.25,-0.9,57
11.25,-0.75,58
11.25,-0.6,44
11.25,-0.45,45
11.25,-0.3,46
11.25,-0.15,46
11.25,0.0,47
11.25,0.15,47
11.25,0.3,47
11.25,0.45,50
11.25,0.6,50
11.25,0.75,49
11.25,0.9,49
11.25,1.05,48
11.25,1.2,48
11.25,1.35,47
11.25,1.5,47
11.4,-1.5,51
11.4,-1.35,52
11.4,-1.2,52
11.4,-1.05,53
11.4,-0.9,54
11.4,-0.75,55
11.4,-0.6,42
11.4,-0.45,42
11.4,-0.3,43
11.4,-0.15,44
11.4,0.0,44
11.4,0.15,44
11.4,0.3,44
11.4,0.45,47
11.4,0.6,47
11.4,0.75,46
11.4,0.9,46
11.4,1.05,45
11.4,1.2,44
11.4,1.35,44
11.4,1.5,43
11.55,-1.5,47
11.55,-1.35,47
11.55,-1.2,48
11.55,-1.05,49
11.55,-0.9,50
11.55,-0.75,52
11.55,-0.6,39
11.55,-0.45,40
11.55,-0.3,41
11.55,-0.15,41
11.55,0.0,41
11.55,0.15,42
11.55,0.3,41
11.55,0.45,44
11.55,0.6,43
11.55,0.75,43
11.55,0.9,42
11.55,1.05,41
11.55,1.2,40
11.55,1.35,39
11.55,1.5,39
11.7,-1.5,42
11.7,-1.35,42
11.7,-1.2,43
11.7,-1.05,45
11.7,-0.9,46
11.7,-0.75,48
11.7,-0.6,36
11.7,-0.45,37
11.7,-0.3,38
11.7,-0.15,38
11.7,0.0,39
11.7,0.15,39
11.7,0.3,38
11.7,0.45,41
11.7,0.6,40
11.7,0.75,39
11.7,0.9,38
11.7,1.05,37
11.7,1.2,36
11.7,1.35,35
11.7,1.5,34
11.85,-1.5,36
11.85,-1.35,37
11.85,-1.2,38
11.85,-1.05,40
11.85,-0.9,41
11.85,-0.75,43
11.85,-0.6,33
11.85,-0.45,34
11.85,-0.3,35
11.85,-0.15,36
11.85,0.0,36
11.85,0.15,36
11.85,0.3,35
11.85,0.45,37
11.85,0.6,36
11.85,0.75,35
11.85,0.9,33
11.85,1.05,32
11.85,1.2,31
11.85,1.35,29
11.85,1.5,29
12.0,-1.5,29
12.0,-1.35,30
12.0,-1.2,32
12.0,-1.05,34
12.0,-0.9,36
12.0,-0.75,38
12.0,-0.6,29
12.0,-0.45,31
12.0,-0.3,32
12.0,-0.15,33
12.0,0.0,33
12.0,0.15,33
12.0,0.3,32
12.0,0.45,34
12.0,0.6,32
12.0,0.75,31
12.0,0.9,29
12.0,1.05,27
12.0,1.2,25
12.0,1.35,24
12.0,1.5,23
12.15,-1.5,22
12.15,-1.35,23
12.15,-1.2,25
12.15,-1.05,28
12.15,-0.9,30
12.15,-0.75,24
12.15,-0.6,26
12.15,-0.45,28
12.15,-0.3,29
12.15,-0.15,30
12.15,0.0,30
12.15,0.15,30
12.15,0.3,29
12.15,0.45,30
12.15,0.6,28
12.15,0.75,26
12.15,0.9,24
12.15,1.05,21
12.15,1.2,19
12.15,1.35,18
12.15,1.5,17
12.3,-1.5,15
12.3,-1.35,16
12.3,-1.2,18
12.3,-1.05,21
12.3,-0.9,25
12.3,-0.75,20
12.3,-0.6,22
12.3,-0.45,25
12.3,-0.3,26
12.3,-0.15,27
12.3,0.0,28
12.3,0.15,27
12.3,0.3,26
12.3,0.45,27
12.3,0.6,25
12.3,0.75,22
12.3,0.9,19
12.3,1.05,16
12.3,1.2,14
12.3,1.35,12
12.3,1.5,11
12.45,-1.5,8
12.45,-1.35,9
12.45,-1.2,12
12.45,-1.05,15
12.45,-0.9,19
12.45,-0.75,16
12.45,-0.6,19
12.45,-0.45,22
12.45,-0.3,24
12.45,-0.15,25
12.45,0.0,25
12.45,0.15,25
12.45,0.3,24
12.45,0.45,24
12.45,0.6,21
12.45,0.75,18
12.45,0.9,15
12.45,1.05,11
12.45,1.2,9
12.45,1.35,7
12.45,1.5,6
12.6,-1.5,3
12.6,-1.35,4
12.6,-1.2,6
12.6,-1.05,10
12.6,-0.9,15
12.6,-0.75,13
12.6,-0.6,16
12.6,-0.45,19
12.6,-0.3,21
12.6,-0.15,22
12.6,0.0,23
12.6,0.15,23
12.6,0.3,21
12.6,0.45,21
12.6,0.6,18
12.6,0.75,15
12.6,0.9,11
12.6,1.05,7
12.6,1.2,4
12.6,1.35,2
12.6,1.5,1
12.75,-1.5,0
12.75,-1.35,0
12.75,-1.2,2
12.75,-1.05,6
12.75,-0.9,11
12.75,-0.75,11
12.75,-0.6,14
12.75,-0.45,17
12.75,-0.3,19
12.75,-0.15,21
12.75,0.0,21
12.75,0.15,21
12.75,0.3,19
12.75,0.45,17
12.75,0.6,16
12.75,0.75,12
12.75,0.9,8
12.75,1.05,4
12.75,1.2,1
12.75,1.35,0
12.75,1.5,0
12.9,-1.5,0
12.9,-1.35,0
12.9,-1.2,0
12.9,-1.05,4
12.9,-0.9,9
12.9,-0.75,9
12.9,-0.6,13
12.9,-0.45,16
12.9,-0.3,18
12.9,-0.15,19
12.9,0.0,20
12.9,0.15,19
12.9,0.3,18
12.9,0.45,16
12.9,0.6,14
12.9,0.75,10
12.9,0.9,6
12.9,1.05,2
12.9,1.2,0
12.9,1.35,0
12.9,1.5,0
13.05,-1.5,0
13.05,-1.35,0
13.05,-1.2,0
13.05,-1.05,3
13.05,-0.9,8
13.05,-0.75,8
13.05,-0.6,12
13.05,-0.45,15
13.05,-0.3,17
13.05,-0.15,18
13.05,0.0,19
13.05,0.15,18
13.05,0.3,17
13.05,0.45,15
13.05,0.6,13
13.05,0.75,9
13.05,0.9,5
13.05,1.05,2
13.05,1.2,0
13.05,1.35,0
13.05,1.5,0
