-3.0,-1.5,0
-3.0,-1.35,8
-3.0,-1.2,36
-3.0,-1.05,65
-3.0,-0.9,88
-3.0,-0.75,104
-3.0,-0.6,115
-3.0,-0.45,123
-3.0,-0.3,130
-3.0,-0.15,134
-3.0,0.0,138
-3.0,0.15,140
-3.0,0.3,136
-3.0,0.45,133
-3.0,0.6,127
-3.0,0.75,113
-3.0,0.9,93
-3.0,1.05,65
-3.0,1.2,33
-3.0,1.35,7
-3.0,1.5,0
-2.85,-1.5,9
-2.85,-1.35,20
-2.85,-1.2,45
-2.85,-1.05,74
-2.85,-0.9,94
-2.85,-0.75,108
-2.85,-0.6,117
-2.85,-0.45,124
-2.85,-0.3,130
-2.85,-0.15,136
-2.85,0.0,140
-2.85,0.15,141
-2.85,0.3,142
-2.85,0.45,141
-2.85,0.6,134
-2.85,0.75,122
-2.85,0.9,103
-2.85,1.05,76
-2.85,1.2,44
-2.85,1.35,18
-2.85,1.5,6
-2.7,-1.5,40
-2.7,-1.35,50
-2.7,-1.2,67
-2.7,-1.05,88
-2.7,-0.9,102
-2.7,-0.75,111
-2.7,-0.6,117
-2.7,-0.45,122
-2.7,-0.3,128
-2.7,-0.15,136
-2.7,0.0,143
-2.7,0.15,145
-2.7,0.3,149
-2.7,0.45,148
-2.7,0.6,143
-2.7,0.75,133
-2.7,0.9,117
-2.7,1.05,94
-2.7,1.2,68
-2.7,1.35,41
-2.7,1.5,31
-2.55,-1.5,74
-2.55,-1.35,80
-2.55,-1.2,90
-2.55,-1.05,98
-2.55,-0.9,109
-2.55,-0.75,114
-2.55,-0.6,115
-2.55,-0.45,117
-2.55,-0.3,122
-2.55,-0.15,132
-2.55,0.0,145
-2.55,0.15,148
-2.55,0.3,154
-2.55,0.45,155
-2.55,0.6,152
-2.55,0.75,145
-2.55,0.9,133
-2.55,1.05,116
-2.55,1.2,89
-2.55,1.35,72
-2.55,1.5,62
-2.4,-1.5,97
-2.4,-1.35,100
-2.4,-1.2,105
-2.4,-1.05,110
-2.4,-0.9,115
-2.4,-0.75,113
-2.4,-0.6,107
-2.4,-0.45,102
-2.4,-0.3,108
-2.4,-0.15,126
-2.4,0.0,140
-2.4,0.15,153
-2.4,0.3,160
-2.4,0.45,163
-2.4,0.6,162
-2.4,0.75,157
-2.4,0.9,148
-2.4,1.05,126
-2.4,1.2,112
-2.4,1.35,99
-2.4,1.5,90
-2.25,-1.5,103
-2.25,-1.35,109
-2.25,-1.2,113
-2.25,-1.05,117
-2.25,-0.9,109
-2.25,-0.75,111
-2.25,-0.6,92
-2.25,-0.45,71
-2.25,-0.3,80
-2.25,-0.15,114
-2.25,0.0,140
-2.25,0.15,157
-2.25,0.3,171
-2.25,0.45,173
-2.25,0.6,174
-2.25,0.75,170
-2.25,0.9,152
-2.25,1.05,142
-2.25,1.2,131
-2.25,1.35,120
-2.25,1.5,111
-2.1,-1.5,107
-2.1,-1.35,106
-2.1,-1.2,114
-2.1,-1.05,122
-2.1,-0.9,117
-2.1,-0.75,105
-2.1,-0.6,79
-2.1,-0.45,21
-2.1,-0.3,36
-2.1,-0.15,108
-2.1,0.0,147
-2.1,0.15,168
-2.1,0.3,179
-2.1,0.45,188
-2.1,0.6,192
-2.1,0.75,175
-2.1,0.9,165
-2.1,1.05,155
-2.1,1.2,144
-2.1,1.35,134
-2.1,1.5,126
-1.95,-1.5,106
-1.95,-1.35,106
-1.95,-1.2,111
-1.95,-1.05,128
-1.95,-0.9,135
-1.95,-0.75,126
-1.95,-0.6,102
-1.95,-0.45,43
-1.95,-0.3,64
-1.95,-0.15,136
-1.95,0.0,163
-1.95,0.15,177
-1.95,0.3,189
-1.95,0.45,205
-1.95,0.6,209
-1.95,0.75,191
-1.95,0.9,176
-1.95,1.05,164
-1.95,1.2,153
-1.95,1.35,144
-1.95,1.5,136
-1.8,-1.5,106
-1.8,-1.35,110
-1.8,-1.2,117
-1.8,-1.05,136
-1.8,-0.9,147
-1.8,-0.75,155
-1.8,-0.6,156
-1.8,-0.45,154
-1.8,-0.3,168
-1.8,-0.15,187
-1.8,0.0,182
-1.8,0.15,181
-1.8,0.3,194
-1.8,0.45,242
-1.8,0.6,241
-1.8,0.75,213
-1.8,0.9,184
-1.8,1.05,169
-1.8,1.2,158
-1.8,1.35,149
-1.8,1.5,142
-1.65,-1.5,111
-1.65,-1.35,122
-1.65,-1.2,129
-1.65,-1.05,144
-1.65,-0.9,157
-1.65,-0.75,179
-1.65,-0.6,213
-1.65,-0.45,228
-1.65,-0.3,200
-1.65,-0.15,255
-1.65,0.0,195
-1.65,0.15,180
-1.65,0.3,152
-1.65,0.45,255
-1.65,0.6,255
-1.65,0.75,214
-1.65,0.9,192
-1.65,1.05,169
-1.65,1.2,158
-1.65,1.35,155
-1.65,1.5,150
-1.5,-1.5,129
-1.5,-1.35,131
-1.5,-1.2,136
-1.5,-1.05,142
-1.5,-0.9,159
-1.5,-0.75,182
-1.5,-0.6,239
-1.5,-0.45,255
-1.5,-0.3,168
-1.5,-0.15,147
-1.5,0.0,200
-1.5,0.15,192
-1.5,0.3,144
-1.5,0.45,170
-1.5,0.6,205
-1.5,0.75,195
-1.5,0.9,178
-1.5,1.05,170
-1.5,1.2,160
-1.5,1.35,154
-1.5,1.5,150
-1.35,-1.5,129
-1.35,-1.35,138
-1.35,-1.2,140
-1.35,-1.05,141
-1.35,-0.9,144
-1.35,-0.75,156
-1.35,-0.6,166
-1.35,-0.45,167
-1.35,-0.3,127
-1.35,-0.15,255
-1.35,0.0,208
-1.35,0.15,177
-1.35,0.3,144
-1.35,0.45,145
-1.35,0.6,158
-1.35,0.75,163
-1.35,0.9,162
-1.35,1.05,160
-1.35,1.2,158
-1.35,1.35,157
-1.35,1.5,150
-1.2,-1.5,132
-1.2,-1.35,136
-1.2,-1.2,136
-1.2,-1.05,131
-1.2,-0.9,134
-1.2,-0.75,120
-1.2,-0.6,89
-1.2,-0.45,48
-1.2,-0.3,90
-1.2,-0.15,142
-1.2,0.0,149
-1.2,0.15,117
-1.2,0.3,73
-1.2,0.45,96
-1.2,0.6,127
-1.2,0.75,142
-1.2,0.9,148
-1.2,1.05,151
-1.2,1.2,152
-1.2,1.35,152
-1.2,1.5,152
-1.05,-1.5,132
-1.05,-1.35,144
-1.05,-1.2,153
-1.05,-1.05,139
-1.05,-0.9,129
-1.05,-0.75,111
-1.05,-0.6,66
-1.05,-0.45,17
-1.05,-0.3,67
-1.05,-0.15,103
-1.05,0.0,91
-1.05,0.15,74
-1.05,0.3,68
-1.05,0.45,87
-1.05,0.6,115
-1.05,0.75,126
-1.05,0.9,134
-1.05,1.05,138
-1.05,1.2,141
-1.05,1.35,142
-1.05,1.5,142
-0.9,-1.5,137
-0.9,-1.35,172
-0.9,-1.2,189
-0.9,-1.05,155
-0.9,-0.9,137
-0.9,-0.75,136
-0.9,-0.6,81
-0.9,-0.45,7
-0.9,-0.3,33
-0.9,-0.15,80
-0.9,0.0,90
-0.9,0.15,82
-0.9,0.3,86
-0.9,0.45,99
-0.9,0.6,112
-0.9,0.75,122
-0.9,0.9,129
-0.9,1.05,133
-0.9,1.2,136
-0.9,1.35,138
-0.9,1.5,138
-0.75,-1.5,111
-0.75,-1.35,167
-0.75,-1.2,202
-0.75,-1.05,150
-0.75,-0.9,137
-0.75,-0.75,150
-0.75,-0.6,94
-0.75,-0.45,50
-0.75,-0.3,59
-0.75,-0.15,89
-0.75,0.0,92
-0.75,0.15,91
-0.75,0.3,96
-0.75,0.45,98
-0.75,0.6,115
-0.75,0.75,121
-0.75,0.9,126
-0.75,1.05,136
-0.75,1.2,132
-0.75,1.35,134
-0.75,1.5,135
-0.6,-1.5,68
-0.6,-1.35,95
-0.6,-1.2,134
-0.6,-1.05,124
-0.6,-0.9,112
-0.6,-0.75,106
-0.6,-0.6,82
-0.6,-0.45,67
-0.6,-0.3,88
-0.6,-0.15,111
-0.6,0.0,110
-0.6,0.15,110
-0.6,0.3,108
-0.6,0.45,106
-0.6,0.6,122
-0.6,0.75,125
-0.6,0.9,136
-0.6,1.05,129
-0.6,1.2,131
-0.6,1.35,133
-0.6,1.5,134
-0.45,-1.5,55
-0.45,-1.35,69
-0.45,-1.2,98
-0.45,-1.05,102
-0.45,-0.9,99
-0.45,-0.75,92
-0.45,-0.6,67
-0.45,-0.45,67
-0.45,-0.3,114
-0.45,-0.15,139
-0.45,0.0,112
-0.45,0.15,118
-0.45,0.3,118
-0.45,0.45,116
-0.45,0.6,120
-0.45,0.75,127
-0.45,0.9,128
-0.45,1.05,113
-0.45,1.2,113
-0.45,1.35,130
-0.45,1.5,130
-0.3,-1.5,76
-0.3,-1.35,82
-0.3,-1.2,93
-0.3,-1.05,93
-0.3,-0.9,91
-0.3,-0.75,90
-0.3,-0.6,91
-0.3,-0.45,160
-0.3,-0.3,167
-0.3,-0.15,160
-0.3,0.0,146
-0.3,0.15,125
-0.3,0.3,125
-0.3,0.45,126
-0.3,0.6,137
-0.3,0.75,135
-0.3,0.9,116
-0.3,1.05,115
-0.3,1.2,114
-0.3,1.35,113
-0.3,1.5,113
-0.15,-1.5,81
-0.15,-1.35,81
-0.15,-1.2,86
-0.15,-1.05,86
-0.15,-0.9,83
-0.15,-0.75,94
-0.15,-0.6,115
-0.15,-0.45,141
-0.15,-0.3,140
-0.15,-0.15,143
-0.15,0.0,61
-0.15,0.15,117
-0.15,0.3,131
-0.15,0.45,145
-0.15,0.6,150
-0.15,0.75,150
-0.15,0.9,148
-0.15,1.05,145
-0.15,1.2,119
-0.15,1.35,107
-0.15,1.5,106
0.0,-1.5,81
0.0,-1.35,81
0.0,-1.2,72
0.0,-1.05,72
0.0,-0.9,72
0.0,-0.75,72
0.0,-0.6,138
0.0,-0.45,116
0.0,-0.3,117
0.0,-0.15,255
0.0,0.0,158
0.0,0.15,131
0.0,0.3,142
0.0,0.45,154
0.0,0.6,157
0.0,0.75,153
0.0,0.9,148
0.0,1.05,127
0.0,1.2,108
0.0,1.35,104
0.0,1.5,104
0.15,-1.5,71
0.15,-1.35,68
0.15,-1.2,60
0.15,-1.05,60
0.15,-0.9,76
0.15,-0.75,63
0.15,-0.6,73
0.15,-0.45,106
0.15,-0.3,75
0.15,-0.15,91
0.15,0.0,123
0.15,0.15,124
0.15,0.3,153
0.15,0.45,171
0.15,0.6,168
0.15,0.75,144
0.15,0.9,130
0.15,1.05,122
0.15,1.2,107
0.15,1.35,105
0.15,1.5,104
0.3,-1.5,65
0.3,-1.35,58
0.3,-1.2,62
0.3,-1.05,69
0.3,-0.9,87
0.3,-0.75,99
0.3,-0.6,95
0.3,-0.45,109
0.3,-0.3,105
0.3,-0.15,160
0.3,0.0,91
0.3,0.15,91
0.3,0.3,208
0.3,0.45,194
0.3,0.6,162
0.3,0.75,140
0.3,0.9,122
0.3,1.05,102
0.3,1.2,99
0.3,1.35,99
0.3,1.5,95
0.45,-1.5,59
0.45,-1.35,51
0.45,-1.2,60
0.45,-1.05,84
0.45,-0.9,116
0.45,-0.75,190
0.45,-0.6,122
0.45,-0.45,85
0.45,-0.3,103
0.45,-0.15,114
0.45,0.0,127
0.45,0.15,141
0.45,0.3,255
0.45,0.45,201
0.45,0.6,159
0.45,0.75,128
0.45,0.9,98
0.45,1.05,84
0.45,1.2,90
0.45,1.35,95
0.45,1.5,99
0.6,-1.5,61
0.6,-1.35,61
0.6,-1.2,68
0.6,-1.05,86
0.6,-0.9,105
0.6,-0.75,136
0.6,-0.6,74
0.6,-0.45,15
0.6,-0.3,111
0.6,-0.15,127
0.6,0.0,120
0.6,0.15,125
0.6,0.3,165
0.6,0.45,183
0.6,0.6,144
0.6,0.75,109
0.6,0.9,64
0.6,1.05,62
0.6,1.2,80
0.6,1.35,90
0.6,1.5,95
0.75,-1.5,61
0.75,-1.35,60
0.75,-1.2,67
0.75,-1.05,80
0.75,-0.9,101
0.75,-0.75,66
0.75,-0.6,49
0.75,-0.45,33
0.75,-0.3,75
0.75,-0.15,67
0.75,0.0,104
0.75,0.15,193
0.75,0.3,128
0.75,0.45,126
0.75,0.6,106
0.75,0.75,93
0.75,0.9,68
0.75,1.05,65
0.75,1.2,80
0.75,1.35,88
0.75,1.5,84
0.9,-1.5,57
0.9,-1.35,59
0.9,-1.2,61
0.9,-1.05,63
0.9,-0.9,51
0.9,-0.75,11
0.9,-0.6,35
0.9,-0.45,11
0.9,-0.3,29
0.9,-0.15,54
0.9,0.0,40
0.9,0.15,193
0.9,0.3,89
0.9,0.45,78
0.9,0.6,85
0.9,0.75,87
0.9,0.9,79
0.9,1.05,75
0.9,1.2,78
0.9,1.35,81
0.9,1.5,83
1.05,-1.5,57
1.05,-1.35,55
1.05,-1.2,54
1.05,-1.05,49
1.05,-0.9,39
1.05,-0.75,18
1.05,-0.6,24
1.05,-0.45,18
1.05,-0.3,24
1.05,-0.15,58
1.05,0.0,93
1.05,0.15,209
1.05,0.3,114
1.05,0.45,82
1.05,0.6,57
1.05,0.75,87
1.05,0.9,87
1.05,1.05,80
1.05,1.2,76
1.05,1.35,75
1.05,1.5,66
1.2,-1.5,54
1.2,-1.35,51
1.2,-1.2,49
1.2,-1.05,46
1.2,-0.9,46
1.2,-0.75,43
1.2,-0.6,38
1.2,-0.45,39
1.2,-0.3,33
1.2,-0.15,23
1.2,0.0,48
1.2,0.15,93
1.2,0.3,78
1.2,0.45,83
1.2,0.6,23
1.2,0.75,74
1.2,0.9,87
1.2,1.05,79
1.2,1.2,68
1.2,1.35,66
1.2,1.5,65
1.35,-1.5,42
1.35,-1.35,50
1.35,-1.2,49
1.35,-1.05,48
1.35,-0.9,48
1.35,-0.75,46
1.35,-0.6,40
1.35,-0.45,71
1.35,-0.3,79
1.35,-0.15,14
1.35,0.0,22
1.35,0.15,34
1.35,0.3,0
1.35,0.45,51
1.35,0.6,53
1.35,0.75,63
1.35,0.9,64
1.35,1.05,63
1.35,1.2,61
1.35,1.35,59
1.35,1.5,58
1.5,-1.5,43
1.5,-1.35,41
1.5,-1.2,47
1.5,-1.05,49
1.5,-0.9,44
1.5,-0.75,43
1.5,-0.6,37
1.5,-0.45,54
1.5,-0.3,120
1.5,-0.15,35
1.5,0.0,34
1.5,0.15,30
1.5,0.3,50
1.5,0.45,39
1.5,0.6,48
1.5,0.75,54
1.5,0.9,57
1.5,1.05,58
1.5,1.2,57
1.5,1.35,57
1.5,1.5,56
1.65,-1.5,35
1.65,-1.35,36
1.65,-1.2,37
1.65,-1.05,37
1.65,-0.9,36
1.65,-0.75,37
1.65,-0.6,45
1.65,-0.45,46
1.65,-0.3,54
1.65,-0.15,41
1.65,0.0,40
1.65,0.15,35
1.65,0.3,42
1.65,0.45,49
1.65,0.6,45
1.65,0.75,50
1.65,0.9,50
1.65,1.05,50
1.65,1.2,53
1.65,1.35,54
1.65,1.5,54
1.8,-1.5,35
1.8,-1.35,35
1.8,-1.2,33
1.8,-1.05,29
1.8,-0.9,20
1.8,-0.75,4
1.8,-0.6,27
1.8,-0.45,39
1.8,-0.3,40
1.8,-0.15,14
1.8,0.0,44
1.8,0.15,35
1.8,0.3,47
1.8,0.45,52
1.8,0.6,48
1.8,0.75,42
1.8,0.9,44
1.8,1.05,45
1.8,1.2,46
1.8,1.35,48
1.8,1.5,45
1.95,-1.5,41
1.95,-1.35,38
1.95,-1.2,35
1.95,-1.05,30
1.95,-0.9,18
1.95,-0.75,10
1.95,-0.6,15
1.95,-0.45,15
1.95,-0.3,47
1.95,-0.15,49
1.95,0.0,47
1.95,0.15,44
1.95,0.3,53
1.95,0.45,87
1.95,0.6,55
1.95,0.75,34
1.95,0.9,29
1.95,1.05,38
1.95,1.2,39
1.95,1.35,41
1.95,1.5,45
2.1,-1.5,40
2.1,-1.35,42
2.1,-1.2,43
2.1,-1.05,40
2.1,-0.9,23
2.1,-0.75,13
2.1,-0.6,21
2.1,-0.45,21
2.1,-0.3,116
2.1,-0.15,65
2.1,0.0,47
2.1,0.15,41
2.1,0.3,53
2.1,0.45,70
2.1,0.6,43
2.1,0.75,2
2.1,0.9,21
2.1,1.05,38
2.1,1.2,44
2.1,1.35,45
2.1,1.5,50
2.25,-1.5,49
2.25,-1.35,50
2.25,-1.2,51
2.25,-1.05,52
2.25,-0.9,37
2.25,-0.75,1
2.25,-0.6,25
2.25,-0.45,57
2.25,-0.3,103
2.25,-0.15,65
2.25,0.0,38
2.25,0.15,46
2.25,0.3,53
2.25,0.45,64
2.25,0.6,52
2.25,0.75,20
2.25,0.9,26
2.25,1.05,44
2.25,1.2,50
2.25,1.35,69
2.25,1.5,74
2.4,-1.5,58
2.4,-1.35,59
2.4,-1.2,62
2.4,-1.05,84
2.4,-0.9,75
2.4,-0.75,25
2.4,-0.6,44
2.4,-0.45,55
2.4,-0.3,71
2.4,-0.15,70
2.4,0.0,0
2.4,0.15,45
2.4,0.3,68
2.4,0.45,64
2.4,0.6,64
2.4,0.75,54
2.4,0.9,52
2.4,1.05,50
2.4,1.2,68
2.4,1.35,75
2.4,1.5,79
2.55,-1.5,63
2.55,-1.35,66
2.55,-1.2,68
2.55,-1.05,68
2.55,-0.9,57
2.55,-0.75,10
2.55,-0.6,62
2.55,-0.45,93
2.55,-0.3,111
2.55,-0.15,55
2.55,0.0,92
2.55,0.15,97
2.55,0.3,132
2.55,0.45,72
2.55,0.6,67
2.55,0.75,61
2.55,0.9,54
2.55,1.05,64
2.55,1.2,61
2.55,1.35,74
2.55,1.5,87
2.7,-1.5,63
2.7,-1.35,64
2.7,-1.2,67
2.7,-1.05,66
2.7,-0.9,54
2.7,-0.75,76
2.7,-0.6,172
2.7,-0.45,127
2.7,-0.3,164
2.7,-0.15,159
2.7,0.0,130
2.7,0.15,69
2.7,0.3,58
2.7,0.45,77
2.7,0.6,74
2.7,0.75,69
2.7,0.9,60
2.7,1.05,59
2.7,1.2,66
2.7,1.35,83
2.7,1.5,91
2.85,-1.5,64
2.85,-1.35,64
2.85,-1.2,65
2.85,-1.05,70
2.85,-0.9,86
2.85,-0.75,113
2.85,-0.6,115
2.85,-0.45,129
2.85,-0.3,94
2.85,-0.15,102
2.85,0.0,89
2.85,0.15,61
2.85,0.3,58
2.85,0.45,94
2.85,0.6,56
2.85,0.75,73
2.85,0.9,54
2.85,1.05,24
2.85,1.2,63
2.85,1.35,86
2.85,1.5,93
3.0,-1.5,63
3.0,-1.35,54
3.0,-1.2,47
3.0,-1.05,43
3.0,-0.9,113
3.0,-0.75,161
3.0,-0.6,32
3.0,-0.45,102
3.0,-0.3,95
3.0,-0.15,57
3.0,0.0,57
3.0,0.15,58
3.0,0.3,112
3.0,0.45,84
3.0,0.6,96
3.0,0.75,99
3.0,0.9,75
3.0,1.05,31
3.0,1.2,77
3.0,1.35,95
3.0,1.5,101
3.15,-1.5,49
3.15,-1.35,48
3.15,-1.2,35
3.15,-1.05,2
3.15,-0.9,61
3.15,-0.75,64
3.15,-0.6,35
3.15,-0.45,32
3.15,-0.3,47
3.15,-0.15,42
3.15,0.0,41
3.15,0.15,28
3.15,0.3,81
3.15,0.45,138
3.15,0.6,109
3.15,0.75,113
3.15,0.9,156
3.15,1.05,145
3.15,1.2,119
3.15,1.35,113
3.15,1.5,110
3.3,-1.5,56
3.3,-1.35,51
3.3,-1.2,34
3.3,-1.05,27
3.3,-0.9,12
3.3,-0.75,64
3.3,-0.6,53
3.3,-0.45,54
3.3,-0.3,22
3.3,-0.15,10
3.3,0.0,22
3.3,0.15,67
3.3,0.3,69
3.3,0.45,92
3.3,0.6,114
3.3,0.75,104
3.3,0.9,238
3.3,1.05,202
3.3,1.2,151
3.3,1.35,123
3.3,1.5,114
3.45,-1.5,62
3.45,-1.35,59
3.45,-1.2,60
3.45,-1.05,51
3.45,-0.9,46
3.45,-0.75,63
3.45,-0.6,62
3.45,-0.45,60
3.45,-0.3,30
3.45,-0.15,50
3.45,0.0,36
3.45,0.15,38
3.45,0.3,49
3.45,0.45,3
3.45,0.6,77
3.45,0.75,122
3.45,0.9,167
3.45,1.05,167
3.45,1.2,151
3.45,1.35,138
3.45,1.5,119
3.6,-1.5,79
3.6,-1.35,79
3.6,-1.2,72
3.6,-1.05,67
3.6,-0.9,71
3.6,-0.75,71
3.6,-0.6,10
3.6,-0.45,72
3.6,-0.3,40
3.6,-0.15,24
3.6,0.0,19
3.6,0.15,86
3.6,0.3,39
3.6,0.45,207
3.6,0.6,96
3.6,0.75,51
3.6,0.9,180
3.6,1.05,150
3.6,1.2,136
3.6,1.35,129
3.6,1.5,119
3.75,-1.5,76
3.75,-1.35,76
3.75,-1.2,79
3.75,-1.05,95
3.75,-0.9,112
3.75,-0.75,189
3.75,-0.6,208
3.75,-0.45,65
3.75,-0.3,52
3.75,-0.15,46
3.75,0.0,52
3.75,0.15,46
3.75,0.3,54
3.75,0.45,94
3.75,0.6,103
3.75,0.75,52
3.75,0.9,108
3.75,1.05,126
3.75,1.2,126
3.75,1.35,126
3.75,1.5,125
3.9,-1.5,83
3.9,-1.35,95
3.9,-1.2,99
3.9,-1.05,99
3.9,-0.9,115
3.9,-0.75,139
3.9,-0.6,123
3.9,-0.45,169
3.9,-0.3,71
3.9,-0.15,81
3.9,0.0,46
3.9,0.15,100
3.9,0.3,133
3.9,0.45,118
3.9,0.6,101
3.9,0.75,97
3.9,0.9,92
3.9,1.05,111
3.9,1.2,123
3.9,1.35,123
3.9,1.5,108
4.05,-1.5,83
4.05,-1.35,98
4.05,-1.2,101
4.05,-1.05,106
4.05,-0.9,104
4.05,-0.75,92
4.05,-0.6,53
4.05,-0.45,54
4.05,-0.3,82
4.05,-0.15,109
4.05,0.0,65
4.05,0.15,67
4.05,0.3,115
4.05,0.45,185
4.05,0.6,106
4.05,0.75,86
4.05,0.9,61
4.05,1.05,75
4.05,1.2,96
4.05,1.35,92
4.05,1.5,95
4.2,-1.5,102
4.2,-1.35,102
4.2,-1.2,101
4.2,-1.05,99
4.2,-0.9,92
4.2,-0.75,71
4.2,-0.6,70
4.2,-0.45,108
4.2,-0.3,63
4.2,-0.15,66
4.2,0.0,100
4.2,0.15,182
4.2,0.3,203
4.2,0.45,14
4.2,0.6,100
4.2,0.75,93
4.2,0.9,69
4.2,1.05,73
4.2,1.2,76
4.2,1.35,77
4.2,1.5,91
4.35,-1.5,116
4.35,-1.35,113
4.35,-1.2,105
4.35,-1.05,104
4.35,-0.9,99
4.35,-0.75,80
4.35,-0.6,61
4.35,-0.45,50
4.35,-0.3,188
4.35,-0.15,70
4.35,0.0,28
4.35,0.15,35
4.35,0.3,230
4.35,0.45,152
4.35,0.6,99
4.35,0.75,83
4.35,0.9,63
4.35,1.05,59
4.35,1.2,58
4.35,1.35,70
4.35,1.5,58
4.5,-1.5,105
4.5,-1.35,104
4.5,-1.2,103
4.5,-1.05,102
4.5,-0.9,94
4.5,-0.75,71
4.5,-0.6,98
4.5,-0.45,99
4.5,-0.3,123
4.5,-0.15,87
4.5,0.0,177
4.5,0.15,0
4.5,0.3,106
4.5,0.45,94
4.5,0.6,73
4.5,0.75,87
4.5,0.9,54
4.5,1.05,41
4.5,1.2,45
4.5,1.35,52
4.5,1.5,50
4.65,-1.5,104
4.65,-1.35,101
4.65,-1.2,101
4.65,-1.05,101
4.65,-0.9,98
4.65,-0.75,94
4.65,-0.6,114
4.65,-0.45,147
4.65,-0.3,110
4.65,-0.15,24
4.65,0.0,34
4.65,0.15,182
4.65,0.3,58
4.65,0.45,0
4.65,0.6,58
4.65,0.75,70
4.65,0.9,39
4.65,1.05,38
4.65,1.2,40
4.65,1.35,38
4.65,1.5,41
4.8,-1.5,97
4.8,-1.35,98
4.8,-1.2,114
4.8,-1.05,114
4.8,-0.9,119
4.8,-0.75,128
4.8,-0.6,193
4.8,-0.45,193
4.8,-0.3,93
4.8,-0.15,24
4.8,0.0,127
4.8,0.15,64
4.8,0.3,123
4.8,0.45,144
4.8,0.6,70
4.8,0.75,53
4.8,0.9,0
4.8,1.05,22
4.8,1.2,35
4.8,1.35,41
4.8,1.5,41
4.95,-1.5,88
4.95,-1.35,88
4.95,-1.2,101
4.95,-1.05,101
4.95,-0.9,98
4.95,-0.75,97
4.95,-0.6,78
4.95,-0.45,9
4.95,-0.3,74
4.95,-0.15,22
4.95,0.0,79
4.95,0.15,104
4.95,0.3,165
4.95,0.45,142
4.95,0.6,2
4.95,0.75,58
4.95,0.9,32
4.95,1.05,27
4.95,1.2,34
4.95,1.35,39
4.95,1.5,38
5.1,-1.5,105
5.1,-1.35,88
5.1,-1.2,79
5.1,-1.05,77
5.1,-0.9,85
5.1,-0.75,64
5.1,-0.6,44
5.1,-0.45,20
5.1,-0.3,53
5.1,-0.15,211
5.1,0.0,120
5.1,0.15,24
5.1,0.3,94
5.1,0.45,112
5.1,0.6,66
5.1,0.75,62
5.1,0.9,61
5.1,1.05,61
5.1,1.2,61
5.1,1.35,38
5.1,1.5,39
5.25,-1.5,67
5.25,-1.35,55
5.25,-1.2,72
5.25,-1.05,53
5.25,-0.9,41
5.25,-0.75,61
5.25,-0.6,51
5.25,-0.45,54
5.25,-0.3,74
5.25,-0.15,21
5.25,0.0,102
5.25,0.15,120
5.25,0.3,33
5.25,0.45,76
5.25,0.6,65
5.25,0.75,62
5.25,0.9,56
5.25,1.05,55
5.25,1.2,61
5.25,1.35,49
5.25,1.5,49
5.4,-1.5,77
5.4,-1.35,74
5.4,-1.2,74
5.4,-1.05,76
5.4,-0.9,74
5.4,-0.75,73
5.4,-0.6,82
5.4,-0.45,35
5.4,-0.3,242
5.4,-0.15,241
5.4,0.0,122
5.4,0.15,111
5.4,0.3,94
5.4,0.45,33
5.4,0.6,33
5.4,0.75,52
5.4,0.9,52
5.4,1.05,54
5.4,1.2,54
5.4,1.35,46
5.4,1.5,46
5.55,-1.5,90
5.55,-1.35,87
5.55,-1.2,87
5.55,-1.05,90
5.55,-0.9,87
5.55,-0.75,83
5.55,-0.6,81
5.55,-0.45,87
5.55,-0.3,74
5.55,-0.15,75
5.55,0.0,53
5.55,0.15,86
5.55,0.3,88
5.55,0.45,70
5.55,0.6,60
5.55,0.75,55
5.55,0.9,55
5.55,1.05,55
5.55,1.2,46
5.55,1.35,45
5.55,1.5,48
5.7,-1.5,103
5.7,-1.35,103
5.7,-1.2,103
5.7,-1.05,99
5.7,-0.9,86
5.7,-0.75,93
5.7,-0.6,69
5.7,-0.45,49
5.7,-0.3,57
5.7,-0.15,51
5.7,0.0,35
5.7,0.15,54
5.7,0.3,42
5.7,0.45,35
5.7,0.6,52
5.7,0.75,51
5.7,0.9,51
5.7,1.05,51
5.7,1.2,52
5.7,1.35,52
5.7,1.5,37
5.85,-1.5,105
5.85,-1.35,105
5.85,-1.2,113
5.85,-1.05,113
5.85,-0.9,113
5.85,-0.75,182
5.85,-0.6,191
5.85,-0.45,152
5.85,-0.3,82
5.85,-0.15,30
5.85,0.0,92
5.85,0.15,159
5.85,0.3,97
5.85,0.45,73
5.85,0.6,59
5.85,0.75,56
5.85,0.9,51
5.85,1.05,52
5.85,1.2,53
5.85,1.35,56
5.85,1.5,57
6.0,-1.5,91
6.0,-1.35,109
6.0,-1.2,109
6.0,-1.05,107
6.0,-0.9,108
6.0,-0.75,104
6.0,-0.6,138
6.0,-0.45,59
6.0,-0.3,110
6.0,-0.15,136
6.0,0.0,10
6.0,0.15,85
6.0,0.3,142
6.0,0.45,77
6.0,0.6,58
6.0,0.75,54
6.0,0.9,52
6.0,1.05,53
6.0,1.2,56
6.0,1.35,57
6.0,1.5,56
6.15,-1.5,86
6.15,-1.35,86
6.15,-1.2,96
6.15,-1.05,92
6.15,-0.9,90
6.15,-0.75,87
6.15,-0.6,99
6.15,-0.45,138
6.15,-0.3,59
6.15,-0.15,180
6.15,0.0,51
6.15,0.15,56
6.15,0.3,29
6.15,0.45,33
6.15,0.6,48
6.15,0.75,51
6.15,0.9,52
6.15,1.05,53
6.15,1.2,62
6.15,1.35,65
6.15,1.5,56
6.3,-1.5,69
6.3,-1.35,68
6.3,-1.2,68
6.3,-1.05,74
6.3,-0.9,65
6.3,-0.75,51
6.3,-0.6,77
6.3,-0.45,51
6.3,-0.3,52
6.3,-0.15,112
6.3,0.0,5
6.3,0.15,56
6.3,0.3,83
6.3,0.45,41
6.3,0.6,60
6.3,0.75,51
6.3,0.9,61
6.3,1.05,65
6.3,1.2,64
6.3,1.35,65
6.3,1.5,72
6.45,-1.5,66
6.45,-1.35,55
6.45,-1.2,58
6.45,-1.05,62
6.45,-0.9,60
6.45,-0.75,61
6.45,-0.6,51
6.45,-0.45,85
6.45,-0.3,16
6.45,-0.15,71
6.45,0.0,46
6.45,0.15,71
6.45,0.3,99
6.45,0.45,83
6.45,0.6,77
6.45,0.75,73
6.45,0.9,68
6.45,1.05,73
6.45,1.2,75
6.45,1.35,75
6.45,1.5,75
6.6,-1.5,50
6.6,-1.35,50
6.6,-1.2,57
6.6,-1.05,55
6.6,-0.9,52
6.6,-0.75,56
6.6,-0.6,28
6.6,-0.45,60
6.6,-0.3,42
6.6,-0.15,35
6.6,0.0,19
6.6,0.15,9
6.6,0.3,97
6.6,0.45,110
6.6,0.6,81
6.6,0.75,72
6.6,0.9,56
6.6,1.05,77
6.6,1.2,77
6.6,1.35,68
6.6,1.5,67
6.75,-1.5,50
6.75,-1.35,49
6.75,-1.2,49
6.75,-1.05,49
6.75,-0.9,49
6.75,-0.75,46
6.75,-0.6,51
6.75,-0.45,59
6.75,-0.3,80
6.75,-0.15,131
6.75,0.0,47
6.75,0.15,30
6.75,0.3,38
6.75,0.45,32
6.75,0.6,40
6.75,0.75,100
6.75,0.9,115
6.75,1.05,76
6.75,1.2,65
6.75,1.35,59
6.75,1.5,60
6.9,-1.5,48
6.9,-1.35,47
6.9,-1.2,46
6.9,-1.05,48
6.9,-0.9,42
6.9,-0.75,49
6.9,-0.6,53
6.9,-0.45,87
6.9,-0.3,87
6.9,-0.15,98
6.9,0.0,198
6.9,0.15,37
6.9,0.3,11
6.9,0.45,28
6.9,0.6,62
6.9,0.75,59
6.9,0.9,92
6.9,1.05,74
6.9,1.2,65
6.9,1.35,58
6.9,1.5,57
7.05,-1.5,51
7.05,-1.35,49
7.05,-1.2,46
7.05,-1.05,44
7.05,-0.9,27
7.05,-0.75,18
7.05,-0.6,58
7.05,-0.45,86
7.05,-0.3,174
7.05,-0.15,86
7.05,0.0,51
7.05,0.15,120
7.05,0.3,58
7.05,0.45,165
7.05,0.6,4
7.05,0.75,44
7.05,0.9,63
7.05,1.05,61
7.05,1.2,60
7.05,1.35,59
7.05,1.5,57
7.2,-1.5,58
7.2,-1.35,51
7.2,-1.2,45
7.2,-1.05,40
7.2,-0.9,29
7.2,-0.75,11
7.2,-0.6,51
7.2,-0.45,4
7.2,-0.3,87
7.2,-0.15,41
7.2,0.0,133
7.2,0.15,70
7.2,0.3,61
7.2,0.45,74
7.2,0.6,94
7.2,0.75,51
7.2,0.9,44
7.2,1.05,44
7.2,1.2,46
7.2,1.35,47
7.2,1.5,50
7.35,-1.5,64
7.35,-1.35,61
7.35,-1.2,56
7.35,-1.05,55
7.35,-0.9,43
7.35,-0.75,18
7.35,-0.6,20
7.35,-0.45,27
7.35,-0.3,51
7.35,-0.15,50
7.35,0.0,157
7.35,0.15,37
7.35,0.3,47
7.35,0.45,87
7.35,0.6,55
7.35,0.75,60
7.35,0.9,62
7.35,1.05,77
7.35,1.2,61
7.35,1.35,62
7.35,1.5,56
7.5,-1.5,67
7.5,-1.35,69
7.5,-1.2,75
7.5,-1.05,83
7.5,-0.9,82
7.5,-0.75,52
7.5,-0.6,50
7.5,-0.45,51
7.5,-0.3,77
7.5,-0.15,91
7.5,0.0,45
7.5,0.15,100
7.5,0.3,37
7.5,0.45,0
7.5,0.6,9
7.5,0.75,41
7.5,0.9,49
7.5,1.05,50
7.5,1.2,50
7.5,1.35,61
7.5,1.5,62
7.65,-1.5,72
7.65,-1.35,75
7.65,-1.2,83
7.65,-1.05,113
7.65,-0.9,208
7.65,-0.75,87
7.65,-0.6,71
7.65,-0.45,160
7.65,-0.3,151
7.65,-0.15,101
7.65,0.0,26
7.65,0.15,17
7.65,0.3,134
7.65,0.45,93
7.65,0.6,124
7.65,0.75,68
7.65,0.9,64
7.65,1.05,62
7.65,1.2,66
7.65,1.35,67
7.65,1.5,67
7.8,-1.5,91
7.8,-1.35,91
7.8,-1.2,92
7.8,-1.05,90
7.8,-0.9,87
7.8,-0.75,85
7.8,-0.6,57
7.8,-0.45,133
7.8,-0.3,138
7.8,-0.15,83
7.8,0.0,101
7.8,0.15,17
7.8,0.3,17
7.8,0.45,65
7.8,0.6,39
7.8,0.75,83
7.8,0.9,74
7.8,1.05,73
7.8,1.2,69
7.8,1.35,69
7.8,1.5,68
7.95,-1.5,96
7.95,-1.35,96
7.95,-1.2,92
7.95,-1.05,82
7.95,-0.9,60
7.95,-0.75,60
7.95,-0.6,56
7.95,-0.45,44
7.95,-0.3,98
7.95,-0.15,50
7.95,0.0,0
7.95,0.15,53
7.95,0.3,42
7.95,0.45,39
7.95,0.6,206
7.95,0.75,75
7.95,0.9,71
7.95,1.05,70
7.95,1.2,69
7.95,1.35,69
7.95,1.5,77
8.1,-1.5,101
8.1,-1.35,103
8.1,-1.2,93
8.1,-1.05,84
8.1,-0.9,73
8.1,-0.75,78
8.1,-0.6,62
8.1,-0.45,57
8.1,-0.3,63
8.1,-0.15,104
8.1,0.0,69
8.1,0.15,62
8.1,0.3,41
8.1,0.45,13
8.1,0.6,92
8.1,0.75,53
8.1,0.9,64
8.1,1.05,55
8.1,1.2,68
8.1,1.35,68
8.1,1.5,68
8.25,-1.5,97
8.25,-1.35,98
8.25,-1.2,89
8.25,-1.05,73
8.25,-0.9,78
8.25,-0.75,95
8.25,-0.6,159
8.25,-0.45,26
8.25,-0.3,59
8.25,-0.15,71
8.25,0.0,136
8.25,0.15,31
8.25,0.3,31
8.25,0.45,51
8.25,0.6,40
8.25,0.75,52
8.25,0.9,55
8.25,1.05,56
8.25,1.2,60
8.25,1.35,61
8.25,1.5,61
8.4,-1.5,89
8.4,-1.35,87
8.4,-1.2,73
8.4,-1.05,69
8.4,-0.9,67
8.4,-0.75,70
8.4,-0.6,65
8.4,-0.45,55
8.4,-0.3,40
8.4,-0.15,77
8.4,0.0,99
8.4,0.15,101
8.4,0.3,111
8.4,0.45,255
8.4,0.6,88
8.4,0.75,82
8.4,0.9,67
8.4,1.05,66
8.4,1.2,61
8.4,1.35,61
8.4,1.5,77
8.55,-1.5,74
8.55,-1.35,69
8.55,-1.2,64
8.55,-1.05,56
8.55,-0.9,47
8.55,-0.75,32
8.55,-0.6,11
8.55,-0.45,38
8.55,-0.3,51
8.55,-0.15,61
8.55,0.0,149
8.55,0.15,76
8.55,0.3,105
8.55,0.45,17
8.55,0.6,70
8.55,0.75,71
8.55,0.9,69
8.55,1.05,67
8.55,1.2,61
8.55,1.35,62
8.55,1.5,61
8.7,-1.5,67
8.7,-1.35,61
8.7,-1.2,53
8.7,-1.05,50
8.7,-0.9,43
8.7,-0.75,30
8.7,-0.6,30
8.7,-0.45,28
8.7,-0.3,80
8.7,-0.15,89
8.7,0.0,49
8.7,0.15,31
8.7,0.3,98
8.7,0.45,50
8.7,0.6,50
8.7,0.75,60
8.7,0.9,60
8.7,1.05,66
8.7,1.2,66
8.7,1.35,61
8.7,1.5,61
8.85,-1.5,65
8.85,-1.35,48
8.85,-1.2,45
8.85,-1.05,43
8.85,-0.9,42
8.85,-0.75,36
8.85,-0.6,28
8.85,-0.45,34
8.85,-0.3,83
8.85,-0.15,48
8.85,0.0,40
8.85,0.15,9
8.85,0.3,66
8.85,0.45,47
8.85,0.6,55
8.85,0.75,63
8.85,0.9,67
8.85,1.05,75
8.85,1.2,76
8.85,1.35,76
8.85,1.5,77
9.0,-1.5,52
9.0,-1.35,51
9.0,-1.2,51
9.0,-1.05,52
9.0,-0.9,59
9.0,-0.75,55
9.0,-0.6,48
9.0,-0.45,56
9.0,-0.3,63
9.0,-0.15,33
9.0,0.0,21
9.0,0.15,17
9.0,0.3,19
9.0,0.45,104
9.0,0.6,70
9.0,0.75,55
9.0,0.9,52
9.0,1.05,53
9.0,1.2,60
9.0,1.35,64
9.0,1.5,75
9.15,-1.5,52
9.15,-1.35,51
9.15,-1.2,51
9.15,-1.05,55
9.15,-0.9,67
9.15,-0.75,84
9.15,-0.6,78
9.15,-0.45,49
9.15,-0.3,43
9.15,-0.15,53
9.15,0.0,50
9.15,0.15,51
9.15,0.3,6
9.15,0.45,15
9.15,0.6,41
9.15,0.75,48
9.15,0.9,52
9.15,1.05,55
9.15,1.2,52
9.15,1.35,52
9.15,1.5,52
9.3,-1.5,51
9.3,-1.35,51
9.3,-1.2,54
9.3,-1.05,57
9.3,-0.9,58
9.3,-0.75,99
9.3,-0.6,124
9.3,-0.45,34
9.3,-0.3,37
9.3,-0.15,52
9.3,0.0,52
9.3,0.15,68
9.3,0.3,76
9.3,0.45,47
9.3,0.6,34
9.3,0.75,37
9.3,0.9,51
9.3,1.05,52
9.3,1.2,53
9.3,1.35,53
9.3,1.5,53
9.45,-1.5,51
9.45,-1.35,51
9.45,-1.2,54
9.45,-1.05,55
9.45,-0.9,56
9.45,-0.75,63
9.45,-0.6,70
9.45,-0.45,66
9.45,-0.3,100
9.45,-0.15,120
9.45,0.0,80
9.45,0.15,70
9.45,0.3,126
9.45,0.45,50
9.45,0.6,47
9.45,0.75,42
9.45,0.9,41
9.45,1.05,49
9.45,1.2,50
9.45,1.35,51
9.45,1.5,51
9.6,-1.5,51
9.6,-1.35,51
9.6,-1.2,51
9.6,-1.05,56
9.6,-0.9,56
9.6,-0.75,44
9.6,-0.6,6
9.6,-0.45,62
9.6,-0.3,108
9.6,-0.15,255
9.6,0.0,124
9.6,0.15,52
9.6,0.3,65
9.6,0.45,38
9.6,0.6,49
9.6,0.75,51
9.6,0.9,51
9.6,1.05,52
9.6,1.2,49
9.6,1.35,49
9.6,1.5,49
9.75,-1.5,60
9.75,-1.35,58
9.75,-1.2,56
9.75,-1.05,53
9.75,-0.9,50
9.75,-0.75,35
9.75,-0.6,23
9.75,-0.45,58
9.75,-0.3,107
9.75,-0.15,119
9.75,0.0,94
9.75,0.15,102
9.75,0.3,255
9.75,0.45,87
9.75,0.6,80
9.75,0.75,70
9.75,0.9,53
9.75,1.05,52
9.75,1.2,50
9.75,1.35,49
9.75,1.5,49
9.9,-1.5,60
9.9,-1.35,58
9.9,-1.2,56
9.9,-1.05,52
9.9,-0.9,43
9.9,-0.75,32
9.9,-0.6,6
9.9,-0.45,52
9.9,-0.3,88
9.9,-0.15,83
9.9,0.0,180
9.9,0.15,19
9.9,0.3,228
9.9,0.45,10
9.9,0.6,138
9.9,0.75,93
9.9,0.9,89
9.9,1.05,61
9.9,1.2,60
9.9,1.35,60
9.9,1.5,60
10.05,-1.5,70
10.05,-1.35,70
10.05,-1.2,67
10.05,-1.05,58
10.05,-0.9,52
10.05,-0.75,32
10.05,-0.6,26
10.05,-0.45,59
10.05,-0.3,69
10.05,-0.15,86
10.05,0.0,82
10.05,0.15,72
10.05,0.3,50
10.05,0.45,68
10.05,0.6,40
10.05,0.75,62
10.05,0.9,69
10.05,1.05,69
10.05,1.2,68
10.05,1.35,68
10.05,1.5,68
10.2,-1.5,76
10.2,-1.35,74
10.2,-1.2,72
10.2,-1.05,69
10.2,-0.9,65
10.2,-0.75,60
10.2,-0.6,63
10.2,-0.45,62
10.2,-0.3,79
10.2,-0.15,87
10.2,0.0,78
10.2,0.15,109
10.2,0.3,89
10.2,0.45,89
10.2,0.6,54
10.2,0.75,70
10.2,0.9,68
10.2,1.05,69
10.2,1.2,69
10.2,1.35,69
10.2,1.5,69
10.35,-1.5,89
10.35,-1.35,88
10.35,-1.2,86
10.35,-1.05,85
10.35,-0.9,84
10.35,-0.75,76
10.35,-0.6,60
10.35,-0.45,84
10.35,-0.3,83
10.35,-0.15,87
10.35,0.0,83
10.35,0.15,72
10.35,0.3,87
10.35,0.45,129
10.35,0.6,98
10.35,0.75,87
10.35,0.9,82
10.35,1.05,82
10.35,1.2,82
10.35,1.35,73
10.35,1.5,73
10.5,-1.5,97
10.5,-1.35,97
10.5,-1.2,99
10.5,-1.05,97
10.5,-0.9,92
10.5,-0.75,90
10.5,-0.6,121
10.5,-0.45,162
10.5,-0.3,89
10.5,-0.15,71
10.5,0.0,49
10.5,0.15,56
10.5,0.3,118
10.5,0.45,84
10.5,0.6,94
10.5,0.75,86
10.5,0.9,65
10.5,1.05,64
10.5,1.2,63
10.5,1.35,63
10.5,1.5,59
10.65,-1.5,103
10.65,-1.35,108
10.65,-1.2,112
10.65,-1.05,111
10.65,-0.9,100
10.65,-0.75,71
10.65,-0.6,65
10.65,-0.45,103
10.65,-0.3,74
10.65,-0.15,55
10.65,0.0,47
10.65,0.15,32
10.65,0.3,139
10.65,0.45,78
10.65,0.6,81
10.65,0.75,92
10.65,0.9,96
10.65,1.05,78
10.65,1.2,79
10.65,1.35,99
10.65,1.5,101
10.8,-1.5,113
10.8,-1.35,117
10.8,-1.2,125
10.8,-1.05,128
10.8,-0.9,125
10.8,-0.75,103
10.8,-0.6,91
10.8,-0.45,85
10.8,-0.3,71
10.8,-0.15,50
10.8,0.0,40
10.8,0.15,78
10.8,0.3,125
10.8,0.45,70
10.8,0.6,77
10.8,0.75,102
10.8,0.9,98
10.8,1.05,103
10.8,1.2,105
10.8,1.35,107
10.8,1.5,108
10.95,-1.5,123
10.95,-1.35,130
10.95,-1.2,139
10.95,-1.05,153
10.95,-0.9,172
10.95,-0.75,171
10.95,-0.6,127
10.95,-0.45,51
10.95,-0.3,67
10.95,-0.15,53
10.95,0.0,49
10.95,0.15,40
10.95,0.3,72
10.95,0.45,83
10.95,0.6,55
10.95,0.75,108
10.95,0.9,118
10.95,1.05,119
10.95,1.2,119
10.95,1.35,119
10.95,1.5,119
11.1,-1.5,125
11.1,-1.35,133
11.1,-1.2,143
11.1,-1.05,168
11.1,-0.9,200
11.1,-0.75,212
11.1,-0.6,255
11.1,-0.45,142
11.1,-0.3,94
11.1,-0.15,69
11.1,0.0,52
11.1,0.15,40
11.1,0.3,63
11.1,0.45,101
11.1,0.6,143
11.1,0.75,128
11.1,0.9,119
11.1,1.05,104
11.1,1.2,100
11.1,1.35,99
11.1,1.5,99
11.25,-1.5,121
11.25,-1.35,129
11.25,-1.2,145
11.25,-1.05,163
11.25,-0.9,186
11.25,-0.75,217
11.25,-0.6,255
11.25,-0.45,174
11.25,-0.3,116
11.25,-0.15,78
11.25,0.0,55
11.25,0.15,74
11.25,0.3,72
11.25,0.45,182
11.25,0.6,207
11.25,0.75,154
11.25,0.9,133
11.25,1.05,106
11.25,1.2,106
11.25,1.35,99
11.25,1.5,99
11.4,-1.5,118
11.4,-1.35,124
11.4,-1.2,132
11.4,-1.05,143
11.4,-0.9,153
11.4,-0.75,166
11.4,-0.6,159
11.4,-0.45,129
11.4,-0.3,93
11.4,-0.15,78
11.4,0.0,60
11.4,0.15,79
11.4,0.3,79
11.4,0.45,118
11.4,0.6,130
11.4,0.75,116
11.4,0.9,109
11.4,1.05,101
11.4,1.2,100
11.4,1.35,97
11.4,1.5,94
11.55,-1.5,111
11.55,-1.35,112
11.55,-1.2,119
11.55,-1.05,118
11.55,-0.9,110
11.55,-0.75,92
11.55,-0.6,77
11.55,-0.45,80
11.55,-0.3,76
11.55,-0.15,59
11.55,0.0,53
11.55,0.15,44
11.55,0.3,51
11.55,0.45,48
11.55,0.6,66
11.55,0.75,82
11.55,0.9,86
11.55,1.05,87
11.55,1.2,83
11.55,1.35,82
11.55,1.5,78
11.7,-1.5,100
11.7,-1.35,101
11.7,-1.2,99
11.7,-1.05,90
11.7,-0.9,70
11.7,-0.75,32
11.7,-0.6,4
11.7,-0.45,38
11.7,-0.3,51
11.7,-0.15,39
11.7,0.0,33
11.7,0.15,12
11.7,0.3,31
11.7,0.45,9
11.7,0.6,15
11.7,0.75,28
11.7,0.9,42
11.7,1.05,46
11.7,1.2,49
11.7,1.35,69
11.7,1.5,71
11.85,-1.5,93
11.85,-1.35,83
11.85,-1.2,80
11.85,-1.05,72
11.85,-0.9,57
11.85,-0.75,29
11.85,-0.6,10
11.85,-0.45,27
11.85,-0.3,19
11.85,-0.15,21
11.85,0.0,18
11.85,0.15,15
11.85,0.3,12
11.85,0.45,9
11.85,0.6,11
11.85,0.75,16
11.85,0.9,19
11.85,1.05,28
11.85,1.2,30
11.85,1.35,32
11.85,1.5,33
12.0,-1.5,74
12.0,-1.35,73
12.0,-1.2,71
12.0,-1.05,62
12.0,-0.9,49
12.0,-0.75,37
12.0,-0.6,29
12.0,-0.45,26
12.0,-0.3,19
12.0,-0.15,19
12.0,0.0,17
12.0,0.15,18
12.0,0.3,8
12.0,0.45,0
12.0,0.6,35
12.0,0.75,21
12.0,0.9,18
12.0,1.05,18
12.0,1.2,18
12.0,1.35,18
12.0,1.5,18
12.15,-1.5,62
12.15,-1.35,62
12.15,-1.2,58
12.15,-1.05,54
12.15,-0.9,48
12.15,-0.75,42
12.15,-0.6,39
12.15,-0.45,29
12.15,-0.3,33
12.15,-0.15,33
12.15,0.0,34
12.15,0.15,36
12.15,0.3,24
12.15,0.45,31
12.15,0.6,35
12.15,0.75,35
12.15,0.9,33
12.15,1.05,32
12.15,1.2,32
12.15,1.35,31
12.15,1.5,30
12.3,-1.5,48
12.3,-1.35,49
12.3,-1.2,58
12.3,-1.05,55
12.3,-0.9,53
12.3,-0.75,41
12.3,-0.6,29
12.3,-0.45,30
12.3,-0.3,34
12.3,-0.15,38
12.3,0.0,41
12.3,0.15,50
12.3,0.3,79
12.3,0.45,86
12.3,0.6,53
12.3,0.75,41
12.3,0.9,38
12.3,1.05,36
12.3,1.2,30
12.3,1.35,30
12.3,1.5,30
12.45,-1.5,42
12.45,-1.35,45
12.45,-1.2,46
12.45,-1.05,49
12.45,-0.9,41
12.45,-0.75,29
12.45,-0.6,29
12.45,-0.45,49
12.45,-0.3,51
12.45,-0.15,53
12.45,0.0,56
12.45,0.15,66
12.45,0.3,97
12.45,0.45,96
12.45,0.6,73
12.45,0.75,65
12.45,0.9,62
12.45,1.05,56
12.45,1.2,52
12.45,1.35,47
12.45,1.5,43
12.6,-1.5,25
12.6,-1.35,29
12.6,-1.2,49
12.6,-1.05,48
12.6,-0.9,40
12.6,-0.75,46
12.6,-0.6,50
12.6,-0.45,53
12.6,-0.3,55
12.6,-0.15,55
12.6,0.0,53
12.6,0.15,54
12.6,0.3,64
12.6,0.45,59
12.6,0.6,73
12.6,0.75,75
12.6,0.9,68
12.6,1.05,61
12.6,1.2,52
12.6,1.35,42
12.6,1.5,35
12.75,-1.5,15
12.75,-1.35,21
12.75,-1.2,36
12.75,-1.05,31
12.75,-0.9,40
12.75,-0.75,47
12.75,-0.6,52
12.75,-0.45,56
12.75,-0.3,58
12.75,-0.15,56
12.75,0.0,44
12.75,0.15,8
12.75,0.3,61
12.75,0.45,13
12.75,0.6,93
12.75,0.75,90
12.75,0.9,76
12.75,1.05,63
12.75,1.2,47
12.75,1.35,30
12.75,1.5,20
12.9,-1.5,0
12.9,-1.35,7
12.9,-1.2,15
12.9,-1.05,28
12.9,-0.9,40
12.9,-0.75,48
12.9,-0.6,54
12.9,-0.45,59
12.9,-0.3,61
12.9,-0.15,60
12.9,0.0,53
12.9,0.15,45
12.9,0.3,162
12.9,0.45,255
12.9,0.6,154
12.9,0.75,108
12.9,0.9,85
12.9,1.05,63
12.9,1.2,39
12.9,1.35,14
12.9,1.5,2
13.05,-1.5,0
13.05,-1.35,2
13.05,-1.2,14
13.05,-1.05,28
13.05,-0.9,40
13.05,-0.75,49
13.05,-0.6,56
13.05,-0.45,61
13.05,-0.3,65
13.05,-0.15,68
13.05,0.0,73
13.05,0.15,94
13.05,0.3,152
13.05,0.45,191
13.05,0.6,150
13.05,0.75,113
13.05,0.9,87
13.05,1.05,65
13.05,1.2,37
13.05,1.35,10
13.05,1.5,0
