-3.0,-1.5,0
-3.0,-1.35,0
-3.0,-1.2,21
-3.0,-1.05,43
-3.0,-0.9,61
-3.0,-0.75,73
-3.0,-0.6,82
-3.0,-0.45,89
-3.0,-0.3,101
-3.0,-0.15,103
-3.0,0.0,112
-3.0,0.15,127
-3.0,0.3,133
-3.0,0.45,120
-3.0,0.6,80
-3.0,0.75,69
-3.0,0.9,84
-3.0,1.05,79
-3.0,1.2,53
-3.0,1.35,11
-3.0,1.5,0
-2.85,-1.5,0
-2.85,-1.35,4
-2.85,-1.2,18
-2.85,-1.05,47
-2.85,-0.9,63
-2.85,-0.75,73
-2.85,-0.6,81
-2.85,-0.45,90
-2.85,-0.3,96
-2.85,-0.15,100
-2.85,0.0,108
-2.85,0.15,133
-2.85,0.3,154
-2.85,0.45,152
-2.85,0.6,99
-2.85,0.75,78
-2.85,0.9,93
-2.85,1.05,89
-2.85,1.2,64
-2.85,1.35,28
-2.85,1.5,9
-2.7,-1.5,9
-2.7,-1.35,15
-2.7,-1.2,25
-2.7,-1.05,39
-2.7,-0.9,48
-2.7,-0.75,54
-2.7,-0.6,79
-2.7,-0.45,86
-2.7,-0.3,90
-2.7,-0.15,89
-2.7,0.0,94
-2.7,0.15,133
-2.7,0.3,175
-2.7,0.45,227
-2.7,0.6,176
-2.7,0.75,128
-2.7,0.9,113
-2.7,1.05,100
-2.7,1.2,80
-2.7,1.35,59
-2.7,1.5,43
-2.55,-1.5,20
-2.55,-1.35,24
-2.55,-1.2,31
-2.55,-1.05,37
-2.55,-0.9,50
-2.55,-0.75,55
-2.55,-0.6,58
-2.55,-0.45,80
-2.55,-0.3,83
-2.55,-0.15,77
-2.55,0.0,63
-2.55,0.15,122
-2.55,0.3,159
-2.55,0.45,255
-2.55,0.6,208
-2.55,0.75,147
-2.55,0.9,119
-2.55,1.05,104
-2.55,1.2,96
-2.55,1.35,81
-2.55,1.5,70
-2.4,-1.5,38
-2.4,-1.35,48
-2.4,-1.2,37
-2.4,-1.05,41
-2.4,-0.9,45
-2.4,-0.75,55
-2.4,-0.6,70
-2.4,-0.45,63
-2.4,-0.3,78
-2.4,-0.15,79
-2.4,0.0,95
-2.4,0.15,123
-2.4,0.3,145
-2.4,0.45,178
-2.4,0.6,142
-2.4,0.75,125
-2.4,0.9,118
-2.4,1.05,110
-2.4,1.2,98
-2.4,1.35,89
-2.4,1.5,82
-2.25,-1.5,64
-2.25,-1.35,48
-2.25,-1.2,59
-2.25,-1.05,62
-2.25,-0.9,64
-2.25,-0.75,69
-2.25,-0.6,80
-2.25,-0.45,67
-2.25,-0.3,65
-2.25,-0.15,65
-2.25,0.0,65
-2.25,0.15,73
-2.25,0.3,88
-2.25,0.45,94
-2.25,0.6,68
-2.25,0.75,96
-2.25,0.9,108
-2.25,1.05,102
-2.25,1.2,98
-2.25,1.35,93
-2.25,1.5,89
-2.1,-1.5,80
-2.1,-1.35,73
-2.1,-1.2,74
-2.1,-1.05,64
-2.1,-0.9,66
-2.1,-0.75,78
-2.1,-0.6,68
-2.1,-0.45,80
-2.1,-0.3,74
-2.1,-0.15,58
-2.1,0.0,49
-2.1,0.15,55
-2.1,0.3,82
-2.1,0.45,80
-2.1,0.6,81
-2.1,0.75,93
-2.1,0.9,101
-2.1,1.05,108
-2.1,1.2,96
-2.1,1.35,94
-2.1,1.5,92
-1.95,-1.5,87
-1.95,-1.35,91
-1.95,-1.2,90
-1.95,-1.05,74
-1.95,-0.9,80
-1.95,-0.75,85
-1.95,-0.6,82
-1.95,-0.45,74
-1.95,-0.3,93
-1.95,-0.15,73
-1.95,0.0,39
-1.95,0.15,69
-1.95,0.3,91
-1.95,0.45,78
-1.95,0.6,78
-1.95,0.75,86
-1.95,0.9,92
-1.95,1.05,101
-1.95,1.2,105
-1.95,1.35,102
-1.95,1.5,105
-1.8,-1.5,88
-1.8,-1.35,93
-1.8,-1.2,91
-1.8,-1.05,106
-1.8,-0.9,97
-1.8,-0.75,77
-1.8,-0.6,71
-1.8,-0.45,72
-1.8,-0.3,103
-1.8,-0.15,134
-1.8,0.0,150
-1.8,0.15,248
-1.8,0.3,133
-1.8,0.45,98
-1.8,0.6,67
-1.8,0.75,69
-1.8,0.9,75
-1.8,1.05,106
-1.8,1.2,110
-1.8,1.35,113
-1.8,1.5,114
-1.65,-1.5,92
-1.65,-1.35,93
-1.65,-1.2,95
-1.65,-1.05,109
-1.65,-0.9,99
-1.65,-0.75,84
-1.65,-0.6,71
-1.65,-0.45,71
-1.65,-0.3,109
-1.65,-0.15,193
-1.65,0.0,255
-1.65,0.15,226
-1.65,0.3,145
-1.65,0.45,65
-1.65,0.6,92
-1.65,0.75,98
-1.65,0.9,103
-1.65,1.05,111
-1.65,1.2,115
-1.65,1.35,118
-1.65,1.5,97
-1.5,-1.5,80
-1.5,-1.35,102
-1.5,-1.2,101
-1.5,-1.05,109
-1.5,-0.9,109
-1.5,-0.75,97
-1.5,-0.6,79
-1.5,-0.45,71
-1.5,-0.3,103
-1.5,-0.15,185
-1.5,0.0,206
-1.5,0.15,255
-1.5,0.3,178
-1.5,0.45,133
-1.5,0.6,127
-1.5,0.75,127
-1.5,0.9,115
-1.5,1.05,118
-1.5,1.2,118
-1.5,1.35,118
-1.5,1.5,103
-1.35,-1.5,103
-1.35,-1.35,104
-1.35,-1.2,105
-1.35,-1.05,106
-1.35,-0.9,105
-1.35,-0.75,111
-1.35,-0.6,81
-1.35,-0.45,3
-1.35,-0.3,60
-1.35,-0.15,122
-1.35,0.0,164
-1.35,0.15,189
-1.35,0.3,163
-1.35,0.45,150
-1.35,0.6,145
-1.35,0.75,122
-1.35,0.9,119
-1.35,1.05,103
-1.35,1.2,103
-1.35,1.35,103
-1.35,1.5,103
-1.2,-1.5,91
-1.2,-1.35,93
-1.2,-1.2,109
-1.2,-1.05,103
-1.2,-0.9,112
-1.2,-0.75,116
-1.2,-0.6,112
-1.2,-0.45,92
-1.2,-0.3,95
-1.2,-0.15,55
-1.2,0.0,19
-1.2,0.15,88
-1.2,0.3,123
-1.2,0.45,162
-1.2,0.6,137
-1.2,0.75,125
-1.2,0.9,136
-1.2,1.05,131
-1.2,1.2,122
-1.2,1.35,123
-1.2,1.5,123
-1.05,-1.5,91
-1.05,-1.35,94
-1.05,-1.2,100
-1.05,-1.05,113
-1.05,-0.9,134
-1.05,-0.75,174
-1.05,-0.6,178
-1.05,-0.45,179
-1.05,-0.3,129
-1.05,-0.15,69
-1.05,0.0,65
-1.05,0.15,0
-1.05,0.3,99
-1.05,0.45,245
-1.05,0.6,163
-1.05,0.75,146
-1.05,0.9,141
-1.05,1.05,131
-1.05,1.2,130
-1.05,1.35,134
-1.05,1.5,134
-0.9,-1.5,91
-0.9,-1.35,93
-0.9,-1.2,106
-0.9,-1.05,117
-0.9,-0.9,140
-0.9,-0.75,224
-0.9,-0.6,238
-0.9,-0.45,229
-0.9,-0.3,167
-0.9,-0.15,122
-0.9,0.0,104
-0.9,0.15,89
-0.9,0.3,78
-0.9,0.45,142
-0.9,0.6,157
-0.9,0.75,159
-0.9,0.9,160
-0.9,1.05,161
-0.9,1.2,156
-0.9,1.35,155
-0.9,1.5,168
-0.75,-1.5,90
-0.75,-1.35,93
-0.75,-1.2,91
-0.75,-1.05,93
-0.75,-0.9,97
-0.75,-0.75,128
-0.75,-0.6,143
-0.75,-0.45,147
-0.75,-0.3,140
-0.75,-0.15,113
-0.75,0.0,116
-0.75,0.15,145
-0.75,0.3,116
-0.75,0.45,145
-0.75,0.6,167
-0.75,0.75,171
-0.75,0.9,162
-0.75,1.05,162
-0.75,1.2,160
-0.75,1.35,173
-0.75,1.5,173
-0.6,-1.5,86
-0.6,-1.35,82
-0.6,-1.2,76
-0.6,-1.05,63
-0.6,-0.9,35
-0.6,-0.75,28
-0.6,-0.6,29
-0.6,-0.45,88
-0.6,-0.3,113
-0.6,-0.15,94
-0.6,0.0,41
-0.6,0.15,95
-0.6,0.3,160
-0.6,0.45,229
-0.6,0.6,207
-0.6,0.75,178
-0.6,0.9,172
-0.6,1.05,181
-0.6,1.2,178
-0.6,1.35,176
-0.6,1.5,175
-0.45,-1.5,81
-0.45,-1.35,80
-0.45,-1.2,72
-0.45,-1.05,54
-0.45,-0.9,20
-0.45,-0.75,18
-0.45,-0.6,48
-0.45,-0.45,77
-0.45,-0.3,105
-0.45,-0.15,100
-0.45,0.0,97
-0.45,0.15,124
-0.45,0.3,230
-0.45,0.45,255
-0.45,0.6,228
-0.45,0.75,195
-0.45,0.9,196
-0.45,1.05,202
-0.45,1.2,221
-0.45,1.35,221
-0.45,1.5,221
-0.3,-1.5,78
-0.3,-1.35,74
-0.3,-1.2,61
-0.3,-1.05,57
-0.3,-0.9,51
-0.3,-0.75,55
-0.3,-0.6,65
-0.3,-0.45,100
-0.3,-0.3,188
-0.3,-0.15,84
-0.3,0.0,87
-0.3,0.15,150
-0.3,0.3,159
-0.3,0.45,255
-0.3,0.6,227
-0.3,0.75,215
-0.3,0.9,226
-0.3,1.05,225
-0.3,1.2,225
-0.3,1.35,206
-0.3,1.5,206
-0.15,-1.5,52
-0.15,-1.35,61
-0.15,-1.2,61
-0.15,-1.05,65
-0.15,-0.9,69
-0.15,-0.75,81
-0.15,-0.6,83
-0.15,-0.45,110
-0.15,-0.3,138
-0.15,-0.15,79
-0.15,0.0,126
-0.15,0.15,99
-0.15,0.3,155
-0.15,0.45,242
-0.15,0.6,227
-0.15,0.75,217
-0.15,0.9,203
-0.15,1.05,205
-0.15,1.2,206
-0.15,1.35,206
-0.15,1.5,206
0.0,-1.5,37
0.0,-1.35,38
0.0,-1.2,41
0.0,-1.05,49
0.0,-0.9,71
0.0,-0.75,102
0.0,-0.6,102
0.0,-0.45,97
0.0,-0.3,118
0.0,-0.15,193
0.0,0.0,162
0.0,0.15,161
0.0,0.3,102
0.0,0.45,202
0.0,0.6,213
0.0,0.75,173
0.0,0.9,189
0.0,1.05,198
0.0,1.2,202
0.0,1.35,202
0.0,1.5,202
0.15,-1.5,37
0.15,-1.35,38
0.15,-1.2,40
0.15,-1.05,49
0.15,-0.9,52
0.15,-0.75,56
0.15,-0.6,23
0.15,-0.45,66
0.15,-0.3,84
0.15,-0.15,22
0.15,0.0,116
0.15,0.15,160
0.15,0.3,255
0.15,0.45,255
0.15,0.6,222
0.15,0.75,62
0.15,0.9,199
0.15,1.05,200
0.15,1.2,198
0.15,1.35,196
0.15,1.5,195
0.3,-1.5,37
0.3,-1.35,39
0.3,-1.2,40
0.3,-1.05,41
0.3,-0.9,50
0.3,-0.75,51
0.3,-0.6,46
0.3,-0.45,70
0.3,-0.3,84
0.3,-0.15,56
0.3,0.0,59
0.3,0.15,89
0.3,0.3,219
0.3,0.45,255
0.3,0.6,255
0.3,0.75,208
0.3,0.9,235
0.3,1.05,202
0.3,1.2,191
0.3,1.35,187
0.3,1.5,183
0.45,-1.5,37
0.45,-1.35,37
0.45,-1.2,43
0.45,-1.05,43
0.45,-0.9,41
0.45,-0.75,46
0.45,-0.6,43
0.45,-0.45,60
0.45,-0.3,60
0.45,-0.15,71
0.45,0.0,59
0.45,0.15,31
0.45,0.3,176
0.45,0.45,165
0.45,0.6,207
0.45,0.75,190
0.45,0.9,176
0.45,1.05,168
0.45,1.2,166
0.45,1.35,167
0.45,1.5,168
0.6,-1.5,31
0.6,-1.35,32
0.6,-1.2,31
0.6,-1.05,31
0.6,-0.9,30
0.6,-0.75,30
0.6,-0.6,5
0.6,-0.45,41
0.6,-0.3,162
0.6,-0.15,141
0.6,0.0,60
0.6,0.15,73
0.6,0.3,114
0.6,0.45,137
0.6,0.6,160
0.6,0.75,143
0.6,0.9,104
0.6,1.05,112
0.6,1.2,132
0.6,1.35,142
0.6,1.5,147
0.75,-1.5,31
0.75,-1.35,31
0.75,-1.2,31
0.75,-1.05,33
0.75,-0.9,37
0.75,-0.75,30
0.75,-0.6,37
0.75,-0.45,85
0.75,-0.3,85
0.75,-0.15,126
0.75,0.0,67
0.75,0.15,75
0.75,0.3,88
0.75,0.45,119
0.75,0.6,120
0.75,0.75,103
0.75,0.9,65
0.75,1.05,85
0.75,1.2,116
0.75,1.35,131
0.75,1.5,139
0.9,-1.5,31
0.9,-1.35,31
0.9,-1.2,37
0.9,-1.05,46
0.9,-0.9,57
0.9,-0.75,26
0.9,-0.6,57
0.9,-0.45,108
0.9,-0.3,251
0.9,-0.15,167
0.9,0.0,118
0.9,0.15,52
0.9,0.3,33
0.9,0.45,63
0.9,0.6,69
0.9,0.75,90
0.9,0.9,86
0.9,1.05,90
0.9,1.2,102
0.9,1.35,111
0.9,1.5,117
1.05,-1.5,33
1.05,-1.35,32
1.05,-1.2,32
1.05,-1.05,36
1.05,-0.9,27
1.05,-0.75,0
1.05,-0.6,43
1.05,-0.45,77
1.05,-0.3,72
1.05,-0.15,18
1.05,0.0,56
1.05,0.15,33
1.05,0.3,33
1.05,0.45,44
1.05,0.6,36
1.05,0.75,53
1.05,0.9,74
1.05,1.05,82
1.05,1.2,103
1.05,1.35,110
1.05,1.5,115
1.2,-1.5,38
1.2,-1.35,34
1.2,-1.2,29
1.2,-1.05,28
1.2,-0.9,30
1.2,-0.75,43
1.2,-0.6,43
1.2,-0.45,0
1.2,-0.3,2
1.2,-0.15,21
1.2,0.0,24
1.2,0.15,58
1.2,0.3,54
1.2,0.45,50
1.2,0.6,0
1.2,0.75,55
1.2,0.9,70
1.2,1.05,72
1.2,1.2,83
1.2,1.35,86
1.2,1.5,88
1.35,-1.5,38
1.35,-1.35,31
1.35,-1.2,17
1.35,-1.05,4
1.35,-0.9,41
1.35,-0.75,64
1.35,-0.6,64
1.35,-0.45,47
1.35,-0.3,81
1.35,-0.15,3
1.35,0.0,33
1.35,0.15,49
1.35,0.3,59
1.35,0.45,69
1.35,0.6,99
1.35,0.75,99
1.35,0.9,81
1.35,1.05,76
1.35,1.2,77
1.35,1.35,76
1.35,1.5,87
1.5,-1.5,57
1.5,-1.35,55
1.5,-1.2,23
1.5,-1.05,6
1.5,-0.9,59
1.5,-0.75,88
1.5,-0.6,105
1.5,-0.45,130
1.5,-0.3,94
1.5,-0.15,59
1.5,0.0,39
1.5,0.15,41
1.5,0.3,54
1.5,0.45,88
1.5,0.6,99
1.5,0.75,96
1.5,0.9,86
1.5,1.05,80
1.5,1.2,76
1.5,1.35,74
1.5,1.5,69
1.65,-1.5,83
1.65,-1.35,74
1.65,-1.2,65
1.65,-1.05,66
1.65,-0.9,85
1.65,-0.75,73
1.65,-0.6,162
1.65,-0.45,160
1.65,-0.3,99
1.65,-0.15,85
1.65,0.0,37
1.65,0.15,19
1.65,0.3,51
1.65,0.45,212
1.65,0.6,134
1.65,0.75,93
1.65,0.9,81
1.65,1.05,74
1.65,1.2,74
1.65,1.35,71
1.65,1.5,69
1.8,-1.5,82
1.8,-1.35,88
1.8,-1.2,88
1.8,-1.05,93
1.8,-0.9,100
1.8,-0.75,95
1.8,-0.6,88
1.8,-0.45,96
1.8,-0.3,118
1.8,-0.15,103
1.8,0.0,97
1.8,0.15,68
1.8,0.3,59
1.8,0.45,48
1.8,0.6,101
1.8,0.75,86
1.8,0.9,77
1.8,1.05,72
1.8,1.2,69
1.8,1.35,71
1.8,1.5,69
1.95,-1.5,105
1.95,-1.35,105
1.95,-1.2,105
1.95,-1.05,99
1.95,-0.9,102
1.95,-0.75,101
1.95,-0.6,81
1.95,-0.45,157
1.95,-0.3,103
1.95,-0.15,92
1.95,0.0,76
1.95,0.15,57
1.95,0.3,35
1.95,0.45,64
1.95,0.6,79
1.95,0.75,85
1.95,0.9,82
1.95,1.05,76
1.95,1.2,69
1.95,1.35,69
1.95,1.5,69
2.1,-1.5,105
2.1,-1.35,105
2.1,-1.2,105
2.1,-1.05,125
2.1,-0.9,123
2.1,-0.75,135
2.1,-0.6,87
2.1,-0.45,64
2.1,-0.3,58
2.1,-0.15,43
2.1,0.0,67
2.1,0.15,79
2.1,0.3,56
2.1,0.45,62
2.1,0.6,67
2.1,0.75,67
2.1,0.9,72
2.1,1.05,71
2.1,1.2,70
2.1,1.35,69
2.1,1.5,69
2.25,-1.5,111
2.25,-1.35,114
2.25,-1.2,117
2.25,-1.05,121
2.25,-0.9,131
2.25,-0.75,209
2.25,-0.6,94
2.25,-0.45,0
2.25,-0.3,40
2.25,-0.15,13
2.25,0.0,41
2.25,0.15,90
2.25,0.3,61
2.25,0.45,55
2.25,0.6,64
2.25,0.75,64
2.25,0.9,64
2.25,1.05,63
2.25,1.2,71
2.25,1.35,71
2.25,1.5,69
2.4,-1.5,117
2.4,-1.35,126
2.4,-1.2,130
2.4,-1.05,131
2.4,-0.9,128
2.4,-0.75,119
2.4,-0.6,75
2.4,-0.45,29
2.4,-0.3,16
2.4,-0.15,33
2.4,0.0,5
2.4,0.15,49
2.4,0.3,53
2.4,0.45,52
2.4,0.6,46
2.4,0.75,45
2.4,0.9,55
2.4,1.05,55
2.4,1.2,57
2.4,1.35,58
2.4,1.5,55
2.55,-1.5,162
2.55,-1.35,166
2.55,-1.2,174
2.55,-1.05,163
2.55,-0.9,148
2.55,-0.75,93
2.55,-0.6,60
2.55,-0.45,44
2.55,-0.3,32
2.55,-0.15,40
2.55,0.0,19
2.55,0.15,53
2.55,0.3,51
2.55,0.45,46
2.55,0.6,43
2.55,0.75,35
2.55,0.9,33
2.55,1.05,35
2.55,1.2,33
2.55,1.35,49
2.55,1.5,52
2.7,-1.5,171
2.7,-1.35,177
2.7,-1.2,188
2.7,-1.05,217
2.7,-0.9,242
2.7,-0.75,118
2.7,-0.6,44
2.7,-0.45,59
2.7,-0.3,31
2.7,-0.15,40
2.7,0.0,23
2.7,0.15,53
2.7,0.3,43
2.7,0.45,35
2.7,0.6,27
2.7,0.75,15
2.7,0.9,23
2.7,1.05,33
2.7,1.2,40
2.7,1.35,44
2.7,1.5,46
2.85,-1.5,185
2.85,-1.35,194
2.85,-1.2,189
2.85,-1.05,211
2.85,-0.9,216
2.85,-0.75,167
2.85,-0.6,54
2.85,-0.45,156
2.85,-0.3,6
2.85,-0.15,59
2.85,0.0,8
2.85,0.15,28
2.85,0.3,9
2.85,0.45,30
2.85,0.6,28
2.85,0.75,0
2.85,0.9,15
2.85,1.05,32
2.85,1.2,40
2.85,1.35,44
2.85,1.5,46
3.0,-1.5,185
3.0,-1.35,188
3.0,-1.2,197
3.0,-1.05,202
3.0,-0.9,228
3.0,-0.75,244
3.0,-0.6,160
3.0,-0.45,88
3.0,-0.3,198
3.0,-0.15,64
3.0,0.0,32
3.0,0.15,29
3.0,0.3,28
3.0,0.45,52
3.0,0.6,54
3.0,0.75,31
3.0,0.9,31
3.0,1.05,36
3.0,1.2,41
3.0,1.35,43
3.0,1.5,45
3.15,-1.5,203
3.15,-1.35,207
3.15,-1.2,212
3.15,-1.05,218
3.15,-0.9,227
3.15,-0.75,255
3.15,-0.6,255
3.15,-0.45,119
3.15,-0.3,98
3.15,-0.15,71
3.15,0.0,80
3.15,0.15,65
3.15,0.3,59
3.15,0.45,61
3.15,0.6,61
3.15,0.75,55
3.15,0.9,52
3.15,1.05,52
3.15,1.2,51
3.15,1.35,53
3.15,1.5,54
3.3,-1.5,214
3.3,-1.35,215
3.3,-1.2,217
3.3,-1.05,223
3.3,-0.9,225
3.3,-0.75,222
3.3,-0.6,251
3.3,-0.45,140
3.3,-0.3,75
3.3,-0.15,94
3.3,0.0,93
3.3,0.15,61
3.3,0.3,77
3.3,0.45,72
3.3,0.6,69
3.3,0.75,64
3.3,0.9,61
3.3,1.05,60
3.3,1.2,59
3.3,1.35,56
3.3,1.5,56
3.45,-1.5,206
3.45,-1.35,206
3.45,-1.2,204
3.45,-1.05,186
3.45,-0.9,179
3.45,-0.75,152
3.45,-0.6,84
3.45,-0.45,22
3.45,-0.3,77
3.45,-0.15,82
3.45,0.0,122
3.45,0.15,61
3.45,0.3,70
3.45,0.45,77
3.45,0.6,64
3.45,0.75,69
3.45,0.9,69
3.45,1.05,68
3.45,1.2,67
3.45,1.35,59
3.45,1.5,59
3.6,-1.5,189
3.6,-1.35,174
3.6,-1.2,173
3.6,-1.05,153
3.6,-0.9,151
3.6,-0.75,141
3.6,-0.6,203
3.6,-0.45,181
3.6,-0.3,110
3.6,-0.15,102
3.6,0.0,127
3.6,0.15,146
3.6,0.3,102
3.6,0.45,85
3.6,0.6,75
3.6,0.75,75
3.6,0.9,72
3.6,1.05,70
3.6,1.2,69
3.6,1.35,69
3.6,1.5,69
3.75,-1.5,145
3.75,-1.35,144
3.75,-1.2,144
3.75,-1.05,126
3.75,-0.9,123
3.75,-0.75,113
3.75,-0.6,74
3.75,-0.45,69
3.75,-0.3,144
3.75,-0.15,138
3.75,0.0,114
3.75,0.15,76
3.75,0.3,87
3.75,0.45,81
3.75,0.6,82
3.75,0.75,81
3.75,0.9,77
3.75,1.05,77
3.75,1.2,76
3.75,1.35,75
3.75,1.5,74
3.9,-1.5,140
3.9,-1.35,137
3.9,-1.2,118
3.9,-1.05,100
3.9,-0.9,97
3.9,-0.75,87
3.9,-0.6,92
3.9,-0.45,39
3.9,-0.3,73
3.9,-0.15,167
3.9,0.0,89
3.9,0.15,26
3.9,0.3,84
3.9,0.45,79
3.9,0.6,80
3.9,0.75,80
3.9,0.9,77
3.9,1.05,77
3.9,1.2,77
3.9,1.35,74
3.9,1.5,74
4.05,-1.5,104
4.05,-1.35,102
4.05,-1.2,99
4.05,-1.05,95
4.05,-0.9,87
4.05,-0.75,44
4.05,-0.6,80
4.05,-0.45,135
4.05,-0.3,100
4.05,-0.15,144
4.05,0.0,102
4.05,0.15,120
4.05,0.3,89
4.05,0.45,70
4.05,0.6,72
4.05,0.75,75
4.05,0.9,76
4.05,1.05,76
4.05,1.2,77
4.05,1.35,77
4.05,1.5,74
4.2,-1.5,107
4.2,-1.35,102
4.2,-1.2,94
4.2,-1.05,83
4.2,-0.9,81
4.2,-0.75,104
4.2,-0.6,255
4.2,-0.45,112
4.2,-0.3,87
4.2,-0.15,75
4.2,0.0,69
4.2,0.15,70
4.2,0.3,68
4.2,0.45,64
4.2,0.6,62
4.2,0.75,62
4.2,0.9,62
4.2,1.05,71
4.2,1.2,76
4.2,1.35,76
4.2,1.5,77
4.35,-1.5,117
4.35,-1.35,109
4.35,-1.2,75
4.35,-1.05,48
4.35,-0.9,0
4.35,-0.75,115
4.35,-0.6,139
4.35,-0.45,78
4.35,-0.3,74
4.35,-0.15,40
4.35,0.0,30
4.35,0.15,47
4.35,0.3,50
4.35,0.45,52
4.35,0.6,52
4.35,0.75,52
4.35,0.9,53
4.35,1.05,65
4.35,1.2,52
4.35,1.35,52
4.35,1.5,52
4.5,-1.5,106
4.5,-1.35,97
4.5,-1.2,88
4.5,-1.05,71
4.5,-0.9,55
4.5,-0.75,103
4.5,-0.6,127
4.5,-0.45,4
4.5,-0.3,54
4.5,-0.15,12
4.5,0.0,33
4.5,0.15,53
4.5,0.3,63
4.5,0.45,68
4.5,0.6,71
4.5,0.75,76
4.5,0.9,77
4.5,1.05,78
4.5,1.2,81
4.5,1.35,61
4.5,1.5,61
4.65,-1.5,124
4.65,-1.35,122
4.65,-1.2,107
4.65,-1.05,100
4.65,-0.9,91
4.65,-0.75,81
4.65,-0.6,64
4.65,-0.45,23
4.65,-0.3,64
4.65,-0.15,68
4.65,0.0,96
4.65,0.15,48
4.65,0.3,63
4.65,0.45,68
4.65,0.6,77
4.65,0.75,78
4.65,0.9,79
4.65,1.05,80
4.65,1.2,80
4.65,1.35,81
4.65,1.5,81
4.8,-1.5,106
4.8,-1.35,130
4.8,-1.2,137
4.8,-1.05,148
4.8,-0.9,139
4.8,-0.75,75
4.8,-0.6,97
4.8,-0.45,118
4.8,-0.3,70
4.8,-0.15,151
4.8,0.0,133
4.8,0.15,75
4.8,0.3,71
4.8,0.45,77
4.8,0.6,76
4.8,0.75,76
4.8,0.9,84
4.8,1.05,85
4.8,1.2,81
4.8,1.35,81
4.8,1.5,81
4.95,-1.5,106
4.95,-1.35,114
4.95,-1.2,130
4.95,-1.05,175
4.95,-0.9,255
4.95,-0.75,210
4.95,-0.6,157
4.95,-0.45,198
4.95,-0.3,80
4.95,-0.15,38
4.95,0.0,91
4.95,0.15,111
4.95,0.3,106
4.95,0.45,96
4.95,0.6,99
4.95,0.75,99
4.95,0.9,99
4.95,1.05,99
4.95,1.2,98
4.95,1.35,81
4.95,1.5,81
5.1,-1.5,103
5.1,-1.35,125
5.1,-1.2,135
5.1,-1.05,157
5.1,-0.9,205
5.1,-0.75,136
5.1,-0.6,87
5.1,-0.45,84
5.1,-0.3,152
5.1,-0.15,113
5.1,0.0,128
5.1,0.15,126
5.1,0.3,126
5.1,0.45,126
5.1,0.6,121
5.1,0.75,121
5.1,0.9,121
5.1,1.05,121
5.1,1.2,121
5.1,1.35,121
5.1,1.5,103
5.25,-1.5,99
5.25,-1.35,101
5.25,-1.2,116
5.25,-1.05,127
5.25,-0.9,154
5.25,-0.75,119
5.25,-0.6,81
5.25,-0.45,103
5.25,-0.3,200
5.25,-0.15,255
5.25,0.0,229
5.25,0.15,104
5.25,0.3,114
5.25,0.45,101
5.25,0.6,103
5.25,0.75,101
5.25,0.9,99
5.25,1.05,98
5.25,1.2,98
5.25,1.35,97
5.25,1.5,97
5.4,-1.5,94
5.4,-1.35,94
5.4,-1.2,88
5.4,-1.05,83
5.4,-0.9,80
5.4,-0.75,13
5.4,-0.6,217
5.4,-0.45,128
5.4,-0.3,66
5.4,-0.15,185
5.4,0.0,211
5.4,0.15,113
5.4,0.3,113
5.4,0.45,110
5.4,0.6,100
5.4,0.75,97
5.4,0.9,97
5.4,1.05,97
5.4,1.2,97
5.4,1.35,97
5.4,1.5,111
5.55,-1.5,86
5.55,-1.35,78
5.55,-1.2,52
5.55,-1.05,17
5.55,-0.9,31
5.55,-0.75,52
5.55,-0.6,71
5.55,-0.45,15
5.55,-0.3,53
5.55,-0.15,190
5.55,0.0,135
5.55,0.15,112
5.55,0.3,98
5.55,0.45,88
5.55,0.6,97
5.55,0.75,98
5.55,0.9,117
5.55,1.05,122
5.55,1.2,125
5.55,1.35,128
5.55,1.5,130
5.7,-1.5,60
5.7,-1.35,56
5.7,-1.2,46
5.7,-1.05,27
5.7,-0.9,28
5.7,-0.75,46
5.7,-0.6,12
5.7,-0.45,12
5.7,-0.3,2
5.7,-0.15,36
5.7,0.0,72
5.7,0.15,74
5.7,0.3,63
5.7,0.45,49
5.7,0.6,62
5.7,0.75,71
5.7,0.9,82
5.7,1.05,87
5.7,1.2,91
5.7,1.35,94
5.7,1.5,96
5.85,-1.5,65
5.85,-1.35,48
5.85,-1.2,49
5.85,-1.05,53
5.85,-0.9,73
5.85,-0.75,74
5.85,-0.6,43
5.85,-0.45,0
5.85,-0.3,31
5.85,-0.15,64
5.85,0.0,53
5.85,0.15,50
5.85,0.3,50
5.85,0.45,8
5.85,0.6,38
5.85,0.75,61
5.85,0.9,72
5.85,1.05,91
5.85,1.2,79
5.85,1.35,81
5.85,1.5,82
6.0,-1.5,70
6.0,-1.35,69
6.0,-1.2,68
6.0,-1.05,65
6.0,-0.9,84
6.0,-0.75,186
6.0,-0.6,46
6.0,-0.45,35
6.0,-0.3,85
6.0,-0.15,97
6.0,0.0,70
6.0,0.15,60
6.0,0.3,59
6.0,0.45,12
6.0,0.6,41
6.0,0.75,60
6.0,0.9,69
6.0,1.05,74
6.0,1.2,81
6.0,1.35,82
6.0,1.5,82
6.15,-1.5,74
6.15,-1.35,74
6.15,-1.2,71
6.15,-1.05,65
6.15,-0.9,64
6.15,-0.75,63
6.15,-0.6,53
6.15,-0.45,49
6.15,-0.3,78
6.15,-0.15,77
6.15,0.0,86
6.15,0.15,115
6.15,0.3,105
6.15,0.45,79
6.15,0.6,73
6.15,0.75,77
6.15,0.9,80
6.15,1.05,81
6.15,1.2,80
6.15,1.35,81
6.15,1.5,81
6.3,-1.5,76
6.3,-1.35,80
6.3,-1.2,79
6.3,-1.05,79
6.3,-0.9,23
6.3,-0.75,44
6.3,-0.6,28
6.3,-0.45,34
6.3,-0.3,54
6.3,-0.15,69
6.3,0.0,208
6.3,0.15,250
6.3,0.3,154
6.3,0.45,112
6.3,0.6,95
6.3,0.75,90
6.3,0.9,80
6.3,1.05,79
6.3,1.2,79
6.3,1.35,79
6.3,1.5,79
6.45,-1.5,94
6.45,-1.35,80
6.45,-1.2,88
6.45,-1.05,127
6.45,-0.9,156
6.45,-0.75,76
6.45,-0.6,254
6.45,-0.45,77
6.45,-0.3,162
6.45,-0.15,8
6.45,0.0,86
6.45,0.15,140
6.45,0.3,133
6.45,0.45,106
6.45,0.6,91
6.45,0.75,84
6.45,0.9,84
6.45,1.05,82
6.45,1.2,81
6.45,1.35,80
6.45,1.5,79
6.6,-1.5,95
6.6,-1.35,84
6.6,-1.2,70
6.6,-1.05,120
6.6,-0.9,127
6.6,-0.75,55
6.6,-0.6,61
6.6,-0.45,27
6.6,-0.3,65
6.6,-0.15,23
6.6,0.0,46
6.6,0.15,71
6.6,0.3,87
6.6,0.45,90
6.6,0.6,90
6.6,0.75,86
6.6,0.9,84
6.6,1.05,82
6.6,1.2,81
6.6,1.35,80
6.6,1.5,79
6.75,-1.5,99
6.75,-1.35,87
6.75,-1.2,79
6.75,-1.05,103
6.75,-0.9,49
6.75,-0.75,110
6.75,-0.6,83
6.75,-0.45,89
6.75,-0.3,101
6.75,-0.15,15
6.75,0.0,37
6.75,0.15,57
6.75,0.3,59
6.75,0.45,73
6.75,0.6,75
6.75,0.75,66
6.75,0.9,65
6.75,1.05,64
6.75,1.2,59
6.75,1.35,58
6.75,1.5,57
6.9,-1.5,111
6.9,-1.35,110
6.9,-1.2,118
6.9,-1.05,119
6.9,-0.9,92
6.9,-0.75,76
6.9,-0.6,77
6.9,-0.45,59
6.9,-0.3,126
6.9,-0.15,98
6.9,0.0,63
6.9,0.15,38
6.9,0.3,38
6.9,0.45,38
6.9,0.6,53
6.9,0.75,45
6.9,0.9,41
6.9,1.05,36
6.9,1.2,36
6.9,1.35,36
6.9,1.5,36
7.05,-1.5,117
7.05,-1.35,114
7.05,-1.2,134
7.05,-1.05,176
7.05,-0.9,235
7.05,-0.75,9
7.05,-0.6,70
7.05,-0.45,36
7.05,-0.3,113
7.05,-0.15,106
7.05,0.0,65
7.05,0.15,73
7.05,0.3,65
7.05,0.45,41
7.05,0.6,40
7.05,0.75,40
7.05,0.9,26
7.05,1.05,42
7.05,1.2,43
7.05,1.35,38
7.05,1.5,38
7.2,-1.5,120
7.2,-1.35,121
7.2,-1.2,131
7.2,-1.05,135
7.2,-0.9,141
7.2,-0.75,62
7.2,-0.6,50
7.2,-0.45,79
7.2,-0.3,32
7.2,-0.15,222
7.2,0.0,57
7.2,0.15,46
7.2,0.3,58
7.2,0.45,62
7.2,0.6,65
7.2,0.75,71
7.2,0.9,73
7.2,1.05,74
7.2,1.2,50
7.2,1.35,66
7.2,1.5,52
7.35,-1.5,111
7.35,-1.35,112
7.35,-1.2,105
7.35,-1.05,104
7.35,-0.9,115
7.35,-0.75,111
7.35,-0.6,18
7.35,-0.45,177
7.35,-0.3,31
7.35,-0.15,35
7.35,0.0,23
7.35,0.15,40
7.35,0.3,40
7.35,0.45,46
7.35,0.6,40
7.35,0.75,42
7.35,0.9,43
7.35,1.05,44
7.35,1.2,30
7.35,1.35,31
7.35,1.5,36
7.5,-1.5,98
7.5,-1.35,95
7.5,-1.2,67
7.5,-1.05,67
7.5,-0.9,57
7.5,-0.75,20
7.5,-0.6,0
7.5,-0.45,75
7.5,-0.3,19
7.5,-0.15,34
7.5,0.0,38
7.5,0.15,6
7.5,0.3,24
7.5,0.45,33
7.5,0.6,36
7.5,0.75,42
7.5,0.9,44
7.5,1.05,45
7.5,1.2,31
7.5,1.35,32
7.5,1.5,36
7.65,-1.5,103
7.65,-1.35,81
7.65,-1.2,92
7.65,-1.05,79
7.65,-0.9,42
7.65,-0.75,5
7.65,-0.6,27
7.65,-0.45,36
7.65,-0.3,30
7.65,-0.15,106
7.65,0.0,77
7.65,0.15,50
7.65,0.3,53
7.65,0.45,57
7.65,0.6,63
7.65,0.75,65
7.65,0.9,56
7.65,1.05,56
7.65,1.2,52
7.65,1.35,33
7.65,1.5,33
7.8,-1.5,123
7.8,-1.35,139
7.8,-1.2,137
7.8,-1.05,127
7.8,-0.9,124
7.8,-0.75,71
7.8,-0.6,33
7.8,-0.45,135
7.8,-0.3,17
7.8,-0.15,120
7.8,0.0,100
7.8,0.15,76
7.8,0.3,72
7.8,0.45,72
7.8,0.6,68
7.8,0.75,67
7.8,0.9,53
7.8,1.05,53
7.8,1.2,53
7.8,1.35,53
7.8,1.5,53
7.95,-1.5,126
7.95,-1.35,136
7.95,-1.2,142
7.95,-1.05,152
7.95,-0.9,147
7.95,-0.75,92
7.95,-0.6,109
7.95,-0.45,77
7.95,-0.3,48
7.95,-0.15,46
7.95,0.0,68
7.95,0.15,74
7.95,0.3,70
7.95,0.45,67
7.95,0.6,69
7.95,0.75,69
7.95,0.9,65
7.95,1.05,61
7.95,1.2,48
7.95,1.35,48
7.95,1.5,39
8.1,-1.5,119
8.1,-1.35,122
8.1,-1.2,114
8.1,-1.05,246
8.1,-0.9,105
8.1,-0.75,84
8.1,-0.6,63
8.1,-0.45,38
8.1,-0.3,59
8.1,-0.15,87
8.1,0.0,67
8.1,0.15,64
8.1,0.3,61
8.1,0.45,54
8.1,0.6,51
8.1,0.75,50
8.1,0.9,50
8.1,1.05,49
8.1,1.2,49
8.1,1.35,49
8.1,1.5,49
8.25,-1.5,77
8.25,-1.35,84
8.25,-1.2,86
8.25,-1.05,85
8.25,-0.9,110
8.25,-0.75,66
8.25,-0.6,14
8.25,-0.45,21
8.25,-0.3,58
8.25,-0.15,120
8.25,0.0,60
8.25,0.15,50
8.25,0.3,54
8.25,0.45,55
8.25,0.6,55
8.25,0.75,54
8.25,0.9,54
8.25,1.05,50
8.25,1.2,50
8.25,1.35,49
8.25,1.5,49
8.4,-1.5,75
8.4,-1.35,73
8.4,-1.2,84
8.4,-1.05,98
8.4,-0.9,41
8.4,-0.75,78
8.4,-0.6,132
8.4,-0.45,84
8.4,-0.3,57
8.4,-0.15,60
8.4,0.0,46
8.4,0.15,13
8.4,0.3,48
8.4,0.45,59
8.4,0.6,54
8.4,0.75,54
8.4,0.9,54
8.4,1.05,54
8.4,1.2,54
8.4,1.35,54
8.4,1.5,49
8.55,-1.5,69
8.55,-1.35,67
8.55,-1.2,51
8.55,-1.05,57
8.55,-0.9,57
8.55,-0.75,87
8.55,-0.6,80
8.55,-0.45,71
8.55,-0.3,79
8.55,-0.15,64
8.55,0.0,54
8.55,0.15,42
8.55,0.3,55
8.55,0.45,60
8.55,0.6,59
8.55,0.75,59
8.55,0.9,60
8.55,1.05,60
8.55,1.2,60
8.55,1.35,60
8.55,1.5,58
8.7,-1.5,40
8.7,-1.35,40
8.7,-1.2,39
8.7,-1.05,49
8.7,-0.9,41
8.7,-0.75,57
8.7,-0.6,109
8.7,-0.45,50
8.7,-0.3,16
8.7,-0.15,214
8.7,0.0,73
8.7,0.15,57
8.7,0.3,58
8.7,0.45,60
8.7,0.6,60
8.7,0.75,60
8.7,0.9,60
8.7,1.05,58
8.7,1.2,58
8.7,1.35,58
8.7,1.5,58
8.85,-1.5,41
8.85,-1.35,39
8.85,-1.2,32
8.85,-1.05,36
8.85,-0.9,18
8.85,-0.75,39
8.85,-0.6,32
8.85,-0.45,133
8.85,-0.3,92
8.85,-0.15,94
8.85,0.0,72
8.85,0.15,71
8.85,0.3,64
8.85,0.45,61
8.85,0.6,60
8.85,0.75,59
8.85,0.9,58
8.85,1.05,58
8.85,1.2,58
8.85,1.35,58
8.85,1.5,58
9.0,-1.5,42
9.0,-1.35,40
9.0,-1.2,37
9.0,-1.05,19
9.0,-0.9,2
9.0,-0.75,34
9.0,-0.6,96
9.0,-0.45,32
9.0,-0.3,64
9.0,-0.15,59
9.0,0.0,66
9.0,0.15,64
9.0,0.3,69
9.0,0.45,58
9.0,0.6,58
9.0,0.75,58
9.0,0.9,70
9.0,1.05,71
9.0,1.2,72
9.0,1.35,59
9.0,1.5,60
9.15,-1.5,40
9.15,-1.35,52
9.15,-1.2,52
9.15,-1.05,50
9.15,-0.9,46
9.15,-0.75,80
9.15,-0.6,10
9.15,-0.45,37
9.15,-0.3,0
9.15,-0.15,31
9.15,0.0,40
9.15,0.15,40
9.15,0.3,47
9.15,0.45,65
9.15,0.6,86
9.15,0.75,86
9.15,0.9,90
9.15,1.05,74
9.15,1.2,74
9.15,1.35,75
9.15,1.5,75
9.3,-1.5,55
9.3,-1.35,56
9.3,-1.2,59
9.3,-1.05,63
9.3,-0.9,97
9.3,-0.75,47
9.3,-0.6,80
9.3,-0.45,70
9.3,-0.3,16
9.3,-0.15,103
9.3,0.0,62
9.3,0.15,56
9.3,0.3,54
9.3,0.45,75
9.3,0.6,80
9.3,0.75,76
9.3,0.9,76
9.3,1.05,77
9.3,1.2,77
9.3,1.35,78
9.3,1.5,78
9.45,-1.5,55
9.45,-1.35,56
9.45,-1.2,56
9.45,-1.05,62
9.45,-0.9,64
9.45,-0.75,105
9.45,-0.6,68
9.45,-0.45,31
9.45,-0.3,87
9.45,-0.15,89
9.45,0.0,89
9.45,0.15,82
9.45,0.3,89
9.45,0.45,70
9.45,0.6,76
9.45,0.75,85
9.45,0.9,92
9.45,1.05,94
9.45,1.2,95
9.45,1.35,92
9.45,1.5,80
9.6,-1.5,73
9.6,-1.35,72
9.6,-1.2,70
9.6,-1.05,73
9.6,-0.9,21
9.6,-0.75,148
9.6,-0.6,168
9.6,-0.45,33
9.6,-0.3,106
9.6,-0.15,87
9.6,0.0,103
9.6,0.15,92
9.6,0.3,58
9.6,0.45,50
9.6,0.6,78
9.6,0.75,93
9.6,0.9,90
9.6,1.05,93
9.6,1.2,94
9.6,1.35,95
9.6,1.5,95
9.75,-1.5,103
9.75,-1.35,103
9.75,-1.2,104
9.75,-1.05,136
9.75,-0.9,156
9.75,-0.75,246
9.75,-0.6,127
9.75,-0.45,62
9.75,-0.3,193
9.75,-0.15,87
9.75,0.0,107
9.75,0.15,106
9.75,0.3,40
9.75,0.45,31
9.75,0.6,84
9.75,0.75,97
9.75,0.9,102
9.75,1.05,95
9.75,1.2,95
9.75,1.35,95
9.75,1.5,95
9.9,-1.5,117
9.9,-1.35,104
9.9,-1.2,139
9.9,-1.05,130
9.9,-0.9,87
9.9,-0.75,171
9.9,-0.6,122
9.9,-0.45,105
9.9,-0.3,120
9.9,-0.15,107
9.9,0.0,103
9.9,0.15,122
9.9,0.3,180
9.9,0.45,125
9.9,0.6,107
9.9,0.75,104
9.9,0.9,103
9.9,1.05,104
9.9,1.2,114
9.9,1.35,96
9.9,1.5,115
10.05,-1.5,138
10.05,-1.35,138
10.05,-1.2,146
10.05,-1.05,123
10.05,-0.9,119
10.05,-0.75,134
10.05,-0.6,140
10.05,-0.45,80
10.05,-0.3,17
10.05,-0.15,63
10.05,0.0,96
10.05,0.15,136
10.05,0.3,165
10.05,0.45,108
10.05,0.6,114
10.05,0.75,110
10.05,0.9,107
10.05,1.05,106
10.05,1.2,105
10.05,1.35,105
10.05,1.5,105
10.2,-1.5,129
10.2,-1.35,108
10.2,-1.2,104
10.2,-1.05,106
10.2,-0.9,90
10.2,-0.75,70
10.2,-0.6,70
10.2,-0.45,149
10.2,-0.3,91
10.2,-0.15,73
10.2,0.0,101
10.2,0.15,118
10.2,0.3,129
10.2,0.45,128
10.2,0.6,122
10.2,0.75,119
10.2,0.9,109
10.2,1.05,107
10.2,1.2,106
10.2,1.35,106
10.2,1.5,106
10.35,-1.5,111
10.35,-1.35,115
10.35,-1.2,123
10.35,-1.05,97
10.35,-0.9,72
10.35,-0.75,70
10.35,-0.6,79
10.35,-0.45,101
10.35,-0.3,101
10.35,-0.15,79
10.35,0.0,85
10.35,0.15,118
10.35,0.3,123
10.35,0.45,123
10.35,0.6,121
10.35,0.75,115
10.35,0.9,113
10.35,1.05,112
10.35,1.2,111
10.35,1.35,110
10.35,1.5,110
10.5,-1.5,117
10.5,-1.35,126
10.5,-1.2,143
10.5,-1.05,162
10.5,-0.9,30
10.5,-0.75,69
10.5,-0.6,89
10.5,-0.45,103
10.5,-0.3,105
10.5,-0.15,116
10.5,0.0,114
10.5,0.15,118
10.5,0.3,121
10.5,0.45,115
10.5,0.6,115
10.5,0.75,121
10.5,0.9,121
10.5,1.05,121
10.5,1.2,121
10.5,1.35,107
10.5,1.5,107
10.65,-1.5,128
10.65,-1.35,136
10.65,-1.2,157
10.65,-1.05,208
10.65,-0.9,111
10.65,-0.75,59
10.65,-0.6,189
10.65,-0.45,94
10.65,-0.3,109
10.65,-0.15,119
10.65,0.0,119
10.65,0.15,136
10.65,0.3,126
10.65,0.45,121
10.65,0.6,120
10.65,0.75,116
10.65,0.9,114
10.65,1.05,102
10.65,1.2,101
10.65,1.35,100
10.65,1.5,124
10.8,-1.5,111
10.8,-1.35,117
10.8,-1.2,124
10.8,-1.05,128
10.8,-0.9,137
10.8,-0.75,77
10.8,-0.6,88
10.8,-0.45,32
10.8,-0.3,124
10.8,-0.15,110
10.8,0.0,101
10.8,0.15,92
10.8,0.3,94
10.8,0.45,95
10.8,0.6,95
10.8,0.75,94
10.8,0.9,94
10.8,1.05,93
10.8,1.2,96
10.8,1.35,96
10.8,1.5,95
10.95,-1.5,105
10.95,-1.35,105
10.95,-1.2,103
10.95,-1.05,85
10.95,-0.9,104
10.95,-0.75,88
10.95,-0.6,69
10.95,-0.45,156
10.95,-0.3,156
10.95,-0.15,110
10.95,0.0,97
10.95,0.15,88
10.95,0.3,88
10.95,0.45,89
10.95,0.6,86
10.95,0.75,69
10.95,0.9,69
10.95,1.05,69
10.95,1.2,86
10.95,1.35,85
10.95,1.5,67
11.1,-1.5,110
11.1,-1.35,107
11.1,-1.2,97
11.1,-1.05,76
11.1,-0.9,59
11.1,-0.75,0
11.1,-0.6,0
11.1,-0.45,38
11.1,-0.3,69
11.1,-0.15,72
11.1,0.0,67
11.1,0.15,75
11.1,0.3,74
11.1,0.45,61
11.1,0.6,61
11.1,0.75,82
11.1,0.9,69
11.1,1.05,70
11.1,1.2,86
11.1,1.35,70
11.1,1.5,69
11.25,-1.5,117
11.25,-1.35,112
11.25,-1.2,81
11.25,-1.05,78
11.25,-0.9,66
11.25,-0.75,34
11.25,-0.6,17
11.25,-0.45,11
11.25,-0.3,25
11.25,-0.15,46
11.25,0.0,54
11.25,0.15,57
11.25,0.3,58
11.25,0.45,58
11.25,0.6,58
11.25,0.75,63
11.25,0.9,85
11.25,1.05,86
11.25,1.2,86
11.25,1.35,86
11.25,1.5,85
11.4,-1.5,85
11.4,-1.35,98
11.4,-1.2,88
11.4,-1.05,92
11.4,-0.9,99
11.4,-0.75,92
11.4,-0.6,60
11.4,-0.45,15
11.4,-0.3,18
11.4,-0.15,39
11.4,0.0,47
11.4,0.15,56
11.4,0.3,59
11.4,0.45,60
11.4,0.6,61
11.4,0.75,61
11.4,0.9,62
11.4,1.05,83
11.4,1.2,83
11.4,1.35,83
11.4,1.5,82
11.55,-1.5,75
11.55,-1.35,84
11.55,-1.2,87
11.55,-1.05,94
11.55,-0.9,103
11.55,-0.75,132
11.55,-0.6,61
11.55,-0.45,45
11.55,-0.3,56
11.55,-0.15,52
11.55,0.0,53
11.55,0.15,60
11.55,0.3,60
11.55,0.45,57
11.55,0.6,59
11.55,0.75,59
11.55,0.9,60
11.55,1.05,59
11.55,1.2,58
11.55,1.35,78
11.55,1.5,77
11.7,-1.5,77
11.7,-1.35,75
11.7,-1.2,73
11.7,-1.05,71
11.7,-0.9,89
11.7,-0.75,135
11.7,-0.6,154
11.7,-0.45,92
11.7,-0.3,68
11.7,-0.15,60
11.7,0.0,54
11.7,0.15,53
11.7,0.3,52
11.7,0.45,52
11.7,0.6,52
11.7,0.75,52
11.7,0.9,32
11.7,1.05,46
11.7,1.2,50
11.7,1.35,49
11.7,1.5,52
11.85,-1.5,51
11.85,-1.35,70
11.85,-1.2,61
11.85,-1.05,45
11.85,-0.9,9
11.85,-0.75,106
11.85,-0.6,108
11.85,-0.45,75
11.85,-0.3,62
11.85,-0.15,59
11.85,0.0,57
11.85,0.15,53
11.85,0.3,52
11.85,0.45,52
11.85,0.6,53
11.85,0.75,53
11.85,0.9,31
11.85,1.05,30
11.85,1.2,29
11.85,1.35,41
11.85,1.5,41
12.0,-1.5,53
12.0,-1.35,50
12.0,-1.2,45
12.0,-1.05,35
12.0,-0.9,0
12.0,-0.75,83
12.0,-0.6,91
12.0,-0.45,59
12.0,-0.3,69
12.0,-0.15,87
12.0,0.0,75
12.0,0.15,73
12.0,0.3,69
12.0,0.45,70
12.0,0.6,70
12.0,0.75,69
12.0,0.9,66
12.0,1.05,63
12.0,1.2,60
12.0,1.35,57
12.0,1.5,54
12.15,-1.5,56
12.15,-1.35,55
12.15,-1.2,51
12.15,-1.05,56
12.15,-0.9,30
12.15,-0.75,29
12.15,-0.6,88
12.15,-0.45,16
12.15,-0.3,64
12.15,-0.15,82
12.15,0.0,87
12.15,0.15,102
12.15,0.3,104
12.15,0.45,77
12.15,0.6,72
12.15,0.75,69
12.15,0.9,65
12.15,1.05,61
12.15,1.2,56
12.15,1.35,52
12.15,1.5,48
12.3,-1.5,39
12.3,-1.35,56
12.3,-1.2,56
12.3,-1.05,54
12.3,-0.9,82
12.3,-0.75,83
12.3,-0.6,169
12.3,-0.45,140
12.3,-0.3,91
12.3,-0.15,88
12.3,0.0,87
12.3,0.15,87
12.3,0.3,87
12.3,0.45,106
12.3,0.6,76
12.3,0.75,67
12.3,0.9,62
12.3,1.05,56
12.3,1.2,50
12.3,1.35,45
12.3,1.5,40
12.45,-1.5,39
12.45,-1.35,44
12.45,-1.2,51
12.45,-1.05,76
12.45,-0.9,105
12.45,-0.75,97
12.45,-0.6,127
12.45,-0.45,116
12.45,-0.3,89
12.45,-0.15,86
12.45,0.0,87
12.45,0.15,86
12.45,0.3,86
12.45,0.45,58
12.45,0.6,55
12.45,0.75,76
12.45,0.9,62
12.45,1.05,54
12.45,1.2,45
12.45,1.35,34
12.45,1.5,30
12.6,-1.5,33
12.6,-1.35,42
12.6,-1.2,70
12.6,-1.05,95
12.6,-0.9,170
12.6,-0.75,109
12.6,-0.6,30
12.6,-0.45,50
12.6,-0.3,73
12.6,-0.15,79
12.6,0.0,78
12.6,0.15,77
12.6,0.3,77
12.6,0.45,57
12.6,0.6,54
12.6,0.75,49
12.6,0.9,42
12.6,1.05,33
12.6,1.2,33
12.6,1.35,23
12.6,1.5,18
12.75,-1.5,21
12.75,-1.35,44
12.75,-1.2,66
12.75,-1.05,95
12.75,-0.9,103
12.75,-0.75,94
12.75,-0.6,33
12.75,-0.45,39
12.75,-0.3,63
12.75,-0.15,71
12.75,0.0,77
12.75,0.15,77
12.75,0.3,77
12.75,0.45,74
12.75,0.6,70
12.75,0.75,62
12.75,0.9,51
12.75,1.05,27
12.75,1.2,15
12.75,1.35,5
12.75,1.5,1
12.9,-1.5,1
12.9,-1.35,22
12.9,-1.2,63
12.9,-1.05,79
12.9,-0.9,71
12.9,-0.75,70
12.9,-0.6,64
12.9,-0.45,60
12.9,-0.3,66
12.9,-0.15,70
12.9,0.0,76
12.9,0.15,77
12.9,0.3,77
12.9,0.45,73
12.9,0.6,68
12.9,0.75,60
12.9,0.9,47
12.9,1.05,31
12.9,1.2,13
12.9,1.35,0
12.9,1.5,0
13.05,-1.5,0
13.05,-1.35,16
13.05,-1.2,54
13.05,-1.05,72
13.05,-0.9,75
13.05,-0.75,73
13.05,-0.6,71
13.05,-0.45,69
13.05,-0.3,70
13.05,-0.15,71
13.05,0.0,72
13.05,0.15,77
13.05,0.3,76
13.05,0.45,72
13.05,0.6,67
13.05,0.75,58
13.05,0.9,46
13.05,1.05,29
13.05,1.2,11
13.05,1.35,0
13.05,1.5,0
