-3.0,-1.5,0
-3.0,-1.35,0
-3.0,-1.2,0
-3.0,-1.05,5
-3.0,-0.9,13
-3.0,-0.75,22
-3.0,-0.6,30
-3.0,-0.45,38
-3.0,-0.3,45
-3.0,-0.15,50
-3.0,0.0,54
-3.0,0.15,56
-3.0,0.3,57
-3.0,0.45,55
-3.0,0.6,50
-3.0,0.75,41
-3.0,0.9,28
-3.0,1.05,14
-3.0,1.2,2
-3.0,1.35,0
-3.0,1.5,0
-2.85,-1.5,0
-2.85,-1.35,0
-2.85,-1.2,0
-2.85,-1.05,6
-2.85,-0.9,15
-2.85,-0.75,24
-2.85,-0.6,32
-2.85,-0.45,40
-2.85,-0.3,46
-2.85,-0.15,52
-2.85,0.0,56
-2.85,0.15,59
-2.85,0.3,60
-2.85,0.45,59
-2.85,0.6,54
-2.85,0.75,44
-2.85,0.9,31
-2.85,1.05,16
-2.85,1.2,4
-2.85,1.35,0
-2.85,1.5,0
-2.7,-1.5,0
-2.7,-1.35,0
-2.7,-1.2,4
-2.7,-1.05,10
-2.7,-0.9,18
-2.7,-0.75,26
-2.7,-0.6,34
-2.7,-0.45,41
-2.7,-0.3,47
-2.7,-0.15,52
-2.7,0.0,56
-2.7,0.15,59
-2.7,0.3,60
-2.7,0.45,59
-2.7,0.6,55
-2.7,0.75,46
-2.7,0.9,34
-2.7,1.05,21
-2.7,1.2,10
-2.7,1.35,3
-2.7,1.5,0
-2.55,-1.5,4
-2.55,-1.35,5
-2.55,-1.2,9
-2.55,-1.05,15
-2.55,-0.9,22
-2.55,-0.75,29
-2.55,-0.6,36
-2.55,-0.45,42
-2.55,-0.3,47
-2.55,-0.15,52
-2.55,0.0,55
-2.55,0.15,58
-2.55,0.3,59
-2.55,0.45,57
-2.55,0.6,53
-2.55,0.75,46
-2.55,0.9,36
-2.55,1.05,26
-2.55,1.2,17
-2.55,1.35,10
-2.55,1.5,7
-2.4,-1.5,10
-2.4,-1.35,12
-2.4,-1.2,16
-2.4,-1.05,20
-2.4,-0.9,26
-2.4,-0.75,32
-2.4,-0.6,38
-2.4,-0.45,43
-2.4,-0.3,47
-2.4,-0.15,51
-2.4,0.0,54
-2.4,0.15,55
-2.4,0.3,56
-2.4,0.45,55
-2.4,0.6,51
-2.4,0.75,46
-2.4,0.9,38
-2.4,1.05,30
-2.4,1.2,23
-2.4,1.35,18
-2.4,1.5,14
-2.25,-1.5,18
-2.25,-1.35,19
-2.25,-1.2,22
-2.25,-1.05,26
-2.25,-0.9,31
-2.25,-0.75,35
-2.25,-0.6,40
-2.25,-0.45,44
-2.25,-0.3,47
-2.25,-0.15,50
-2.25,0.0,52
-2.25,0.15,53
-2.25,0.3,53
-2.25,0.45,52
-2.25,0.6,49
-2.25,0.75,45
-2.25,0.9,40
-2.25,1.05,34
-2.25,1.2,29
-2.25,1.35,24
-2.25,1.5,21
-2.1,-1.5,25
-2.1,-1.35,26
-2.1,-1.2,28
-2.1,-1.05,31
-2.1,-0.9,35
-2.1,-0.75,39
-2.1,-0.6,42
-2.1,-0.45,45
-2.1,-0.3,48
-2.1,-0.15,50
-2.1,0.0,51
-2.1,0.15,52
-2.1,0.3,52
-2.1,0.45,50
-2.1,0.6,48
-2.1,0.75,45
-2.1,0.9,41
-2.1,1.05,37
-2.1,1.2,33
-2.1,1.35,30
-2.1,1.5,28
-1.95,-1.5,31
-1.95,-1.35,32
-1.95,-1.2,34
-1.95,-1.05,37
-1.95,-0.9,39
-1.95,-0.75,42
-1.95,-0.6,45
-1.95,-0.45,47
-1.95,-0.3,49
-1.95,-0.15,50
-1.95,0.0,51
-1.95,0.15,51
-1.95,0.3,51
-1.95,0.45,50
-1.95,0.6,48
-1.95,0.75,46
-1.95,0.9,43
-1.95,1.05,40
-1.95,1.2,38
-1.95,1.35,35
-1.95,1.5,33
-1.8,-1.5,37
-1.8,-1.35,38
-1.8,-1.2,40
-1.8,-1.05,41
-1.8,-0.9,43
-1.8,-0.75,45
-1.8,-0.6,47
-1.8,-0.45,49
-1.8,-0.3,50
-1.8,-0.15,51
-1.8,0.0,51
-1.8,0.15,52
-1.8,0.3,51
-1.8,0.45,51
-1.8,0.6,49
-1.8,0.75,48
-1.8,0.9,46
-1.8,1.05,44
-1.8,1.2,42
-1.8,1.35,40
-1.8,1.5,38
-1.65,-1.5,43
-1.65,-1.35,43
-1.65,-1.2,44
-1.65,-1.05,46
-1.65,-0.9,47
-1.65,-0.75,49
-1.65,-0.6,50
-1.65,-0.45,51
-1.65,-0.3,52
-1.65,-0.15,53
-1.65,0.0,53
-1.65,0.15,53
-1.65,0.3,53
-1.65,0.45,52
-1.65,0.6,51
-1.65,0.75,50
-1.65,0.9,48
-1.65,1.05,47
-1.65,1.2,45
-1.65,1.35,44
-1.65,1.5,43
-1.5,-1.5,47
-1.5,-1.35,48
-1.5,-1.2,49
-1.5,-1.05,50
-1.5,-0.9,51
-1.5,-0.75,52
-1.5,-0.6,53
-1.5,-0.45,54
-1.5,-0.3,54
-1.5,-0.15,55
-1.5,0.0,55
-1.5,0.15,55
-1.5,0.3,54
-1.5,0.45,54
-1.5,0.6,53
-1.5,0.75,52
-1.5,0.9,51
-1.5,1.05,50
-1.5,1.2,49
-1.5,1.35,48
-1.5,1.5,47
-1.35,-1.5,52
-1.35,-1.35,52
-1.35,-1.2,53
-1.35,-1.05,54
-1.35,-0.9,55
-1.35,-0.75,55
-1.35,-0.6,56
-1.35,-0.45,56
-1.35,-0.3,57
-1.35,-0.15,57
-1.35,0.0,57
-1.35,0.15,57
-1.35,0.3,57
-1.35,0.45,56
-1.35,0.6,56
-1.35,0.75,55
-1.35,0.9,54
-1.35,1.05,53
-1.35,1.2,52
-1.35,1.35,52
-1.35,1.5,51
-1.2,-1.5,59
-1.2,-1.35,56
-1.2,-1.2,57
-1.2,-1.05,57
-1.2,-0.9,58
-1.2,-0.75,58
-1.2,-0.6,59
-1.2,-0.45,59
-1.2,-0.3,60
-1.2,-0.15,60
-1.2,0.0,60
-1.2,0.15,60
-1.2,0.3,59
-1.2,0.45,59
-1.2,0.6,58
-1.2,0.75,58
-1.2,0.9,57
-1.2,1.05,56
-1.2,1.2,56
-1.2,1.35,55
-1.2,1.5,54
-1.05,-1.5,63
-1.05,-1.35,63
-1.05,-1.2,64
-1.05,-1.05,64
-1.05,-0.9,61
-1.05,-0.75,61
-1.05,-0.6,62
-1.05,-0.45,62
-1.05,-0.3,62
-1.05,-0.15,62
-1.05,0.0,62
-1.05,0.15,62
-1.05,0.3,62
-1.05,0.45,61
-1.05,0.6,61
-1.05,0.75,61
-1.05,0.9,60
-1.05,1.05,59
-1.05,1.2,59
-1.05,1.35,58
-1.05,1.5,61
-0.9,-1.5,65
-0.9,-1.35,66
-0.9,-1.2,66
-0.9,-1.05,67
-0.9,-0.9,67
-0.9,-0.75,68
-0.9,-0.6,68
-0.9,-0.45,65
-0.9,-0.3,65
-0.9,-0.15,65
-0.9,0.0,65
-0.9,0.15,65
-0.9,0.3,64
-0.9,0.45,64
-0.9,0.6,64
-0.9,0.75,63
-0.9,0.9,67
-0.9,1.05,66
-0.9,1.2,65
-0.9,1.35,65
-0.9,1.5,64
-0.75,-1.5,68
-0.75,-1.35,68
-0.75,-1.2,68
-0.75,-1.05,69
-0.75,-0.9,69
-0.75,-0.75,70
-0.75,-0.6,70
-0.75,-0.45,71
-0.75,-0.3,71
-0.75,-0.15,71
-0.75,0.0,67
-0.75,0.15,67
-0.75,0.3,71
-0.75,0.45,70
-0.75,0.6,70
-0.75,0.75,69
-0.75,0.9,69
-0.75,1.05,68
-0.75,1.2,68
-0.75,1.35,67
-0.75,1.5,66
-0.6,-1.5,70
-0.6,-1.35,70
-0.6,-1.2,70
-0.6,-1.05,71
-0.6,-0.9,71
-0.6,-0.75,71
-0.6,-0.6,72
-0.6,-0.45,72
-0.6,-0.3,76
-0.6,-0.15,76
-0.6,0.0,76
-0.6,0.15,76
-0.6,0.3,72
-0.6,0.45,72
-0.6,0.6,71
-0.6,0.75,71
-0.6,0.9,71
-0.6,1.05,70
-0.6,1.2,70
-0.6,1.35,69
-0.6,1.5,69
-0.45,-1.5,71
-0.45,-1.35,71
-0.45,-1.2,72
-0.45,-1.05,72
-0.45,-0.9,77
-0.45,-0.75,77
-0.45,-0.6,77
-0.45,-0.45,77
-0.45,-0.3,77
-0.45,-0.15,77
-0.45,0.0,77
-0.45,0.15,77
-0.45,0.3,77
-0.45,0.45,77
-0.45,0.6,77
-0.45,0.75,73
-0.45,0.9,72
-0.45,1.05,72
-0.45,1.2,71
-0.45,1.35,71
-0.45,1.5,70
-0.3,-1.5,72
-0.3,-1.35,77
-0.3,-1.2,77
-0.3,-1.05,77
-0.3,-0.9,77
-0.3,-0.75,77
-0.3,-0.6,76
-0.3,-0.45,76
-0.3,-0.3,76
-0.3,-0.15,77
-0.3,0.0,77
-0.3,0.15,77
-0.3,0.3,77
-0.3,0.45,77
-0.3,0.6,77
-0.3,0.75,77
-0.3,0.9,77
-0.3,1.05,78
-0.3,1.2,73
-0.3,1.35,72
-0.3,1.5,72
-0.15,-1.5,77
-0.15,-1.35,77
-0.15,-1.2,77
-0.15,-1.05,77
-0.15,-0.9,76
-0.15,-0.75,76
-0.15,-0.6,76
-0.15,-0.45,76
-0.15,-0.3,76
-0.15,-0.15,76
-0.15,0.0,76
-0.15,0.15,77
-0.15,0.3,77
-0.15,0.45,77
-0.15,0.6,77
-0.15,0.75,77
-0.15,0.9,78
-0.15,1.05,78
-0.15,1.2,78
-0.15,1.35,78
-0.15,1.5,78
0.0,-1.5,77
0.0,-1.35,77
0.0,-1.2,77
0.0,-1.05,76
0.0,-0.9,76
0.0,-0.75,76
0.0,-0.6,76
0.0,-0.45,76
0.0,-0.3,76
0.0,-0.15,76
0.0,0.0,76
0.0,0.15,76
0.0,0.3,77
0.0,0.45,77
0.0,0.6,77
0.0,0.75,77
0.0,0.9,78
0.0,1.05,78
0.0,1.2,78
0.0,1.35,78
0.0,1.5,78
0.15,-1.5,77
0.15,-1.35,77
0.15,-1.2,76
0.15,-1.05,76
0.15,-0.9,76
0.15,-0.75,76
0.15,-0.6,75
0.15,-0.45,75
0.15,-0.3,75
0.15,-0.15,75
0.15,0.0,75
0.15,0.15,76
0.15,0.3,76
0.15,0.45,77
0.15,0.6,77
0.15,0.75,77
0.15,0.9,78
0.15,1.05,78
0.15,1.2,78
0.15,1.35,78
0.15,1.5,78
0.3,-1.5,77
0.3,-1.35,77
0.3,-1.2,76
0.3,-1.05,76
0.3,-0.9,76
0.3,-0.75,75
0.3,-0.6,75
0.3,-0.45,74
0.3,-0.3,74
0.3,-0.15,74
0.3,0.0,75
0.3,0.15,75
0.3,0.3,76
0.3,0.45,77
0.3,0.6,77
0.3,0.75,78
0.3,0.9,78
0.3,1.05,78
0.3,1.2,78
0.3,1.35,78
0.3,1.5,78
0.45,-1.5,77
0.45,-1.35,77
0.45,-1.2,76
0.45,-1.05,76
0.45,-0.9,76
0.45,-0.75,75
0.45,-0.6,74
0.45,-0.45,73
0.45,-0.3,73
0.45,-0.15,73
0.45,0.0,73
0.45,0.15,75
0.45,0.3,76
0.45,0.45,77
0.45,0.6,77
0.45,0.75,78
0.45,0.9,78
0.45,1.05,78
0.45,1.2,78
0.45,1.35,78
0.45,1.5,78
0.6,-1.5,72
0.6,-1.35,76
0.6,-1.2,76
0.6,-1.05,76
0.6,-0.9,76
0.6,-0.75,75
0.6,-0.6,74
0.6,-0.45,72
0.6,-0.3,70
0.6,-0.15,70
0.6,0.0,71
0.6,0.15,74
0.6,0.3,76
0.6,0.45,77
0.6,0.6,78
0.6,0.75,78
0.6,0.9,78
0.6,1.05,78
0.6,1.2,78
0.6,1.35,78
0.6,1.5,78
0.75,-1.5,72
0.75,-1.35,72
0.75,-1.2,76
0.75,-1.05,76
0.75,-0.9,76
0.75,-0.75,75
0.75,-0.6,73
0.75,-0.45,70
0.75,-0.3,66
0.75,-0.15,65
0.75,0.0,69
0.75,0.15,73
0.75,0.3,76
0.75,0.45,77
0.75,0.6,78
0.75,0.75,78
0.75,0.9,78
0.75,1.05,78
0.75,1.2,78
0.75,1.35,78
0.75,1.5,77
0.9,-1.5,72
0.9,-1.35,72
0.9,-1.2,73
0.9,-1.05,76
0.9,-0.9,76
0.9,-0.75,75
0.9,-0.6,74
0.9,-0.45,70
0.9,-0.3,63
0.9,-0.15,61
0.9,0.0,68
0.9,0.15,74
0.9,0.3,77
0.9,0.45,78
0.9,0.6,79
0.9,0.75,79
0.9,0.9,79
0.9,1.05,79
0.9,1.2,78
0.9,1.35,77
0.9,1.5,77
1.05,-1.5,72
1.05,-1.35,72
1.05,-1.2,72
1.05,-1.05,76
1.05,-0.9,76
1.05,-0.75,76
1.05,-0.6,75
1.05,-0.45,73
1.05,-0.3,68
1.05,-0.15,66
1.05,0.0,72
1.05,0.15,77
1.05,0.3,79
1.05,0.45,79
1.05,0.6,79
1.05,0.75,79
1.05,0.9,79
1.05,1.05,79
1.05,1.2,77
1.05,1.35,77
1.05,1.5,77
1.2,-1.5,71
1.2,-1.35,72
1.2,-1.2,72
1.2,-1.05,73
1.2,-0.9,77
1.2,-0.75,77
1.2,-0.6,77
1.2,-0.45,78
1.2,-0.3,78
1.2,-0.15,78
1.2,0.0,80
1.2,0.15,81
1.2,0.3,81
1.2,0.45,81
1.2,0.6,80
1.2,0.75,80
1.2,0.9,77
1.2,1.05,77
1.2,1.2,77
1.2,1.35,77
1.2,1.5,78
1.35,-1.5,71
1.35,-1.35,71
1.35,-1.2,72
1.35,-1.05,72
1.35,-0.9,73
1.35,-0.75,77
1.35,-0.6,78
1.35,-0.45,80
1.35,-0.3,84
1.35,-0.15,88
1.35,0.0,87
1.35,0.15,86
1.35,0.3,84
1.35,0.45,82
1.35,0.6,81
1.35,0.75,77
1.35,0.9,77
1.35,1.05,77
1.35,1.2,77
1.35,1.35,78
1.35,1.5,93
1.5,-1.5,70
1.5,-1.35,70
1.5,-1.2,71
1.5,-1.05,71
1.5,-0.9,72
1.5,-0.75,73
1.5,-0.6,76
1.5,-0.45,77
1.5,-0.3,88
1.5,-0.15,98
1.5,0.0,93
1.5,0.15,88
1.5,0.3,84
1.5,0.45,82
1.5,0.6,77
1.5,0.75,77
1.5,0.9,79
1.5,1.05,78
1.5,1.2,92
1.5,1.35,92
1.5,1.5,93
1.65,-1.5,86
1.65,-1.35,65
1.65,-1.2,66
1.65,-1.05,66
1.65,-0.9,67
1.65,-0.75,68
1.65,-0.6,70
1.65,-0.45,68
1.65,-0.3,79
1.65,-0.15,129
1.65,0.0,87
1.65,0.15,87
1.65,0.3,83
1.65,0.45,77
1.65,0.6,79
1.65,0.75,78
1.65,0.9,78
1.65,1.05,92
1.65,1.2,92
1.65,1.35,92
1.65,1.5,93
1.8,-1.5,88
1.8,-1.35,85
1.8,-1.2,64
1.8,-1.05,64
1.8,-0.9,65
1.8,-0.75,66
1.8,-0.6,68
1.8,-0.45,78
1.8,-0.3,69
1.8,-0.15,102
1.8,0.0,88
1.8,0.15,79
1.8,0.3,79
1.8,0.45,77
1.8,0.6,77
1.8,0.75,89
1.8,0.9,91
1.8,1.05,91
1.8,1.2,92
1.8,1.35,78
1.8,1.5,78
1.95,-1.5,73
1.95,-1.35,71
1.95,-1.2,72
1.95,-1.05,62
1.95,-0.9,62
1.95,-0.75,62
1.95,-0.6,63
1.95,-0.45,72
1.95,-0.3,67
1.95,-0.15,72
1.95,0.0,64
1.95,0.15,72
1.95,0.3,73
1.95,0.45,70
1.95,0.6,87
1.95,0.75,89
1.95,0.9,77
1.95,1.05,78
1.95,1.2,78
1.95,1.35,78
1.95,1.5,84
2.1,-1.5,87
2.1,-1.35,80
2.1,-1.2,73
2.1,-1.05,68
2.1,-0.9,48
2.1,-0.75,48
2.1,-0.6,53
2.1,-0.45,58
2.1,-0.3,55
2.1,-0.15,58
2.1,0.0,59
2.1,0.15,59
2.1,0.3,68
2.1,0.45,73
2.1,0.6,72
2.1,0.75,73
2.1,0.9,74
2.1,1.05,74
2.1,1.2,84
2.1,1.35,84
2.1,1.5,85
2.25,-1.5,108
2.25,-1.35,124
2.25,-1.2,121
2.25,-1.05,111
2.25,-0.9,84
2.25,-0.75,55
2.25,-0.6,44
2.25,-0.45,13
2.25,-0.3,14
2.25,-0.15,44
2.25,0.0,58
2.25,0.15,62
2.25,0.3,72
2.25,0.45,77
2.25,0.6,76
2.25,0.75,76
2.25,0.9,80
2.25,1.05,81
2.25,1.2,86
2.25,1.35,86
2.25,1.5,86
2.4,-1.5,118
2.4,-1.35,119
2.4,-1.2,124
2.4,-1.05,122
2.4,-0.9,114
2.4,-0.75,91
2.4,-0.6,69
2.4,-0.45,63
2.4,-0.3,74
2.4,-0.15,90
2.4,0.0,56
2.4,0.15,74
2.4,0.3,84
2.4,0.45,82
2.4,0.6,80
2.4,0.75,83
2.4,0.9,87
2.4,1.05,87
2.4,1.2,101
2.4,1.35,101
2.4,1.5,101
2.55,-1.5,118
2.55,-1.35,122
2.55,-1.2,128
2.55,-1.05,134
2.55,-0.9,135
2.55,-0.75,132
2.55,-0.6,109
2.55,-0.45,97
2.55,-0.3,151
2.55,-0.15,88
2.55,0.0,67
2.55,0.15,83
2.55,0.3,108
2.55,0.45,90
2.55,0.6,103
2.55,0.75,115
2.55,0.9,116
2.55,1.05,116
2.55,1.2,116
2.55,1.35,117
2.55,1.5,117
2.7,-1.5,128
2.7,-1.35,133
2.7,-1.2,134
2.7,-1.05,153
2.7,-0.9,186
2.7,-0.75,182
2.7,-0.6,114
2.7,-0.45,58
2.7,-0.3,93
2.7,-0.15,74
2.7,0.0,67
2.7,0.15,131
2.7,0.3,117
2.7,0.45,114
2.7,0.6,116
2.7,0.75,117
2.7,0.9,118
2.7,1.05,118
2.7,1.2,132
2.7,1.35,147
2.7,1.5,148
2.85,-1.5,151
2.85,-1.35,155
2.85,-1.2,153
2.85,-1.05,175
2.85,-0.9,241
2.85,-0.75,255
2.85,-0.6,116
2.85,-0.45,92
2.85,-0.3,81
2.85,-0.15,88
2.85,0.0,90
2.85,0.15,89
2.85,0.3,91
2.85,0.45,116
2.85,0.6,118
2.85,0.75,119
2.85,0.9,132
2.85,1.05,147
2.85,1.2,148
2.85,1.35,172
2.85,1.5,173
3.0,-1.5,148
3.0,-1.35,153
3.0,-1.2,161
3.0,-1.05,188
3.0,-0.9,193
3.0,-0.75,170
3.0,-0.6,40
3.0,-0.45,43
3.0,-0.3,104
3.0,-0.15,83
3.0,0.0,87
3.0,0.15,122
3.0,0.3,121
3.0,0.45,125
3.0,0.6,139
3.0,0.75,144
3.0,0.9,167
3.0,1.05,169
3.0,1.2,169
3.0,1.35,152
3.0,1.5,156
3.15,-1.5,136
3.15,-1.35,140
3.15,-1.2,146
3.15,-1.05,154
3.15,-0.9,150
3.15,-0.75,122
3.15,-0.6,52
3.15,-0.45,49
3.15,-0.3,114
3.15,-0.15,33
3.15,0.0,54
3.15,0.15,101
3.15,0.3,149
3.15,0.45,136
3.15,0.6,135
3.15,0.75,143
3.15,0.9,145
3.15,1.05,141
3.15,1.2,140
3.15,1.35,139
3.15,1.5,128
3.3,-1.5,134
3.3,-1.35,139
3.3,-1.2,148
3.3,-1.05,157
3.3,-0.9,171
3.3,-0.75,196
3.3,-0.6,120
3.3,-0.45,55
3.3,-0.3,61
3.3,-0.15,61
3.3,0.0,88
3.3,0.15,68
3.3,0.3,148
3.3,0.45,157
3.3,0.6,150
3.3,0.75,144
3.3,0.9,140
3.3,1.05,138
3.3,1.2,130
3.3,1.35,127
3.3,1.5,125
3.45,-1.5,126
3.45,-1.35,131
3.45,-1.2,138
3.45,-1.05,151
3.45,-0.9,178
3.45,-0.75,255
3.45,-0.6,180
3.45,-0.45,79
3.45,-0.3,47
3.45,-0.15,59
3.45,0.0,154
3.45,0.15,58
3.45,0.3,255
3.45,0.45,191
3.45,0.6,154
3.45,0.75,140
3.45,0.9,133
3.45,1.05,128
3.45,1.2,125
3.45,1.35,122
3.45,1.5,121
3.6,-1.5,143
3.6,-1.35,125
3.6,-1.2,124
3.6,-1.05,138
3.6,-0.9,167
3.6,-0.75,255
3.6,-0.6,27
3.6,-0.45,47
3.6,-0.3,180
3.6,-0.15,56
3.6,0.0,76
3.6,0.15,111
3.6,0.3,189
3.6,0.45,156
3.6,0.6,122
3.6,0.75,112
3.6,0.9,106
3.6,1.05,102
3.6,1.2,100
3.6,1.35,98
3.6,1.5,89
3.75,-1.5,146
3.75,-1.35,147
3.75,-1.2,148
3.75,-1.05,132
3.75,-0.9,138
3.75,-0.75,125
3.75,-0.6,46
3.75,-0.45,10
3.75,-0.3,16
3.75,-0.15,74
3.75,0.0,180
3.75,0.15,98
3.75,0.3,25
3.75,0.45,36
3.75,0.6,73
3.75,0.75,75
3.75,0.9,80
3.75,1.05,80
3.75,1.2,81
3.75,1.35,82
3.75,1.5,83
3.9,-1.5,143
3.9,-1.35,143
3.9,-1.2,148
3.9,-1.05,145
3.9,-0.9,137
3.9,-0.75,83
3.9,-0.6,75
3.9,-0.45,47
3.9,-0.3,55
3.9,-0.15,50
3.9,0.0,98
3.9,0.15,59
3.9,0.3,29
3.9,0.45,18
3.9,0.6,18
3.9,0.75,56
3.9,0.9,58
3.9,1.05,62
3.9,1.2,54
3.9,1.35,66
3.9,1.5,68
4.05,-1.5,143
4.05,-1.35,148
4.05,-1.2,149
4.05,-1.05,123
4.05,-0.9,122
4.05,-0.75,106
4.05,-0.6,100
4.05,-0.45,137
4.05,-0.3,111
4.05,-0.15,58
4.05,0.0,146
4.05,0.15,66
4.05,0.3,82
4.05,0.45,62
4.05,0.6,47
4.05,0.75,35
4.05,0.9,44
4.05,1.05,54
4.05,1.2,76
4.05,1.35,63
4.05,1.5,63
4.2,-1.5,140
4.2,-1.35,120
4.2,-1.2,124
4.2,-1.05,137
4.2,-0.9,137
4.2,-0.75,153
4.2,-0.6,80
4.2,-0.45,13
4.2,-0.3,64
4.2,-0.15,30
4.2,0.0,58
4.2,0.15,225
4.2,0.3,118
4.2,0.45,83
4.2,0.6,50
4.2,0.75,3
4.2,0.9,55
4.2,1.05,81
4.2,1.2,66
4.2,1.35,70
4.2,1.5,70
4.35,-1.5,113
4.35,-1.35,109
4.35,-1.2,122
4.35,-1.05,109
4.35,-0.9,145
4.35,-0.75,255
4.35,-0.6,135
4.35,-0.45,0
4.35,-0.3,41
4.35,-0.15,93
4.35,0.0,142
4.35,0.15,43
4.35,0.3,161
4.35,0.45,133
4.35,0.6,87
4.35,0.75,48
4.35,0.9,60
4.35,1.05,68
4.35,1.2,73
4.35,1.35,63
4.35,1.5,64
4.5,-1.5,110
4.5,-1.35,113
4.5,-1.2,109
4.5,-1.05,118
4.5,-0.9,125
4.5,-0.75,151
4.5,-0.6,88
4.5,-0.45,93
4.5,-0.3,62
4.5,-0.15,115
4.5,0.0,62
4.5,0.15,43
4.5,0.3,146
4.5,0.45,51
4.5,0.6,83
4.5,0.75,75
4.5,0.9,68
4.5,1.05,57
4.5,1.2,36
4.5,1.35,49
4.5,1.5,50
4.65,-1.5,111
4.65,-1.35,113
4.65,-1.2,105
4.65,-1.05,112
4.65,-0.9,110
4.65,-0.75,106
4.65,-0.6,72
4.65,-0.45,3
4.65,-0.3,140
4.65,-0.15,28
4.65,0.0,24
4.65,0.15,32
4.65,0.3,44
4.65,0.45,37
4.65,0.6,65
4.65,0.75,50
4.65,0.9,50
4.65,1.05,50
4.65,1.2,50
4.65,1.35,50
4.65,1.5,51
4.8,-1.5,108
4.8,-1.35,108
4.8,-1.2,107
4.8,-1.05,105
4.8,-0.9,101
4.8,-0.75,89
4.8,-0.6,81
4.8,-0.45,82
4.8,-0.3,61
4.8,-0.15,102
4.8,0.0,76
4.8,0.15,51
4.8,0.3,37
4.8,0.45,58
4.8,0.6,60
4.8,0.75,63
4.8,0.9,64
4.8,1.05,60
4.8,1.2,50
4.8,1.35,51
4.8,1.5,51
4.95,-1.5,108
4.95,-1.35,106
4.95,-1.2,104
4.95,-1.05,82
4.95,-0.9,84
4.95,-0.75,85
4.95,-0.6,97
4.95,-0.45,89
4.95,-0.3,60
4.95,-0.15,79
4.95,0.0,42
4.95,0.15,28
4.95,0.3,199
4.95,0.45,117
4.95,0.6,61
4.95,0.75,81
4.95,0.9,85
4.95,1.05,88
4.95,1.2,85
4.95,1.35,85
4.95,1.5,62
5.1,-1.5,108
5.1,-1.35,107
5.1,-1.2,100
5.1,-1.05,96
5.1,-0.9,75
5.1,-0.75,71
5.1,-0.6,90
5.1,-0.45,144
5.1,-0.3,39
5.1,-0.15,0
5.1,0.0,39
5.1,0.15,92
5.1,0.3,132
5.1,0.45,103
5.1,0.6,69
5.1,0.75,85
5.1,0.9,98
5.1,1.05,98
5.1,1.2,95
5.1,1.35,97
5.1,1.5,98
5.25,-1.5,95
5.25,-1.35,93
5.25,-1.2,87
5.25,-1.05,84
5.25,-0.9,75
5.25,-0.75,50
5.25,-0.6,0
5.25,-0.45,36
5.25,-0.3,3
5.25,-0.15,55
5.25,0.0,35
5.25,0.15,176
5.25,0.3,199
5.25,0.45,159
5.25,0.6,80
5.25,0.75,75
5.25,0.9,89
5.25,1.05,95
5.25,1.2,98
5.25,1.35,100
5.25,1.5,88
5.4,-1.5,90
5.4,-1.35,89
5.4,-1.2,88
5.4,-1.05,86
5.4,-0.9,75
5.4,-0.75,68
5.4,-0.6,39
5.4,-0.45,39
5.4,-0.3,25
5.4,-0.15,205
5.4,0.0,26
5.4,0.15,6
5.4,0.3,62
5.4,0.45,76
5.4,0.6,92
5.4,0.75,69
5.4,0.9,69
5.4,1.05,79
5.4,1.2,99
5.4,1.35,102
5.4,1.5,108
5.55,-1.5,86
5.55,-1.35,82
5.55,-1.2,82
5.55,-1.05,75
5.55,-0.9,76
5.55,-0.75,92
5.55,-0.6,158
5.55,-0.45,85
5.55,-0.3,114
5.55,-0.15,44
5.55,0.0,34
5.55,0.15,56
5.55,0.3,13
5.55,0.45,24
5.55,0.6,48
5.55,0.75,72
5.55,0.9,79
5.55,1.05,86
5.55,1.2,87
5.55,1.35,88
5.55,1.5,88
5.7,-1.5,82
5.7,-1.35,82
5.7,-1.2,83
5.7,-1.05,95
5.7,-0.9,95
5.7,-0.75,84
5.7,-0.6,93
5.7,-0.45,87
5.7,-0.3,127
5.7,-0.15,76
5.7,0.0,61
5.7,0.15,64
5.7,0.3,83
5.7,0.45,43
5.7,0.6,67
5.7,0.75,90
5.7,0.9,95
5.7,1.05,95
5.7,1.2,93
5.7,1.35,92
5.7,1.5,91
5.85,-1.5,94
5.85,-1.35,95
5.85,-1.2,100
5.85,-1.05,103
5.85,-0.9,100
5.85,-0.75,90
5.85,-0.6,61
5.85,-0.45,71
5.85,-0.3,93
5.85,-0.15,21
5.85,0.0,50
5.85,0.15,26
5.85,0.3,157
5.85,0.45,102
5.85,0.6,140
5.85,0.75,116
5.85,0.9,104
5.85,1.05,96
5.85,1.2,96
5.85,1.35,94
5.85,1.5,92
6.0,-1.5,87
6.0,-1.35,87
6.0,-1.2,87
6.0,-1.05,87
6.0,-0.9,86
6.0,-0.75,87
6.0,-0.6,99
6.0,-0.45,145
6.0,-0.3,78
6.0,-0.15,26
6.0,0.0,5
6.0,0.15,52
6.0,0.3,65
6.0,0.45,134
6.0,0.6,232
6.0,0.75,135
6.0,0.9,126
6.0,1.05,96
6.0,1.2,92
6.0,1.35,89
6.0,1.5,88
6.15,-1.5,85
6.15,-1.35,85
6.15,-1.2,85
6.15,-1.05,84
6.15,-0.9,71
6.15,-0.75,70
6.15,-0.6,66
6.15,-0.45,62
6.15,-0.3,44
6.15,-0.15,77
6.15,0.0,240
6.15,0.15,54
6.15,0.3,66
6.15,0.45,84
6.15,0.6,106
6.15,0.75,95
6.15,0.9,89
6.15,1.05,88
6.15,1.2,87
6.15,1.35,87
6.15,1.5,86
6.3,-1.5,84
6.3,-1.35,83
6.3,-1.2,82
6.3,-1.05,68
6.3,-0.9,68
6.3,-0.75,63
6.3,-0.6,58
6.3,-0.45,44
6.3,-0.3,52
6.3,-0.15,48
6.3,0.0,99
6.3,0.15,179
6.3,0.3,10
6.3,0.45,75
6.3,0.6,37
6.3,0.75,25
6.3,0.9,59
6.3,1.05,79
6.3,1.2,81
6.3,1.35,83
6.3,1.5,84
6.45,-1.5,70
6.45,-1.35,72
6.45,-1.2,71
6.45,-1.05,71
6.45,-0.9,64
6.45,-0.75,45
6.45,-0.6,44
6.45,-0.45,41
6.45,-0.3,28
6.45,-0.15,42
6.45,0.0,48
6.45,0.15,111
6.45,0.3,79
6.45,0.45,65
6.45,0.6,46
6.45,0.75,26
6.45,0.9,56
6.45,1.05,69
6.45,1.2,76
6.45,1.35,88
6.45,1.5,86
6.6,-1.5,71
6.6,-1.35,70
6.6,-1.2,69
6.6,-1.05,50
6.6,-0.9,50
6.6,-0.75,46
6.6,-0.6,47
6.6,-0.45,54
6.6,-0.3,118
6.6,-0.15,60
6.6,0.0,42
6.6,0.15,97
6.6,0.3,85
6.6,0.45,80
6.6,0.6,62
6.6,0.75,53
6.6,0.9,75
6.6,1.05,85
6.6,1.2,91
6.6,1.35,95
6.6,1.5,98
6.75,-1.5,50
6.75,-1.35,50
6.75,-1.2,50
6.75,-1.05,50
6.75,-0.9,59
6.75,-0.75,59
6.75,-0.6,59
6.75,-0.45,59
6.75,-0.3,56
6.75,-0.15,171
6.75,0.0,79
6.75,0.15,90
6.75,0.3,108
6.75,0.45,103
6.75,0.6,99
6.75,0.75,96
6.75,0.9,69
6.75,1.05,69
6.75,1.2,93
6.75,1.35,96
6.75,1.5,98
6.9,-1.5,66
6.9,-1.35,70
6.9,-1.2,50
6.9,-1.05,50
6.9,-0.9,50
6.9,-0.75,51
6.9,-0.6,51
6.9,-0.45,51
6.9,-0.3,59
6.9,-0.15,14
6.9,0.0,114
6.9,0.15,141
6.9,0.3,173
6.9,0.45,116
6.9,0.6,106
6.9,0.75,101
6.9,0.9,89
6.9,1.05,88
6.9,1.2,87
6.9,1.35,87
6.9,1.5,112
7.05,-1.5,98
7.05,-1.35,98
7.05,-1.2,97
7.05,-1.05,96
7.05,-0.9,90
7.05,-0.75,88
7.05,-0.6,70
7.05,-0.45,68
7.05,-0.3,64
7.05,-0.15,170
7.05,0.0,195
7.05,0.15,90
7.05,0.3,96
7.05,0.45,110
7.05,0.6,103
7.05,0.75,102
7.05,0.9,91
7.05,1.05,89
7.05,1.2,91
7.05,1.35,91
7.05,1.5,91
7.2,-1.5,113
7.2,-1.35,113
7.2,-1.2,119
7.2,-1.05,120
7.2,-0.9,121
7.2,-0.75,123
7.2,-0.6,121
7.2,-0.45,137
7.2,-0.3,176
7.2,-0.15,92
7.2,0.0,96
7.2,0.15,90
7.2,0.3,90
7.2,0.45,101
7.2,0.6,103
7.2,0.75,103
7.2,0.9,107
7.2,1.05,89
7.2,1.2,89
7.2,1.35,89
7.2,1.5,89
7.35,-1.5,122
7.35,-1.35,123
7.35,-1.2,125
7.35,-1.05,128
7.35,-0.9,133
7.35,-0.75,136
7.35,-0.6,150
7.35,-0.45,186
7.35,-0.3,198
7.35,-0.15,83
7.35,0.0,43
7.35,0.15,112
7.35,0.3,133
7.35,0.45,99
7.35,0.6,104
7.35,0.75,103
7.35,0.9,130
7.35,1.05,132
7.35,1.2,117
7.35,1.35,116
7.35,1.5,116
7.5,-1.5,124
7.5,-1.35,126
7.5,-1.2,129
7.5,-1.05,128
7.5,-0.9,135
7.5,-0.75,158
7.5,-0.6,197
7.5,-0.45,237
7.5,-0.3,205
7.5,-0.15,125
7.5,0.0,207
7.5,0.15,73
7.5,0.3,129
7.5,0.45,133
7.5,0.6,121
7.5,0.75,119
7.5,0.9,136
7.5,1.05,135
7.5,1.2,135
7.5,1.35,135
7.5,1.5,119
7.65,-1.5,126
7.65,-1.35,143
7.65,-1.2,165
7.65,-1.05,164
7.65,-0.9,180
7.65,-0.75,185
7.65,-0.6,192
7.65,-0.45,199
7.65,-0.3,175
7.65,-0.15,168
7.65,0.0,174
7.65,0.15,179
7.65,0.3,197
7.65,0.45,179
7.65,0.6,161
7.65,0.75,146
7.65,0.9,129
7.65,1.05,129
7.65,1.2,139
7.65,1.35,138
7.65,1.5,137
7.8,-1.5,163
7.8,-1.35,178
7.8,-1.2,175
7.8,-1.05,177
7.8,-0.9,179
7.8,-0.75,182
7.8,-0.6,184
7.8,-0.45,198
7.8,-0.3,188
7.8,-0.15,179
7.8,0.0,124
7.8,0.15,255
7.8,0.3,255
7.8,0.45,206
7.8,0.6,173
7.8,0.75,151
7.8,0.9,144
7.8,1.05,148
7.8,1.2,131
7.8,1.35,131
7.8,1.5,131
7.95,-1.5,202
7.95,-1.35,202
7.95,-1.2,202
7.95,-1.05,203
7.95,-0.9,203
7.95,-0.75,221
7.95,-0.6,220
7.95,-0.45,200
7.95,-0.3,198
7.95,-0.15,195
7.95,0.0,198
7.95,0.15,254
7.95,0.3,255
7.95,0.45,222
7.95,0.6,199
7.95,0.75,189
7.95,0.9,174
7.95,1.05,170
7.95,1.2,158
7.95,1.35,156
7.95,1.5,140
8.1,-1.5,203
8.1,-1.35,204
8.1,-1.2,204
8.1,-1.05,204
8.1,-0.9,225
8.1,-0.75,224
8.1,-0.6,206
8.1,-0.45,208
8.1,-0.3,212
8.1,-0.15,217
8.1,0.0,218
8.1,0.15,207
8.1,0.3,206
8.1,0.45,204
8.1,0.6,199
8.1,0.75,190
8.1,0.9,186
8.1,1.05,174
8.1,1.2,171
8.1,1.35,168
8.1,1.5,157
8.25,-1.5,204
8.25,-1.35,204
8.25,-1.2,204
8.25,-1.05,227
8.25,-0.9,227
8.25,-0.75,227
8.25,-0.6,212
8.25,-0.45,219
8.25,-0.3,232
8.25,-0.15,255
8.25,0.0,255
8.25,0.15,140
8.25,0.3,163
8.25,0.45,187
8.25,0.6,193
8.25,0.75,189
8.25,0.9,187
8.25,1.05,184
8.25,1.2,182
8.25,1.35,171
8.25,1.5,169
8.4,-1.5,204
8.4,-1.35,228
8.4,-1.2,228
8.4,-1.05,228
8.4,-0.9,229
8.4,-0.75,212
8.4,-0.6,218
8.4,-0.45,228
8.4,-0.3,249
8.4,-0.15,255
8.4,0.0,255
8.4,0.15,100
8.4,0.3,150
8.4,0.45,180
8.4,0.6,189
8.4,0.75,191
8.4,0.9,187
8.4,1.05,185
8.4,1.2,183
8.4,1.35,181
8.4,1.5,171
8.55,-1.5,228
8.55,-1.35,228
8.55,-1.2,228
8.55,-1.05,229
8.55,-0.9,211
8.55,-0.75,215
8.55,-0.6,221
8.55,-0.45,230
8.55,-0.3,247
8.55,-0.15,255
8.55,0.0,255
8.55,0.15,213
8.55,0.3,184
8.55,0.45,187
8.55,0.6,191
8.55,0.75,191
8.55,0.9,191
8.55,1.05,186
8.55,1.2,184
8.55,1.35,183
8.55,1.5,181
8.7,-1.5,228
8.7,-1.35,228
8.7,-1.2,229
8.7,-1.05,210
8.7,-0.9,212
8.7,-0.75,216
8.7,-0.6,221
8.7,-0.45,228
8.7,-0.3,238
8.7,-0.15,246
8.7,0.0,242
8.7,0.15,223
8.7,0.3,208
8.7,0.45,195
8.7,0.6,193
8.7,0.75,193
8.7,0.9,191
8.7,1.05,190
8.7,1.2,185
8.7,1.35,183
8.7,1.5,182
8.85,-1.5,229
8.85,-1.35,229
8.85,-1.2,229
8.85,-1.05,210
8.85,-0.9,213
8.85,-0.75,216
8.85,-0.6,219
8.85,-0.45,224
8.85,-0.3,229
8.85,-0.15,232
8.85,0.0,229
8.85,0.15,221
8.85,0.3,213
8.85,0.45,198
8.85,0.6,195
8.85,0.75,194
8.85,0.9,192
8.85,1.05,191
8.85,1.2,189
8.85,1.35,184
8.85,1.5,183
9.0,-1.5,229
9.0,-1.35,229
9.0,-1.2,209
9.0,-1.05,210
9.0,-0.9,212
9.0,-0.75,215
9.0,-0.6,218
9.0,-0.45,220
9.0,-0.3,223
9.0,-0.15,224
9.0,0.0,222
9.0,0.15,218
9.0,0.3,214
9.0,0.45,210
9.0,0.6,196
9.0,0.75,194
9.0,0.9,192
9.0,1.05,191
9.0,1.2,190
9.0,1.35,189
9.0,1.5,183
9.15,-1.5,229
9.15,-1.35,208
9.15,-1.2,209
9.15,-1.05,210
9.15,-0.9,212
9.15,-0.75,214
9.15,-0.6,216
9.15,-0.45,218
9.15,-0.3,219
9.15,-0.15,219
9.15,0.0,218
9.15,0.15,216
9.15,0.3,213
9.15,0.45,211
9.15,0.6,196
9.15,0.75,194
9.15,0.9,192
9.15,1.05,191
9.15,1.2,190
9.15,1.35,189
9.15,1.5,188
9.3,-1.5,207
9.3,-1.35,208
9.3,-1.2,209
9.3,-1.05,210
9.3,-0.9,211
9.3,-0.75,213
9.3,-0.6,214
9.3,-0.45,215
9.3,-0.3,216
9.3,-0.15,216
9.3,0.0,215
9.3,0.15,214
9.3,0.3,212
9.3,0.45,210
9.3,0.6,195
9.3,0.75,194
9.3,0.9,192
9.3,1.05,191
9.3,1.2,190
9.3,1.35,189
9.3,1.5,188
9.45,-1.5,207
9.45,-1.35,208
9.45,-1.2,209
9.45,-1.05,210
9.45,-0.9,211
9.45,-0.75,212
9.45,-0.6,213
9.45,-0.45,213
9.45,-0.3,214
9.45,-0.15,214
9.45,0.0,213
9.45,0.15,212
9.45,0.3,211
9.45,0.45,210
9.45,0.6,209
9.45,0.75,193
9.45,0.9,192
9.45,1.05,191
9.45,1.2,190
9.45,1.35,189
9.45,1.5,188
9.6,-1.5,207
9.6,-1.35,208
9.6,-1.2,208
9.6,-1.05,209
9.6,-0.9,210
9.6,-0.75,211
9.6,-0.6,211
9.6,-0.45,212
9.6,-0.3,212
9.6,-0.15,212
9.6,0.0,212
9.6,0.15,211
9.6,0.3,210
9.6,0.45,209
9.6,0.6,209
9.6,0.75,193
9.6,0.9,192
9.6,1.05,191
9.6,1.2,190
9.6,1.35,189
9.6,1.5,188
9.75,-1.5,207
9.75,-1.35,207
9.75,-1.2,208
9.75,-1.05,209
9.75,-0.9,209
9.75,-0.75,210
9.75,-0.6,210
9.75,-0.45,211
9.75,-0.3,211
9.75,-0.15,211
9.75,0.0,211
9.75,0.15,210
9.75,0.3,210
9.75,0.45,209
9.75,0.6,208
9.75,0.75,207
9.75,0.9,191
9.75,1.05,190
9.75,1.2,189
9.75,1.35,189
9.75,1.5,188
9.9,-1.5,207
9.9,-1.35,207
9.9,-1.2,208
9.9,-1.05,208
9.9,-0.9,209
9.9,-0.75,209
9.9,-0.6,210
9.9,-0.45,210
9.9,-0.3,210
9.9,-0.15,210
9.9,0.0,210
9.9,0.15,209
9.9,0.3,209
9.9,0.45,208
9.9,0.6,208
9.9,0.75,207
9.9,0.9,191
9.9,1.05,190
9.9,1.2,189
9.9,1.35,188
9.9,1.5,188
10.05,-1.5,201
10.05,-1.35,202
10.05,-1.2,207
10.05,-1.05,208
10.05,-0.9,208
10.05,-0.75,209
10.05,-0.6,209
10.05,-0.45,209
10.05,-0.3,209
10.05,-0.15,209
10.05,0.0,209
10.05,0.15,209
10.05,0.3,208
10.05,0.45,208
10.05,0.6,207
10.05,0.75,207
10.05,0.9,190
10.05,1.05,189
10.05,1.2,189
10.05,1.35,187
10.05,1.5,186
10.2,-1.5,198
10.2,-1.35,199
10.2,-1.2,200
10.2,-1.05,202
10.2,-0.9,203
10.2,-0.75,208
10.2,-0.6,208
10.2,-0.45,208
10.2,-0.3,209
10.2,-0.15,209
10.2,0.0,208
10.2,0.15,208
10.2,0.3,208
10.2,0.45,207
10.2,0.6,207
10.2,0.75,189
10.2,0.9,188
10.2,1.05,187
10.2,1.2,186
10.2,1.35,184
10.2,1.5,183
10.35,-1.5,194
10.35,-1.35,195
10.35,-1.2,196
10.35,-1.05,198
10.35,-0.9,199
10.35,-0.75,200
10.35,-0.6,201
10.35,-0.45,202
10.35,-0.3,203
10.35,-0.15,208
10.35,0.0,208
10.35,0.15,208
10.35,0.3,190
10.35,0.45,189
10.35,0.6,187
10.35,0.75,186
10.35,0.9,185
10.35,1.05,183
10.35,1.2,182
10.35,1.35,181
10.35,1.5,179
10.5,-1.5,189
10.5,-1.35,191
10.5,-1.2,192
10.5,-1.05,193
10.5,-0.9,195
10.5,-0.75,196
10.5,-0.6,197
10.5,-0.45,198
10.5,-0.3,182
10.5,-0.15,182
10.5,0.0,182
10.5,0.15,182
10.5,0.3,182
10.5,0.45,185
10.5,0.6,184
10.5,0.75,182
10.5,0.9,181
10.5,1.05,179
10.5,1.2,178
10.5,1.35,176
10.5,1.5,175
10.65,-1.5,184
10.65,-1.35,185
10.65,-1.2,187
10.65,-1.05,188
10.65,-0.9,190
10.65,-0.75,187
10.65,-0.6,174
10.65,-0.45,175
10.65,-0.3,176
10.65,-0.15,176
10.65,0.0,176
10.65,0.15,176
10.65,0.3,175
10.65,0.45,175
10.65,0.6,161
10.65,0.75,160
10.65,0.9,159
10.65,1.05,174
10.65,1.2,173
10.65,1.35,171
10.65,1.5,170
10.8,-1.5,177
10.8,-1.35,174
10.8,-1.2,175
10.8,-1.05,177
10.8,-0.9,178
10.8,-0.75,179
10.8,-0.6,167
10.8,-0.45,168
10.8,-0.3,169
10.8,-0.15,169
10.8,0.0,169
10.8,0.15,169
10.8,0.3,168
10.8,0.45,168
10.8,0.6,154
10.8,0.75,153
10.8,0.9,152
10.8,1.05,151
10.8,1.2,150
10.8,1.35,148
10.8,1.5,164
10.95,-1.5,164
10.95,-1.35,165
10.95,-1.2,166
10.95,-1.05,168
10.95,-0.9,169
10.95,-0.75,171
10.95,-0.6,159
10.95,-0.45,160
10.95,-0.3,161
10.95,-0.15,161
10.95,0.0,162
10.95,0.15,161
10.95,0.3,161
10.95,0.45,160
10.95,0.6,147
10.95,0.75,146
10.95,0.9,144
10.95,1.05,143
10.95,1.2,142
10.95,1.35,140
10.95,1.5,139
11.1,-1.5,154
11.1,-1.35,155
11.1,-1.2,156
11.1,-1.05,158
11.1,-0.9,160
11.1,-0.75,161
11.1,-0.6,151
11.1,-0.45,152
11.1,-0.3,153
11.1,-0.15,153
11.1,0.0,153
11.1,0.15,153
11.1,0.3,153
11.1,0.45,152
11.1,0.6,139
11.1,0.75,137
11.1,0.9,136
11.1,1.05,134
11.1,1.2,133
11.1,1.35,132
11.1,1.5,131
11.25,-1.5,143
11.25,-1.35,144
11.25,-1.2,145
11.25,-1.05,147
11.25,-0.9,149
11.25,-0.75,151
11.25,-0.6,141
11.25,-0.45,143
11.25,-0.3,144
11.25,-0.15,145
11.25,0.0,145
11.25,0.15,144
11.25,0.3,144
11.25,0.45,143
11.25,0.6,130
11.25,0.75,128
11.25,0.9,127
11.25,1.05,125
11.25,1.2,123
11.25,1.35,122
11.25,1.5,121
11.4,-1.5,130
11.4,-1.35,131
11.4,-1.2,133
11.4,-1.05,135
11.4,-0.9,137
11.4,-0.75,129
11.4,-0.6,131
11.4,-0.45,133
11.4,-0.3,134
11.4,-0.15,135
11.4,0.0,136
11.4,0.15,135
11.4,0.3,134
11.4,0.45,133
11.4,0.6,131
11.4,0.75,119
11.4,0.9,117
11.4,1.05,114
11.4,1.2,113
11.4,1.35,111
11.4,1.5,110
11.55,-1.5,116
11.55,-1.35,117
11.55,-1.2,119
11.55,-1.05,122
11.55,-0.9,125
11.55,-0.75,118
11.55,-0.6,121
11.55,-0.45,123
11.55,-0.3,125
11.55,-0.15,126
11.55,0.0,126
11.55,0.15,126
11.55,0.3,125
11.55,0.45,123
11.55,0.6,121
11.55,0.75,108
11.55,0.9,106
11.55,1.05,103
11.55,1.2,101
11.55,1.35,99
11.55,1.5,98
11.7,-1.5,100
11.7,-1.35,102
11.7,-1.2,104
11.7,-1.05,107
11.7,-0.9,111
11.7,-0.75,106
11.7,-0.6,110
11.7,-0.45,112
11.7,-0.3,115
11.7,-0.15,116
11.7,0.0,117
11.7,0.15,116
11.7,0.3,115
11.7,0.45,112
11.7,0.6,109
11.7,0.75,97
11.7,0.9,94
11.7,1.05,91
11.7,1.2,88
11.7,1.35,86
11.7,1.5,85
11.85,-1.5,84
11.85,-1.35,86
11.85,-1.2,88
11.85,-1.05,92
11.85,-0.9,97
11.85,-0.75,94
11.85,-0.6,98
11.85,-0.45,102
11.85,-0.3,105
11.85,-0.15,106
11.85,0.0,107
11.85,0.15,106
11.85,0.3,105
11.85,0.45,102
11.85,0.6,98
11.85,0.75,86
11.85,0.9,82
11.85,1.05,78
11.85,1.2,74
11.85,1.35,72
11.85,1.5,71
12.0,-1.5,67
12.0,-1.35,69
12.0,-1.2,72
12.0,-1.05,77
12.0,-0.9,83
12.0,-0.75,82
12.0,-0.6,87
12.0,-0.45,91
12.0,-0.3,95
12.0,-0.15,97
12.0,0.0,98
12.0,0.15,97
12.0,0.3,95
12.0,0.45,91
12.0,0.6,87
12.0,0.75,75
12.0,0.9,69
12.0,1.05,65
12.0,1.2,60
12.0,1.35,57
12.0,1.5,56
12.15,-1.5,50
12.15,-1.35,52
12.15,-1.2,56
12.15,-1.05,61
12.15,-0.9,63
12.15,-0.75,69
12.15,-0.6,76
12.15,-0.45,81
12.15,-0.3,86
12.15,-0.15,88
12.15,0.0,89
12.15,0.15,88
12.15,0.3,85
12.15,0.45,81
12.15,0.6,76
12.15,0.75,63
12.15,0.9,57
12.15,1.05,51
12.15,1.2,46
12.15,1.35,43
12.15,1.5,41
12.3,-1.5,34
12.3,-1.35,35
12.3,-1.2,40
12.3,-1.05,47
12.3,-0.9,50
12.3,-0.75,58
12.3,-0.6,66
12.3,-0.45,72
12.3,-0.3,77
12.3,-0.15,80
12.3,0.0,81
12.3,0.15,80
12.3,0.3,77
12.3,0.45,72
12.3,0.6,65
12.3,0.75,58
12.3,0.9,46
12.3,1.05,39
12.3,1.2,33
12.3,1.35,29
12.3,1.5,27
12.45,-1.5,19
12.45,-1.35,21
12.45,-1.2,26
12.45,-1.05,33
12.45,-0.9,39
12.45,-0.75,48
12.45,-0.6,56
12.45,-0.45,64
12.45,-0.3,69
12.45,-0.15,73
12.45,0.0,74
12.45,0.15,73
12.45,0.3,69
12.45,0.45,64
12.45,0.6,56
12.45,0.75,48
12.45,0.9,35
12.45,1.05,27
12.45,1.2,21
12.45,1.35,17
12.45,1.5,15
12.6,-1.5,7
12.6,-1.35,9
12.6,-1.2,14
12.6,-1.05,22
12.6,-0.9,29
12.6,-0.75,39
12.6,-0.6,49
12.6,-0.45,57
12.6,-0.3,63
12.6,-0.15,66
12.6,0.0,68
12.6,0.15,66
12.6,0.3,63
12.6,0.45,57
12.6,0.6,48
12.6,0.75,39
12.6,0.9,26
12.6,1.05,18
12.6,1.2,11
12.6,1.35,7
12.6,1.5,5
12.75,-1.5,0
12.75,-1.35,1
12.75,-1.2,6
12.75,-1.05,14
12.75,-0.9,22
12.75,-0.75,33
12.75,-0.6,42
12.75,-0.45,51
12.75,-0.3,57
12.75,-0.15,61
12.75,0.0,63
12.75,0.15,61
12.75,0.3,57
12.75,0.45,51
12.75,0.6,42
12.75,0.75,33
12.75,0.9,20
12.75,1.05,11
12.75,1.2,4
12.75,1.35,0
12.75,1.5,0
12.9,-1.5,0
12.9,-1.35,0
12.9,-1.2,1
12.9,-1.05,10
12.9,-0.9,18
12.9,-0.75,28
12.9,-0.6,38
12.9,-0.45,47
12.9,-0.3,53
12.9,-0.15,57
12.9,0.0,59
12.9,0.15,57
12.9,0.3,53
12.9,0.45,47
12.9,0.6,38
12.9,0.75,28
12.9,0.9,16
12.9,1.05,7
12.9,1.2,0
12.9,1.35,0
12.9,1.5,0
13.05,-1.5,0
13.05,-1.35,0
13.05,-1.2,0
13.05,-1.05,7
13.05,-0.9,16
13.05,-0.75,26
13.05,-0.6,36
13.05,-0.45,44
13.05,-0.3,51
13.05,-0.15,55
13.05,0.0,56
13.05,0.15,55
13.05,0.3,51
13.05,0.45,44
13.05,0.6,36
13.05,0.75,26
13.05,0.9,15
13.05,1.05,6
13.05,1.2,0
13.05,1.35,0
13.05,1.5,0
