-3.0,-1.5,0
-3.0,-1.35,0
-3.0,-1.2,13
-3.0,-1.05,27
-3.0,-0.9,51
-3.0,-0.75,57
-3.0,-0.6,59
-3.0,-0.45,50
-3.0,-0.3,48
-3.0,-0.15,44
-3.0,0.0,43
-3.0,0.15,37
-3.0,0.3,37
-3.0,0.45,36
-3.0,0.6,36
-3.0,0.75,35
-3.0,0.9,33
-3.0,1.05,27
-3.0,1.2,19
-3.0,1.35,2
-3.0,1.5,0
-2.85,-1.5,0
-2.85,-1.35,6
-2.85,-1.2,19
-2.85,-1.05,33
-2.85,-0.9,41
-2.85,-0.75,61
-2.85,-0.6,61
-2.85,-0.45,50
-2.85,-0.3,46
-2.85,-0.15,45
-2.85,0.0,38
-2.85,0.15,38
-2.85,0.3,34
-2.85,0.45,33
-2.85,0.6,33
-2.85,0.75,35
-2.85,0.9,35
-2.85,1.05,30
-2.85,1.2,25
-2.85,1.35,10
-2.85,1.5,2
-2.7,-1.5,16
-2.7,-1.35,20
-2.7,-1.2,31
-2.7,-1.05,41
-2.7,-0.9,47
-2.7,-0.75,65
-2.7,-0.6,63
-2.7,-0.45,50
-2.7,-0.3,46
-2.7,-0.15,37
-2.7,0.0,31
-2.7,0.15,34
-2.7,0.3,30
-2.7,0.45,25
-2.7,0.6,27
-2.7,0.75,33
-2.7,0.9,37
-2.7,1.05,43
-2.7,1.2,36
-2.7,1.35,27
-2.7,1.5,20
-2.55,-1.5,42
-2.55,-1.35,39
-2.55,-1.2,47
-2.55,-1.05,54
-2.55,-0.9,70
-2.55,-0.75,54
-2.55,-0.6,67
-2.55,-0.45,62
-2.55,-0.3,43
-2.55,-0.15,26
-2.55,0.0,14
-2.55,0.15,29
-2.55,0.3,30
-2.55,0.45,8
-2.55,0.6,15
-2.55,0.75,33
-2.55,0.9,40
-2.55,1.05,49
-2.55,1.2,47
-2.55,1.35,43
-2.55,1.5,39
-2.4,-1.5,61
-2.4,-1.35,65
-2.4,-1.2,59
-2.4,-1.05,63
-2.4,-0.9,66
-2.4,-0.75,81
-2.4,-0.6,73
-2.4,-0.45,66
-2.4,-0.3,47
-2.4,-0.15,33
-2.4,0.0,2
-2.4,0.15,31
-2.4,0.3,37
-2.4,0.45,29
-2.4,0.6,37
-2.4,0.75,42
-2.4,0.9,53
-2.4,1.05,57
-2.4,1.2,57
-2.4,1.35,55
-2.4,1.5,56
-2.25,-1.5,74
-2.25,-1.35,78
-2.25,-1.2,72
-2.25,-1.05,72
-2.25,-0.9,75
-2.25,-0.75,74
-2.25,-0.6,85
-2.25,-0.45,75
-2.25,-0.3,57
-2.25,-0.15,61
-2.25,0.0,45
-2.25,0.15,38
-2.25,0.3,47
-2.25,0.45,57
-2.25,0.6,59
-2.25,0.75,60
-2.25,0.9,62
-2.25,1.05,68
-2.25,1.2,69
-2.25,1.35,69
-2.25,1.5,64
-2.1,-1.5,84
-2.1,-1.35,87
-2.1,-1.2,90
-2.1,-1.05,83
-2.1,-0.9,87
-2.1,-0.75,88
-2.1,-0.6,99
-2.1,-0.45,89
-2.1,-0.3,76
-2.1,-0.15,59
-2.1,0.0,42
-2.1,0.15,9
-2.1,0.3,44
-2.1,0.45,70
-2.1,0.6,72
-2.1,0.75,73
-2.1,0.9,75
-2.1,1.05,77
-2.1,1.2,78
-2.1,1.35,74
-2.1,1.5,76
-1.95,-1.5,94
-1.95,-1.35,93
-1.95,-1.2,96
-1.95,-1.05,101
-1.95,-0.9,93
-1.95,-0.75,101
-1.95,-0.6,106
-1.95,-0.45,110
-1.95,-0.3,95
-1.95,-0.15,79
-1.95,0.0,55
-1.95,0.15,38
-1.95,0.3,10
-1.95,0.45,111
-1.95,0.6,91
-1.95,0.75,82
-1.95,0.9,84
-1.95,1.05,86
-1.95,1.2,88
-1.95,1.35,86
-1.95,1.5,83
-1.8,-1.5,98
-1.8,-1.35,100
-1.8,-1.2,102
-1.8,-1.05,108
-1.8,-0.9,110
-1.8,-0.75,105
-1.8,-0.6,119
-1.8,-0.45,119
-1.8,-0.3,115
-1.8,-0.15,99
-1.8,0.0,79
-1.8,0.15,99
-1.8,0.3,255
-1.8,0.45,87
-1.8,0.6,80
-1.8,0.75,89
-1.8,0.9,93
-1.8,1.05,97
-1.8,1.2,96
-1.8,1.35,93
-1.8,1.5,90
-1.65,-1.5,101
-1.65,-1.35,108
-1.65,-1.2,107
-1.65,-1.05,106
-1.65,-0.9,107
-1.65,-0.75,111
-1.65,-0.6,115
-1.65,-0.45,119
-1.65,-0.3,119
-1.65,-0.15,108
-1.65,0.0,79
-1.65,0.15,69
-1.65,0.3,62
-1.65,0.45,0
-1.65,0.6,62
-1.65,0.75,93
-1.65,0.9,113
-1.65,1.05,111
-1.65,1.2,111
-1.65,1.35,105
-1.65,1.5,104
-1.5,-1.5,117
-1.5,-1.35,115
-1.5,-1.2,106
-1.5,-1.05,103
-1.5,-0.9,100
-1.5,-0.75,103
-1.5,-0.6,85
-1.5,-0.45,115
-1.5,-0.3,119
-1.5,-0.15,99
-1.5,0.0,80
-1.5,0.15,67
-1.5,0.3,60
-1.5,0.45,53
-1.5,0.6,74
-1.5,0.75,121
-1.5,0.9,163
-1.5,1.05,125
-1.5,1.2,97
-1.5,1.35,84
-1.5,1.5,76
-1.35,-1.5,119
-1.35,-1.35,117
-1.35,-1.2,113
-1.35,-1.05,99
-1.35,-0.9,86
-1.35,-0.75,79
-1.35,-0.6,139
-1.35,-0.45,129
-1.35,-0.3,88
-1.35,-0.15,78
-1.35,0.0,64
-1.35,0.15,47
-1.35,0.3,46
-1.35,0.45,39
-1.35,0.6,64
-1.35,0.75,114
-1.35,0.9,241
-1.35,1.05,135
-1.35,1.2,98
-1.35,1.35,82
-1.35,1.5,76
-1.2,-1.5,121
-1.2,-1.35,122
-1.2,-1.2,120
-1.2,-1.05,113
-1.2,-0.9,94
-1.2,-0.75,80
-1.2,-0.6,97
-1.2,-0.45,74
-1.2,-0.3,65
-1.2,-0.15,64
-1.2,0.0,61
-1.2,0.15,60
-1.2,0.3,71
-1.2,0.45,19
-1.2,0.6,46
-1.2,0.75,80
-1.2,0.9,117
-1.2,1.05,99
-1.2,1.2,82
-1.2,1.35,80
-1.2,1.5,76
-1.05,-1.5,125
-1.05,-1.35,128
-1.05,-1.2,129
-1.05,-1.05,136
-1.05,-0.9,135
-1.05,-0.75,122
-1.05,-0.6,97
-1.05,-0.45,57
-1.05,-0.3,37
-1.05,-0.15,131
-1.05,0.0,51
-1.05,0.15,56
-1.05,0.3,4
-1.05,0.45,15
-1.05,0.6,33
-1.05,0.75,6
-1.05,0.9,50
-1.05,1.05,70
-1.05,1.2,71
-1.05,1.35,70
-1.05,1.5,69
-0.9,-1.5,120
-0.9,-1.35,126
-0.9,-1.2,137
-0.9,-1.05,161
-0.9,-0.9,209
-0.9,-0.75,193
-0.9,-0.6,125
-0.9,-0.45,77
-0.9,-0.3,58
-0.9,-0.15,61
-0.9,0.0,0
-0.9,0.15,62
-0.9,0.3,68
-0.9,0.45,96
-0.9,0.6,42
-0.9,0.75,63
-0.9,0.9,56
-0.9,1.05,61
-0.9,1.2,63
-0.9,1.35,64
-0.9,1.5,64
-0.75,-1.5,119
-0.75,-1.35,126
-0.75,-1.2,138
-0.75,-1.05,164
-0.75,-0.9,218
-0.75,-0.75,187
-0.75,-0.6,133
-0.75,-0.45,167
-0.75,-0.3,113
-0.75,-0.15,50
-0.75,0.0,24
-0.75,0.15,100
-0.75,0.3,103
-0.75,0.45,74
-0.75,0.6,65
-0.75,0.75,64
-0.75,0.9,52
-0.75,1.05,58
-0.75,1.2,62
-0.75,1.35,59
-0.75,1.5,64
-0.6,-1.5,115
-0.6,-1.35,116
-0.6,-1.2,125
-0.6,-1.05,138
-0.6,-0.9,134
-0.6,-0.75,71
-0.6,-0.6,108
-0.6,-0.45,173
-0.6,-0.3,98
-0.6,-0.15,69
-0.6,0.0,63
-0.6,0.15,148
-0.6,0.3,150
-0.6,0.45,117
-0.6,0.6,100
-0.6,0.75,72
-0.6,0.9,12
-0.6,1.05,39
-0.6,1.2,54
-0.6,1.35,61
-0.6,1.5,64
-0.45,-1.5,115
-0.45,-1.35,118
-0.45,-1.2,123
-0.45,-1.05,118
-0.45,-0.9,115
-0.45,-0.75,103
-0.45,-0.6,107
-0.45,-0.45,101
-0.45,-0.3,88
-0.45,-0.15,93
-0.45,0.0,71
-0.45,0.15,193
-0.45,0.3,162
-0.45,0.45,109
-0.45,0.6,97
-0.45,0.75,70
-0.45,0.9,31
-0.45,1.05,41
-0.45,1.2,45
-0.45,1.35,51
-0.45,1.5,55
-0.3,-1.5,106
-0.3,-1.35,100
-0.3,-1.2,96
-0.3,-1.05,100
-0.3,-0.9,106
-0.3,-0.75,99
-0.3,-0.6,81
-0.3,-0.45,93
-0.3,-0.3,113
-0.3,-0.15,67
-0.3,0.0,37
-0.3,0.15,50
-0.3,0.3,64
-0.3,0.45,38
-0.3,0.6,46
-0.3,0.75,69
-0.3,0.9,49
-0.3,1.05,13
-0.3,1.2,41
-0.3,1.35,53
-0.3,1.5,59
-0.15,-1.5,93
-0.15,-1.35,85
-0.15,-1.2,70
-0.15,-1.05,74
-0.15,-0.9,85
-0.15,-0.75,73
-0.15,-0.6,68
-0.15,-0.45,71
-0.15,-0.3,65
-0.15,-0.15,0
-0.15,0.0,69
-0.15,0.15,67
-0.15,0.3,64
-0.15,0.45,24
-0.15,0.6,39
-0.15,0.75,89
-0.15,0.9,77
-0.15,1.05,22
-0.15,1.2,49
-0.15,1.35,54
-0.15,1.5,70
0.0,-1.5,77
0.0,-1.35,80
0.0,-1.2,68
0.0,-1.05,71
0.0,-0.9,90
0.0,-0.75,90
0.0,-0.6,77
0.0,-0.45,57
0.0,-0.3,39
0.0,-0.15,206
0.0,0.0,107
0.0,0.15,129
0.0,0.3,29
0.0,0.45,145
0.0,0.6,78
0.0,0.75,204
0.0,0.9,175
0.0,1.05,91
0.0,1.2,82
0.0,1.35,72
0.0,1.5,73
0.15,-1.5,79
0.15,-1.35,75
0.15,-1.2,76
0.15,-1.05,83
0.15,-0.9,98
0.15,-0.75,95
0.15,-0.6,100
0.15,-0.45,87
0.15,-0.3,30
0.15,-0.15,42
0.15,0.0,66
0.15,0.15,82
0.15,0.3,74
0.15,0.45,51
0.15,0.6,73
0.15,0.75,116
0.15,0.9,137
0.15,1.05,110
0.15,1.2,90
0.15,1.35,86
0.15,1.5,84
0.3,-1.5,76
0.3,-1.35,75
0.3,-1.2,79
0.3,-1.05,91
0.3,-0.9,109
0.3,-0.75,138
0.3,-0.6,181
0.3,-0.45,112
0.3,-0.3,100
0.3,-0.15,37
0.3,0.0,45
0.3,0.15,85
0.3,0.3,154
0.3,0.45,43
0.3,0.6,64
0.3,0.75,75
0.3,0.9,74
0.3,1.05,87
0.3,1.2,103
0.3,1.35,104
0.3,1.5,104
0.45,-1.5,84
0.45,-1.35,85
0.45,-1.2,87
0.45,-1.05,92
0.45,-0.9,106
0.45,-0.75,145
0.45,-0.6,162
0.45,-0.45,123
0.45,-0.3,91
0.45,-0.15,70
0.45,0.0,38
0.45,0.15,60
0.45,0.3,69
0.45,0.45,19
0.45,0.6,58
0.45,0.75,65
0.45,0.9,15
0.45,1.05,97
0.45,1.2,105
0.45,1.35,105
0.45,1.5,104
0.6,-1.5,66
0.6,-1.35,65
0.6,-1.2,65
0.6,-1.05,66
0.6,-0.9,58
0.6,-0.75,40
0.6,-0.6,63
0.6,-0.45,112
0.6,-0.3,170
0.6,-0.15,107
0.6,0.0,10
0.6,0.15,51
0.6,0.3,144
0.6,0.45,64
0.6,0.6,54
0.6,0.75,115
0.6,0.9,225
0.6,1.05,121
0.6,1.2,115
0.6,1.35,113
0.6,1.5,107
0.75,-1.5,61
0.75,-1.35,59
0.75,-1.2,55
0.75,-1.05,47
0.75,-0.9,31
0.75,-0.75,6
0.75,-0.6,37
0.75,-0.45,50
0.75,-0.3,88
0.75,-0.15,181
0.75,0.0,52
0.75,0.15,2
0.75,0.3,71
0.75,0.45,49
0.75,0.6,29
0.75,0.75,95
0.75,0.9,95
0.75,1.05,117
0.75,1.2,110
0.75,1.35,107
0.75,1.5,113
0.9,-1.5,47
0.9,-1.35,44
0.9,-1.2,36
0.9,-1.05,27
0.9,-0.9,17
0.9,-0.75,1
0.9,-0.6,13
0.9,-0.45,32
0.9,-0.3,68
0.9,-0.15,143
0.9,0.0,49
0.9,0.15,72
0.9,0.3,157
0.9,0.45,74
0.9,0.6,70
0.9,0.75,226
0.9,0.9,156
0.9,1.05,128
0.9,1.2,125
0.9,1.35,121
0.9,1.5,119
1.05,-1.5,41
1.05,-1.35,38
1.05,-1.2,31
1.05,-1.05,23
1.05,-0.9,9
1.05,-0.75,5
1.05,-0.6,0
1.05,-0.45,9
1.05,-0.3,12
1.05,-0.15,52
1.05,0.0,54
1.05,0.15,0
1.05,0.3,58
1.05,0.45,77
1.05,0.6,95
1.05,0.75,145
1.05,0.9,161
1.05,1.05,145
1.05,1.2,127
1.05,1.35,123
1.05,1.5,121
1.2,-1.5,33
1.2,-1.35,33
1.2,-1.2,29
1.2,-1.05,28
1.2,-0.9,24
1.2,-0.75,14
1.2,-0.6,8
1.2,-0.45,29
1.2,-0.3,28
1.2,-0.15,44
1.2,0.0,8
1.2,0.15,53
1.2,0.3,55
1.2,0.45,116
1.2,0.6,217
1.2,0.75,136
1.2,0.9,132
1.2,1.05,128
1.2,1.2,142
1.2,1.35,141
1.2,1.5,139
1.35,-1.5,29
1.35,-1.35,29
1.35,-1.2,32
1.35,-1.05,39
1.35,-0.9,38
1.35,-0.75,21
1.35,-0.6,0
1.35,-0.45,35
1.35,-0.3,41
1.35,-0.15,64
1.35,0.0,86
1.35,0.15,88
1.35,0.3,68
1.35,0.45,70
1.35,0.6,121
1.35,0.75,125
1.35,0.9,118
1.35,1.05,121
1.35,1.2,119
1.35,1.35,132
1.35,1.5,132
1.5,-1.5,29
1.5,-1.35,30
1.5,-1.2,37
1.5,-1.05,50
1.5,-0.9,63
1.5,-0.75,38
1.5,-0.6,23
1.5,-0.45,42
1.5,-0.3,45
1.5,-0.15,57
1.5,0.0,23
1.5,0.15,251
1.5,0.3,54
1.5,0.45,41
1.5,0.6,62
1.5,0.75,99
1.5,0.9,94
1.5,1.05,107
1.5,1.2,109
1.5,1.35,114
1.5,1.5,108
1.65,-1.5,46
1.65,-1.35,47
1.65,-1.2,45
1.65,-1.05,46
1.65,-0.9,51
1.65,-0.75,39
1.65,-0.6,24
1.65,-0.45,11
1.65,-0.3,48
1.65,-0.15,126
1.65,0.0,47
1.65,0.15,57
1.65,0.3,41
1.65,0.45,47
1.65,0.6,50
1.65,0.75,55
1.65,0.9,68
1.65,1.05,85
1.65,1.2,86
1.65,1.35,100
1.65,1.5,114
1.8,-1.5,47
1.8,-1.35,48
1.8,-1.2,50
1.8,-1.05,53
1.8,-0.9,60
1.8,-0.75,51
1.8,-0.6,34
1.8,-0.45,20
1.8,-0.3,9
1.8,-0.15,47
1.8,0.0,22
1.8,0.15,38
1.8,0.3,75
1.8,0.45,33
1.8,0.6,60
1.8,0.75,65
1.8,0.9,66
1.8,1.05,67
1.8,1.2,67
1.8,1.35,67
1.8,1.5,70
1.95,-1.5,56
1.95,-1.35,60
1.95,-1.2,61
1.95,-1.05,61
1.95,-0.9,62
1.95,-0.75,62
1.95,-0.6,41
1.95,-0.45,26
1.95,-0.3,4
1.95,-0.15,34
1.95,0.0,83
1.95,0.15,56
1.95,0.3,122
1.95,0.45,78
1.95,0.6,69
1.95,0.75,76
1.95,0.9,72
1.95,1.05,73
1.95,1.2,73
1.95,1.35,78
1.95,1.5,74
2.1,-1.5,60
2.1,-1.35,60
2.1,-1.2,65
2.1,-1.05,66
2.1,-0.9,67
2.1,-0.75,69
2.1,-0.6,94
2.1,-0.45,51
2.1,-0.3,19
2.1,-0.15,33
2.1,0.0,26
2.1,0.15,18
2.1,0.3,114
2.1,0.45,76
2.1,0.6,230
2.1,0.75,85
2.1,0.9,65
2.1,1.05,68
2.1,1.2,71
2.1,1.35,73
2.1,1.5,78
2.25,-1.5,79
2.25,-1.35,64
2.25,-1.2,79
2.25,-1.05,79
2.25,-0.9,80
2.25,-0.75,94
2.25,-0.6,79
2.25,-0.45,58
2.25,-0.3,60
2.25,-0.15,60
2.25,0.0,48
2.25,0.15,59
2.25,0.3,72
2.25,0.45,68
2.25,0.6,98
2.25,0.75,31
2.25,0.9,48
2.25,1.05,66
2.25,1.2,73
2.25,1.35,83
2.25,1.5,74
2.4,-1.5,111
2.4,-1.35,111
2.4,-1.2,115
2.4,-1.05,100
2.4,-0.9,110
2.4,-0.75,107
2.4,-0.6,102
2.4,-0.45,58
2.4,-0.3,52
2.4,-0.15,60
2.4,0.0,59
2.4,0.15,30
2.4,0.3,32
2.4,0.45,57
2.4,0.6,79
2.4,0.75,68
2.4,0.9,69
2.4,1.05,81
2.4,1.2,85
2.4,1.35,88
2.4,1.5,89
2.55,-1.5,113
2.55,-1.35,128
2.55,-1.2,128
2.55,-1.05,128
2.55,-0.9,119
2.55,-0.75,92
2.55,-0.6,104
2.55,-0.45,191
2.55,-0.3,51
2.55,-0.15,38
2.55,0.0,81
2.55,0.15,121
2.55,0.3,52
2.55,0.45,92
2.55,0.6,85
2.55,0.75,98
2.55,0.9,96
2.55,1.05,91
2.55,1.2,91
2.55,1.35,89
2.55,1.5,89
2.7,-1.5,128
2.7,-1.35,128
2.7,-1.2,128
2.7,-1.05,124
2.7,-0.9,119
2.7,-0.75,102
2.7,-0.6,107
2.7,-0.45,134
2.7,-0.3,43
2.7,-0.15,38
2.7,0.0,58
2.7,0.15,56
2.7,0.3,40
2.7,0.45,194
2.7,0.6,132
2.7,0.75,115
2.7,0.9,90
2.7,1.05,83
2.7,1.2,82
2.7,1.35,89
2.7,1.5,89
2.85,-1.5,121
2.85,-1.35,122
2.85,-1.2,125
2.85,-1.05,128
2.85,-0.9,118
2.85,-0.75,119
2.85,-0.6,94
2.85,-0.45,73
2.85,-0.3,63
2.85,-0.15,32
2.85,0.0,61
2.85,0.15,190
2.85,0.3,22
2.85,0.45,50
2.85,0.6,88
2.85,0.75,96
2.85,0.9,65
2.85,1.05,80
2.85,1.2,87
2.85,1.35,89
2.85,1.5,87
3.0,-1.5,97
3.0,-1.35,99
3.0,-1.2,108
3.0,-1.05,109
3.0,-0.9,132
3.0,-0.75,252
3.0,-0.6,84
3.0,-0.45,28
3.0,-0.3,32
3.0,-0.15,46
3.0,0.0,86
3.0,0.15,68
3.0,0.3,138
3.0,0.45,104
3.0,0.6,108
3.0,0.75,74
3.0,0.9,79
3.0,1.05,83
3.0,1.2,85
3.0,1.35,87
3.0,1.5,87
3.15,-1.5,86
3.15,-1.35,84
3.15,-1.2,92
3.15,-1.05,100
3.15,-0.9,118
3.15,-0.75,120
3.15,-0.6,98
3.15,-0.45,86
3.15,-0.3,1
3.15,-0.15,22
3.15,0.0,57
3.15,0.15,145
3.15,0.3,176
3.15,0.45,190
3.15,0.6,137
3.15,0.75,94
3.15,0.9,81
3.15,1.05,83
3.15,1.2,95
3.15,1.35,96
3.15,1.5,96
3.3,-1.5,83
3.3,-1.35,78
3.3,-1.2,77
3.3,-1.05,88
3.3,-0.9,94
3.3,-0.75,89
3.3,-0.6,86
3.3,-0.45,79
3.3,-0.3,63
3.3,-0.15,42
3.3,0.0,138
3.3,0.15,57
3.3,0.3,182
3.3,0.45,168
3.3,0.6,148
3.3,0.75,118
3.3,0.9,107
3.3,1.05,96
3.3,1.2,96
3.3,1.35,96
3.3,1.5,96
3.45,-1.5,79
3.45,-1.35,71
3.45,-1.2,64
3.45,-1.05,77
3.45,-0.9,94
3.45,-0.75,79
3.45,-0.6,65
3.45,-0.45,53
3.45,-0.3,100
3.45,-0.15,62
3.45,0.0,72
3.45,0.15,94
3.45,0.3,169
3.45,0.45,194
3.45,0.6,107
3.45,0.75,81
3.45,0.9,73
3.45,1.05,76
3.45,1.2,74
3.45,1.35,74
3.45,1.5,66
3.6,-1.5,79
3.6,-1.35,75
3.6,-1.2,73
3.6,-1.05,78
3.6,-0.9,74
3.6,-0.75,72
3.6,-0.6,50
3.6,-0.45,74
3.6,-0.3,155
3.6,-0.15,116
3.6,0.0,69
3.6,0.15,99
3.6,0.3,98
3.6,0.45,85
3.6,0.6,38
3.6,0.75,24
3.6,0.9,56
3.6,1.05,77
3.6,1.2,74
3.6,1.35,74
3.6,1.5,76
3.75,-1.5,67
3.75,-1.35,70
3.75,-1.2,68
3.75,-1.05,76
3.75,-0.9,73
3.75,-0.75,90
3.75,-0.6,124
3.75,-0.45,155
3.75,-0.3,68
3.75,-0.15,16
3.75,0.0,59
3.75,0.15,82
3.75,0.3,56
3.75,0.45,38
3.75,0.6,49
3.75,0.75,47
3.75,0.9,63
3.75,1.05,76
3.75,1.2,86
3.75,1.35,76
3.75,1.5,78
3.9,-1.5,70
3.9,-1.35,62
3.9,-1.2,62
3.9,-1.05,75
3.9,-0.9,73
3.9,-0.75,95
3.9,-0.6,99
3.9,-0.45,122
3.9,-0.3,57
3.9,-0.15,38
3.9,0.0,152
3.9,0.15,50
3.9,0.3,64
3.9,0.45,51
3.9,0.6,44
3.9,0.75,67
3.9,0.9,81
3.9,1.05,84
3.9,1.2,85
3.9,1.35,90
3.9,1.5,90
4.05,-1.5,72
4.05,-1.35,72
4.05,-1.2,72
4.05,-1.05,72
4.05,-0.9,71
4.05,-0.75,75
4.05,-0.6,83
4.05,-0.45,92
4.05,-0.3,24
4.05,-0.15,51
4.05,0.0,19
4.05,0.15,81
4.05,0.3,80
4.05,0.45,114
4.05,0.6,121
4.05,0.75,126
4.05,0.9,99
4.05,1.05,86
4.05,1.2,84
4.05,1.35,84
4.05,1.5,112
4.2,-1.5,71
4.2,-1.35,69
4.2,-1.2,64
4.2,-1.05,68
4.2,-0.9,63
4.2,-0.75,51
4.2,-0.6,3
4.2,-0.45,72
4.2,-0.3,255
4.2,-0.15,183
4.2,0.0,49
4.2,0.15,7
4.2,0.3,17
4.2,0.45,105
4.2,0.6,242
4.2,0.75,183
4.2,0.9,128
4.2,1.05,122
4.2,1.2,115
4.2,1.35,134
4.2,1.5,137
4.35,-1.5,68
4.35,-1.35,67
4.35,-1.2,66
4.35,-1.05,63
4.35,-0.9,58
4.35,-0.75,58
4.35,-0.6,49
4.35,-0.45,74
4.35,-0.3,101
4.35,-0.15,241
4.35,0.0,107
4.35,0.15,97
4.35,0.3,86
4.35,0.45,126
4.35,0.6,164
4.35,0.75,178
4.35,0.9,166
4.35,1.05,159
4.35,1.2,172
4.35,1.35,173
4.35,1.5,173
4.5,-1.5,83
4.5,-1.35,70
4.5,-1.2,70
4.5,-1.05,65
4.5,-0.9,64
4.5,-0.75,72
4.5,-0.6,78
4.5,-0.45,131
4.5,-0.3,146
4.5,-0.15,206
4.5,0.0,138
4.5,0.15,112
4.5,0.3,146
4.5,0.45,176
4.5,0.6,158
4.5,0.75,142
4.5,0.9,136
4.5,1.05,152
4.5,1.2,159
4.5,1.35,166
4.5,1.5,173
4.65,-1.5,70
4.65,-1.35,71
4.65,-1.2,74
4.65,-1.05,85
4.65,-0.9,104
4.65,-0.75,114
4.65,-0.6,110
4.65,-0.45,117
4.65,-0.3,194
4.65,-0.15,200
4.65,0.0,70
4.65,0.15,38
4.65,0.3,4
4.65,0.45,194
4.65,0.6,169
4.65,0.75,96
4.65,0.9,117
4.65,1.05,149
4.65,1.2,166
4.65,1.35,178
4.65,1.5,189
4.8,-1.5,100
4.8,-1.35,88
4.8,-1.2,108
4.8,-1.05,105
4.8,-0.9,113
4.8,-0.75,133
4.8,-0.6,153
4.8,-0.45,177
4.8,-0.3,86
4.8,-0.15,66
4.8,0.0,63
4.8,0.15,64
4.8,0.3,134
4.8,0.45,220
4.8,0.6,174
4.8,0.75,90
4.8,0.9,120
4.8,1.05,146
4.8,1.2,172
4.8,1.35,198
4.8,1.5,212
4.95,-1.5,151
4.95,-1.35,151
4.95,-1.2,151
4.95,-1.05,155
4.95,-0.9,155
4.95,-0.75,167
4.95,-0.6,255
4.95,-0.45,109
4.95,-0.3,59
4.95,-0.15,204
4.95,0.0,56
4.95,0.15,204
4.95,0.3,95
4.95,0.45,25
4.95,0.6,89
4.95,0.75,109
4.95,0.9,109
4.95,1.05,138
4.95,1.2,178
4.95,1.35,235
4.95,1.5,255
5.1,-1.5,151
5.1,-1.35,151
5.1,-1.2,173
5.1,-1.05,172
5.1,-0.9,153
5.1,-0.75,164
5.1,-0.6,149
5.1,-0.45,164
5.1,-0.3,72
5.1,-0.15,34
5.1,0.0,43
5.1,0.15,35
5.1,0.3,41
5.1,0.45,56
5.1,0.6,64
5.1,0.75,78
5.1,0.9,105
5.1,1.05,137
5.1,1.2,202
5.1,1.35,255
5.1,1.5,255
5.25,-1.5,154
5.25,-1.35,153
5.25,-1.2,153
5.25,-1.05,151
5.25,-0.9,155
5.25,-0.75,170
5.25,-0.6,229
5.25,-0.45,206
5.25,-0.3,218
5.25,-0.15,188
5.25,0.0,57
5.25,0.15,15
5.25,0.3,44
5.25,0.45,26
5.25,0.6,28
5.25,0.75,50
5.25,0.9,69
5.25,1.05,136
5.25,1.2,213
5.25,1.35,255
5.25,1.5,255
5.4,-1.5,155
5.4,-1.35,147
5.4,-1.2,147
5.4,-1.05,140
5.4,-0.9,131
5.4,-0.75,60
5.4,-0.6,203
5.4,-0.45,176
5.4,-0.3,68
5.4,-0.15,44
5.4,0.0,46
5.4,0.15,98
5.4,0.3,61
5.4,0.45,17
5.4,0.6,48
5.4,0.75,66
5.4,0.9,103
5.4,1.05,124
5.4,1.2,192
5.4,1.35,255
5.4,1.5,255
5.55,-1.5,158
5.55,-1.35,158
5.55,-1.2,158
5.55,-1.05,161
5.55,-0.9,135
5.55,-0.75,231
5.55,-0.6,255
5.55,-0.45,63
5.55,-0.3,25
5.55,-0.15,15
5.55,0.0,98
5.55,0.15,80
5.55,0.3,41
5.55,0.45,45
5.55,0.6,91
5.55,0.75,112
5.55,0.9,123
5.55,1.05,141
5.55,1.2,166
5.55,1.35,200
5.55,1.5,219
5.7,-1.5,147
5.7,-1.35,147
5.7,-1.2,151
5.7,-1.05,156
5.7,-0.9,144
5.7,-0.75,168
5.7,-0.6,130
5.7,-0.45,59
5.7,-0.3,61
5.7,-0.15,147
5.7,0.0,29
5.7,0.15,107
5.7,0.3,97
5.7,0.45,138
5.7,0.6,160
5.7,0.75,133
5.7,0.9,117
5.7,1.05,134
5.7,1.2,152
5.7,1.35,170
5.7,1.5,180
5.85,-1.5,131
5.85,-1.35,131
5.85,-1.2,131
5.85,-1.05,132
5.85,-0.9,132
5.85,-0.75,127
5.85,-0.6,82
5.85,-0.45,59
5.85,-0.3,95
5.85,-0.15,244
5.85,0.0,174
5.85,0.15,71
5.85,0.3,255
5.85,0.45,255
5.85,0.6,223
5.85,0.75,156
5.85,0.9,132
5.85,1.05,142
5.85,1.2,153
5.85,1.35,163
5.85,1.5,172
6.0,-1.5,140
6.0,-1.35,139
6.0,-1.2,138
6.0,-1.05,124
6.0,-0.9,114
6.0,-0.75,95
6.0,-0.6,95
6.0,-0.45,181
6.0,-0.3,47
6.0,-0.15,128
6.0,0.0,40
6.0,0.15,35
6.0,0.3,114
6.0,0.45,1
6.0,0.6,125
6.0,0.75,130
6.0,0.9,136
6.0,1.05,138
6.0,1.2,149
6.0,1.35,172
6.0,1.5,163
6.15,-1.5,129
6.15,-1.35,128
6.15,-1.2,125
6.15,-1.05,121
6.15,-0.9,109
6.15,-0.75,96
6.15,-0.6,126
6.15,-0.45,148
6.15,-0.3,39
6.15,-0.15,141
6.15,0.0,8
6.15,0.15,18
6.15,0.3,88
6.15,0.45,113
6.15,0.6,75
6.15,0.75,101
6.15,0.9,135
6.15,1.05,148
6.15,1.2,174
6.15,1.35,182
6.15,1.5,172
6.3,-1.5,112
6.3,-1.35,126
6.3,-1.2,101
6.3,-1.05,99
6.3,-0.9,93
6.3,-0.75,82
6.3,-0.6,139
6.3,-0.45,195
6.3,-0.3,68
6.3,-0.15,16
6.3,0.0,105
6.3,0.15,61
6.3,0.3,113
6.3,0.45,150
6.3,0.6,129
6.3,0.75,125
6.3,0.9,118
6.3,1.05,124
6.3,1.2,151
6.3,1.35,177
6.3,1.5,183
6.45,-1.5,89
6.45,-1.35,103
6.45,-1.2,101
6.45,-1.05,96
6.45,-0.9,87
6.45,-0.75,48
6.45,-0.6,110
6.45,-0.45,209
6.45,-0.3,58
6.45,-0.15,172
6.45,0.0,104
6.45,0.15,176
6.45,0.3,163
6.45,0.45,164
6.45,0.6,138
6.45,0.75,126
6.45,0.9,118
6.45,1.05,132
6.45,1.2,134
6.45,1.35,136
6.45,1.5,161
6.6,-1.5,103
6.6,-1.35,101
6.6,-1.2,97
6.6,-1.05,92
6.6,-0.9,82
6.6,-0.75,71
6.6,-0.6,92
6.6,-0.45,107
6.6,-0.3,100
6.6,-0.15,3
6.6,0.0,78
6.6,0.15,148
6.6,0.3,217
6.6,0.45,197
6.6,0.6,167
6.6,0.75,164
6.6,0.9,156
6.6,1.05,154
6.6,1.2,163
6.6,1.35,154
6.6,1.5,155
6.75,-1.5,93
6.75,-1.35,83
6.75,-1.2,81
6.75,-1.05,69
6.75,-0.9,68
6.75,-0.75,66
6.75,-0.6,55
6.75,-0.45,57
6.75,-0.3,75
6.75,-0.15,14
6.75,0.0,56
6.75,0.15,105
6.75,0.3,38
6.75,0.45,120
6.75,0.6,132
6.75,0.75,144
6.75,0.9,143
6.75,1.05,142
6.75,1.2,112
6.75,1.35,106
6.75,1.5,105
6.9,-1.5,78
6.9,-1.35,93
6.9,-1.2,91
6.9,-1.05,88
6.9,-0.9,71
6.9,-0.75,67
6.9,-0.6,63
6.9,-0.45,34
6.9,-0.3,72
6.9,-0.15,43
6.9,0.0,14
6.9,0.15,64
6.9,0.3,107
6.9,0.45,105
6.9,0.6,112
6.9,0.75,110
6.9,0.9,105
6.9,1.05,104
6.9,1.2,93
6.9,1.35,92
6.9,1.5,92
7.05,-1.5,78
7.05,-1.35,78
7.05,-1.2,70
7.05,-1.05,87
7.05,-0.9,85
7.05,-0.75,81
7.05,-0.6,91
7.05,-0.45,79
7.05,-0.3,48
7.05,-0.15,52
7.05,0.0,59
7.05,0.15,70
7.05,0.3,79
7.05,0.45,79
7.05,0.6,66
7.05,0.75,77
7.05,0.9,77
7.05,1.05,83
7.05,1.2,83
7.05,1.35,78
7.05,1.5,78
7.2,-1.5,111
7.2,-1.35,110
7.2,-1.2,110
7.2,-1.05,96
7.2,-0.9,97
7.2,-0.75,99
7.2,-0.6,105
7.2,-0.45,129
7.2,-0.3,65
7.2,-0.15,42
7.2,0.0,50
7.2,0.15,87
7.2,0.3,108
7.2,0.45,43
7.2,0.6,51
7.2,0.75,41
7.2,0.9,37
7.2,1.05,37
7.2,1.2,38
7.2,1.35,38
7.2,1.5,38
7.35,-1.5,91
7.35,-1.35,112
7.35,-1.2,113
7.35,-1.05,114
7.35,-0.9,119
7.35,-0.75,115
7.35,-0.6,110
7.35,-0.45,87
7.35,-0.3,30
7.35,-0.15,18
7.35,0.0,0
7.35,0.15,0
7.35,0.3,0
7.35,0.45,5
7.35,0.6,30
7.35,0.75,34
7.35,0.9,38
7.35,1.05,38
7.35,1.2,38
7.35,1.35,38
7.35,1.5,38
7.5,-1.5,80
7.5,-1.35,75
7.5,-1.2,75
7.5,-1.05,75
7.5,-0.9,71
7.5,-0.75,61
7.5,-0.6,65
7.5,-0.45,119
7.5,-0.3,20
7.5,-0.15,47
7.5,0.0,11
7.5,0.15,21
7.5,0.3,15
7.5,0.45,17
7.5,0.6,28
7.5,0.75,25
7.5,0.9,27
7.5,1.05,27
7.5,1.2,28
7.5,1.35,19
7.5,1.5,19
7.65,-1.5,70
7.65,-1.35,70
7.65,-1.2,70
7.65,-1.05,64
7.65,-0.9,54
7.65,-0.75,47
7.65,-0.6,43
7.65,-0.45,45
7.65,-0.3,17
7.65,-0.15,47
7.65,0.0,11
7.65,0.15,99
7.65,0.3,52
7.65,0.45,33
7.65,0.6,32
7.65,0.75,31
7.65,0.9,22
7.65,1.05,21
7.65,1.2,20
7.65,1.35,20
7.65,1.5,19
7.8,-1.5,80
7.8,-1.35,79
7.8,-1.2,78
7.8,-1.05,60
7.8,-0.9,55
7.8,-0.75,51
7.8,-0.6,31
7.8,-0.45,7
7.8,-0.3,47
7.8,-0.15,47
7.8,0.0,82
7.8,0.15,29
7.8,0.3,34
7.8,0.45,43
7.8,0.6,42
7.8,0.75,28
7.8,0.9,24
7.8,1.05,35
7.8,1.2,35
7.8,1.35,34
7.8,1.5,34
7.95,-1.5,80
7.95,-1.35,61
7.95,-1.2,61
7.95,-1.05,62
7.95,-0.9,64
7.95,-0.75,66
7.95,-0.6,99
7.95,-0.45,85
7.95,-0.3,62
7.95,-0.15,185
7.95,0.0,105
7.95,0.15,58
7.95,0.3,28
7.95,0.45,43
7.95,0.6,44
7.95,0.75,40
7.95,0.9,38
7.95,1.05,41
7.95,1.2,36
7.95,1.35,35
7.95,1.5,35
8.1,-1.5,62
8.1,-1.35,63
8.1,-1.2,64
8.1,-1.05,71
8.1,-0.9,75
8.1,-0.75,82
8.1,-0.6,108
8.1,-0.45,75
8.1,-0.3,150
8.1,-0.15,45
8.1,0.0,19
8.1,0.15,75
8.1,0.3,1
8.1,0.45,44
8.1,0.6,46
8.1,0.75,46
8.1,0.9,46
8.1,1.05,46
8.1,1.2,46
8.1,1.35,46
8.1,1.5,46
8.25,-1.5,67
8.25,-1.35,63
8.25,-1.2,69
8.25,-1.05,70
8.25,-0.9,72
8.25,-0.75,78
8.25,-0.6,84
8.25,-0.45,138
8.25,-0.3,34
8.25,-0.15,3
8.25,0.0,28
8.25,0.15,21
8.25,0.3,46
8.25,0.45,46
8.25,0.6,42
8.25,0.75,42
8.25,0.9,42
8.25,1.05,46
8.25,1.2,46
8.25,1.35,41
8.25,1.5,41
8.4,-1.5,70
8.4,-1.35,84
8.4,-1.2,84
8.4,-1.05,82
8.4,-0.9,64
8.4,-0.75,61
8.4,-0.6,61
8.4,-0.45,38
8.4,-0.3,21
8.4,-0.15,16
8.4,0.0,39
8.4,0.15,21
8.4,0.3,57
8.4,0.45,30
8.4,0.6,30
8.4,0.75,30
8.4,0.9,39
8.4,1.05,40
8.4,1.2,30
8.4,1.35,46
8.4,1.5,30
8.55,-1.5,84
8.55,-1.35,84
8.55,-1.2,84
8.55,-1.05,64
8.55,-0.9,82
8.55,-0.75,69
8.55,-0.6,56
8.55,-0.45,58
8.55,-0.3,6
8.55,-0.15,31
8.55,0.0,65
8.55,0.15,75
8.55,0.3,23
8.55,0.45,35
8.55,0.6,53
8.55,0.75,38
8.55,0.9,38
8.55,1.05,24
8.55,1.2,24
8.55,1.35,24
8.55,1.5,24
8.7,-1.5,68
8.7,-1.35,84
8.7,-1.2,66
8.7,-1.05,88
8.7,-0.9,88
8.7,-0.75,88
8.7,-0.6,35
8.7,-0.45,97
8.7,-0.3,52
8.7,-0.15,43
8.7,0.0,55
8.7,0.15,119
8.7,0.3,41
8.7,0.45,47
8.7,0.6,50
8.7,0.75,57
8.7,0.9,38
8.7,1.05,38
8.7,1.2,38
8.7,1.35,22
8.7,1.5,23
8.85,-1.5,68
8.85,-1.35,68
8.85,-1.2,68
8.85,-1.05,68
8.85,-0.9,68
8.85,-0.75,78
8.85,-0.6,88
8.85,-0.45,89
8.85,-0.3,34
8.85,-0.15,17
8.85,0.0,15
8.85,0.15,33
8.85,0.3,35
8.85,0.45,35
8.85,0.6,35
8.85,0.75,35
8.85,0.9,35
8.85,1.05,37
8.85,1.2,37
8.85,1.35,37
8.85,1.5,37
9.0,-1.5,68
9.0,-1.35,68
9.0,-1.2,68
9.0,-1.05,69
9.0,-0.9,70
9.0,-0.75,73
9.0,-0.6,91
9.0,-0.45,115
9.0,-0.3,71
9.0,-0.15,9
9.0,0.0,29
9.0,0.15,71
9.0,0.3,45
9.0,0.45,47
9.0,0.6,51
9.0,0.75,51
9.0,0.9,51
9.0,1.05,51
9.0,1.2,51
9.0,1.35,37
9.0,1.5,37
9.15,-1.5,83
9.15,-1.35,83
9.15,-1.2,82
9.15,-1.05,81
9.15,-0.9,82
9.15,-0.75,73
9.15,-0.6,74
9.15,-0.45,1
9.15,-0.3,86
9.15,-0.15,71
9.15,0.0,66
9.15,0.15,66
9.15,0.3,83
9.15,0.45,48
9.15,0.6,39
9.15,0.75,43
9.15,0.9,51
9.15,1.05,51
9.15,1.2,41
9.15,1.35,42
9.15,1.5,42
9.3,-1.5,98
9.3,-1.35,83
9.3,-1.2,100
9.3,-1.05,97
9.3,-0.9,80
9.3,-0.75,70
9.3,-0.6,55
9.3,-0.45,105
9.3,-0.3,120
9.3,-0.15,41
9.3,0.0,49
9.3,0.15,60
9.3,0.3,60
9.3,0.45,9
9.3,0.6,17
9.3,0.75,40
9.3,0.9,49
9.3,1.05,49
9.3,1.2,51
9.3,1.35,52
9.3,1.5,48
9.45,-1.5,86
9.45,-1.35,76
9.45,-1.2,76
9.45,-1.05,75
9.45,-0.9,59
9.45,-0.75,61
9.45,-0.6,77
9.45,-0.45,150
9.45,-0.3,53
9.45,-0.15,3
9.45,0.0,70
9.45,0.15,63
9.45,0.3,58
9.45,0.45,32
9.45,0.6,35
9.45,0.75,50
9.45,0.9,58
9.45,1.05,62
9.45,1.2,62
9.45,1.35,62
9.45,1.5,62
9.6,-1.5,71
9.6,-1.35,75
9.6,-1.2,56
9.6,-1.05,56
9.6,-0.9,47
9.6,-0.75,58
9.6,-0.6,67
9.6,-0.45,87
9.6,-0.3,64
9.6,-0.15,16
9.6,0.0,71
9.6,0.15,81
9.6,0.3,72
9.6,0.45,63
9.6,0.6,59
9.6,0.75,59
9.6,0.9,50
9.6,1.05,62
9.6,1.2,47
9.6,1.35,48
9.6,1.5,48
9.75,-1.5,61
9.75,-1.35,61
9.75,-1.2,60
9.75,-1.05,59
9.75,-0.9,63
9.75,-0.75,55
9.75,-0.6,46
9.75,-0.45,44
9.75,-0.3,58
9.75,-0.15,85
9.75,0.0,243
9.75,0.15,112
9.75,0.3,102
9.75,0.45,70
9.75,0.6,65
9.75,0.75,62
9.75,0.9,62
9.75,1.05,62
9.75,1.2,62
9.75,1.35,62
9.75,1.5,62
9.9,-1.5,81
9.9,-1.35,81
9.9,-1.2,81
9.9,-1.05,81
9.9,-0.9,71
9.9,-0.75,58
9.9,-0.6,11
9.9,-0.45,81
9.9,-0.3,107
9.9,-0.15,83
9.9,0.0,76
9.9,0.15,52
9.9,0.3,48
9.9,0.45,56
9.9,0.6,56
9.9,0.75,59
9.9,0.9,58
9.9,1.05,58
9.9,1.2,58
9.9,1.35,59
9.9,1.5,44
10.05,-1.5,65
10.05,-1.35,65
10.05,-1.2,66
10.05,-1.05,71
10.05,-0.9,86
10.05,-0.75,86
10.05,-0.6,111
10.05,-0.45,95
10.05,-0.3,71
10.05,-0.15,83
10.05,0.0,24
10.05,0.15,60
10.05,0.3,34
10.05,0.45,44
10.05,0.6,51
10.05,0.75,34
10.05,0.9,44
10.05,1.05,58
10.05,1.2,59
10.05,1.35,59
10.05,1.5,59
10.2,-1.5,61
10.2,-1.35,62
10.2,-1.2,63
10.2,-1.05,63
10.2,-0.9,67
10.2,-0.75,78
10.2,-0.6,106
10.2,-0.45,130
10.2,-0.3,41
10.2,-0.15,0
10.2,0.0,20
10.2,0.15,27
10.2,0.3,47
10.2,0.45,53
10.2,0.6,55
10.2,0.75,36
10.2,0.9,36
10.2,1.05,36
10.2,1.2,40
10.2,1.35,40
10.2,1.5,45
10.35,-1.5,56
10.35,-1.35,57
10.35,-1.2,63
10.35,-1.05,64
10.35,-0.9,67
10.35,-0.75,71
10.35,-0.6,90
10.35,-0.45,84
10.35,-0.3,111
10.35,-0.15,58
10.35,0.0,125
10.35,0.15,75
10.35,0.3,63
10.35,0.45,65
10.35,0.6,65
10.35,0.75,65
10.35,0.9,65
10.35,1.05,65
10.35,1.2,36
10.35,1.35,36
10.35,1.5,36
10.5,-1.5,85
10.5,-1.35,85
10.5,-1.2,84
10.5,-1.05,82
10.5,-0.9,71
10.5,-0.75,64
10.5,-0.6,58
10.5,-0.45,20
10.5,-0.3,66
10.5,-0.15,97
10.5,0.0,121
10.5,0.15,65
10.5,0.3,78
10.5,0.45,82
10.5,0.6,83
10.5,0.75,67
10.5,0.9,67
10.5,1.05,67
10.5,1.2,67
10.5,1.35,67
10.5,1.5,36
10.65,-1.5,90
10.65,-1.35,89
10.65,-1.2,80
10.65,-1.05,78
10.65,-0.9,76
10.65,-0.75,73
10.65,-0.6,69
10.65,-0.45,75
10.65,-0.3,106
10.65,-0.15,84
10.65,0.0,85
10.65,0.15,80
10.65,0.3,89
10.65,0.45,91
10.65,0.6,94
10.65,0.75,85
10.65,0.9,85
10.65,1.05,85
10.65,1.2,85
10.65,1.35,57
10.65,1.5,37
10.8,-1.5,81
10.8,-1.35,81
10.8,-1.2,81
10.8,-1.05,80
10.8,-0.9,74
10.8,-0.75,75
10.8,-0.6,76
10.8,-0.45,161
10.8,-0.3,130
10.8,-0.15,130
10.8,0.0,94
10.8,0.15,80
10.8,0.3,83
10.8,0.45,86
10.8,0.6,84
10.8,0.75,76
10.8,0.9,58
10.8,1.05,57
10.8,1.2,57
10.8,1.35,42
10.8,1.5,41
10.95,-1.5,91
10.95,-1.35,91
10.95,-1.2,76
10.95,-1.05,76
10.95,-0.9,76
10.95,-0.75,83
10.95,-0.6,100
10.95,-0.45,119
10.95,-0.3,90
10.95,-0.15,89
10.95,0.0,1
10.95,0.15,77
10.95,0.3,70
10.95,0.45,70
10.95,0.6,70
10.95,0.75,75
10.95,0.9,76
10.95,1.05,76
10.95,1.2,76
10.95,1.35,76
10.95,1.5,63
11.1,-1.5,83
11.1,-1.35,83
11.1,-1.2,80
11.1,-1.05,86
11.1,-0.9,88
11.1,-0.75,95
11.1,-0.6,98
11.1,-0.45,103
11.1,-0.3,73
11.1,-0.15,64
11.1,0.0,58
11.1,0.15,49
11.1,0.3,48
11.1,0.45,49
11.1,0.6,63
11.1,0.75,70
11.1,0.9,72
11.1,1.05,53
11.1,1.2,54
11.1,1.35,54
11.1,1.5,54
11.25,-1.5,88
11.25,-1.35,89
11.25,-1.2,90
11.25,-1.05,96
11.25,-0.9,92
11.25,-0.75,91
11.25,-0.6,109
11.25,-0.45,93
11.25,-0.3,100
11.25,-0.15,76
11.25,0.0,58
11.25,0.15,42
11.25,0.3,46
11.25,0.45,48
11.25,0.6,48
11.25,0.75,78
11.25,0.9,80
11.25,1.05,81
11.25,1.2,56
11.25,1.35,77
11.25,1.5,99
11.4,-1.5,104
11.4,-1.35,119
11.4,-1.2,114
11.4,-1.05,137
11.4,-0.9,117
11.4,-0.75,117
11.4,-0.6,103
11.4,-0.45,93
11.4,-0.3,87
11.4,-0.15,69
11.4,0.0,48
11.4,0.15,34
11.4,0.3,69
11.4,0.45,86
11.4,0.6,87
11.4,0.75,117
11.4,0.9,120
11.4,1.05,121
11.4,1.2,142
11.4,1.35,143
11.4,1.5,147
11.55,-1.5,134
11.55,-1.35,134
11.55,-1.2,115
11.55,-1.05,115
11.55,-0.9,122
11.55,-0.75,122
11.55,-0.6,121
11.55,-0.45,118
11.55,-0.3,97
11.55,-0.15,96
11.55,0.0,70
11.55,0.15,73
11.55,0.3,98
11.55,0.45,111
11.55,0.6,125
11.55,0.75,145
11.55,0.9,146
11.55,1.05,146
11.55,1.2,147
11.55,1.35,147
11.55,1.5,145
11.7,-1.5,76
11.7,-1.35,82
11.7,-1.2,83
11.7,-1.05,73
11.7,-0.9,74
11.7,-0.75,77
11.7,-0.6,75
11.7,-0.45,92
11.7,-0.3,119
11.7,-0.15,128
11.7,0.0,100
11.7,0.15,181
11.7,0.3,189
11.7,0.45,164
11.7,0.6,158
11.7,0.75,155
11.7,0.9,148
11.7,1.05,147
11.7,1.2,151
11.7,1.35,149
11.7,1.5,145
11.85,-1.5,58
11.85,-1.35,58
11.85,-1.2,73
11.85,-1.05,73
11.85,-0.9,74
11.85,-0.75,75
11.85,-0.6,77
11.85,-0.45,86
11.85,-0.3,99
11.85,-0.15,81
11.85,0.0,93
11.85,0.15,154
11.85,0.3,193
11.85,0.45,194
11.85,0.6,180
11.85,0.75,176
11.85,0.9,187
11.85,1.05,187
11.85,1.2,152
11.85,1.35,147
11.85,1.5,142
12.0,-1.5,58
12.0,-1.35,59
12.0,-1.2,61
12.0,-1.05,78
12.0,-0.9,78
12.0,-0.75,76
12.0,-0.6,71
12.0,-0.45,60
12.0,-0.3,19
12.0,-0.15,38
12.0,0.0,130
12.0,0.15,255
12.0,0.3,209
12.0,0.45,194
12.0,0.6,192
12.0,0.75,187
12.0,0.9,184
12.0,1.05,181
12.0,1.2,155
12.0,1.35,148
12.0,1.5,124
12.15,-1.5,55
12.15,-1.35,57
12.15,-1.2,59
12.15,-1.05,78
12.15,-0.9,78
12.15,-0.75,61
12.15,-0.6,48
12.15,-0.45,29
12.15,-0.3,21
12.15,-0.15,109
12.15,0.0,176
12.15,0.15,166
12.15,0.3,172
12.15,0.45,170
12.15,0.6,182
12.15,0.75,160
12.15,0.9,159
12.15,1.05,155
12.15,1.2,147
12.15,1.35,126
12.15,1.5,119
12.3,-1.5,49
12.3,-1.35,50
12.3,-1.2,53
12.3,-1.05,77
12.3,-0.9,78
12.3,-0.75,78
12.3,-0.6,77
12.3,-0.45,74
12.3,-0.3,69
12.3,-0.15,141
12.3,0.0,63
12.3,0.15,65
12.3,0.3,59
12.3,0.45,93
12.3,0.6,107
12.3,0.75,113
12.3,0.9,135
12.3,1.05,129
12.3,1.2,122
12.3,1.35,113
12.3,1.5,105
12.45,-1.5,49
12.45,-1.35,54
12.45,-1.2,61
12.45,-1.05,67
12.45,-0.9,81
12.45,-0.75,81
12.45,-0.6,74
12.45,-0.45,106
12.45,-0.3,116
12.45,-0.15,16
12.45,0.0,57
12.45,0.15,59
12.45,0.3,68
12.45,0.45,69
12.45,0.6,67
12.45,0.75,89
12.45,0.9,99
12.45,1.05,93
12.45,1.2,85
12.45,1.35,91
12.45,1.5,86
12.6,-1.5,43
12.6,-1.35,52
12.6,-1.2,65
12.6,-1.05,76
12.6,-0.9,83
12.6,-0.75,85
12.6,-0.6,87
12.6,-0.45,91
12.6,-0.3,154
12.6,-0.15,77
12.6,0.0,36
12.6,0.15,27
12.6,0.3,24
12.6,0.45,25
12.6,0.6,35
12.6,0.75,45
12.6,0.9,43
12.6,1.05,47
12.6,1.2,39
12.6,1.35,43
12.6,1.5,36
12.75,-1.5,22
12.75,-1.35,32
12.75,-1.2,55
12.75,-1.05,68
12.75,-0.9,77
12.75,-0.75,81
12.75,-0.6,84
12.75,-0.45,76
12.75,-0.3,37
12.75,-0.15,78
12.75,0.0,14
12.75,0.15,11
12.75,0.3,16
12.75,0.45,18
12.75,0.6,13
12.75,0.75,8
12.75,0.9,7
12.75,1.05,5
12.75,1.2,14
12.75,1.35,16
12.75,1.5,10
12.9,-1.5,0
12.9,-1.35,13
12.9,-1.2,41
12.9,-1.05,62
12.9,-0.9,74
12.9,-0.75,73
12.9,-0.6,72
12.9,-0.45,69
12.9,-0.3,60
12.9,-0.15,2
12.9,0.0,14
12.9,0.15,19
12.9,0.3,11
12.9,0.45,11
12.9,0.6,17
12.9,0.75,12
12.9,0.9,10
12.9,1.05,7
12.9,1.2,2
12.9,1.35,0
12.9,1.5,0
13.05,-1.5,0
13.05,-1.35,8
13.05,-1.2,34
13.05,-1.05,55
13.05,-0.9,62
13.05,-0.75,71
13.05,-0.6,69
13.05,-0.45,62
13.05,-0.3,40
13.05,-0.15,36
13.05,0.0,31
13.05,0.15,25
13.05,0.3,25
13.05,0.45,11
13.05,0.6,11
13.05,0.75,11
13.05,0.9,9
13.05,1.05,6
13.05,1.2,2
13.05,1.35,0
13.05,1.5,0
