-3.0,-1.5,0
-3.0,-1.35,6
-3.0,-1.2,19
-3.0,-1.05,21
-3.0,-0.9,24
-3.0,-0.75,35
-3.0,-0.6,48
-3.0,-0.45,64
-3.0,-0.3,73
-3.0,-0.15,80
-3.0,0.0,80
-3.0,0.15,80
-3.0,0.3,80
-3.0,0.45,82
-3.0,0.6,78
-3.0,0.75,72
-3.0,0.9,62
-3.0,1.05,46
-3.0,1.2,25
-3.0,1.35,4
-3.0,1.5,0
-2.85,-1.5,6
-2.85,-1.35,14
-2.85,-1.2,17
-2.85,-1.05,6
-2.85,-0.9,10
-2.85,-0.75,28
-2.85,-0.6,48
-2.85,-0.45,64
-2.85,-0.3,78
-2.85,-0.15,84
-2.85,0.0,86
-2.85,0.15,82
-2.85,0.3,84
-2.85,0.45,83
-2.85,0.6,80
-2.85,0.75,76
-2.85,0.9,67
-2.85,1.05,53
-2.85,1.2,33
-2.85,1.35,13
-2.85,1.5,4
-2.7,-1.5,28
-2.7,-1.35,28
-2.7,-1.2,20
-2.7,-1.05,1
-2.7,-0.9,5
-2.7,-0.75,25
-2.7,-0.6,42
-2.7,-0.45,66
-2.7,-0.3,86
-2.7,-0.15,91
-2.7,0.0,86
-2.7,0.15,86
-2.7,0.3,83
-2.7,0.45,83
-2.7,0.6,82
-2.7,0.75,80
-2.7,0.9,74
-2.7,1.05,64
-2.7,1.2,49
-2.7,1.35,34
-2.7,1.5,26
-2.55,-1.5,48
-2.55,-1.35,45
-2.55,-1.2,36
-2.55,-1.05,23
-2.55,-0.9,19
-2.55,-0.75,13
-2.55,-0.6,27
-2.55,-0.45,74
-2.55,-0.3,105
-2.55,-0.15,98
-2.55,0.0,81
-2.55,0.15,77
-2.55,0.3,80
-2.55,0.45,83
-2.55,0.6,84
-2.55,0.75,83
-2.55,0.9,81
-2.55,1.05,75
-2.55,1.2,66
-2.55,1.35,56
-2.55,1.5,52
-2.4,-1.5,67
-2.4,-1.35,65
-2.4,-1.2,58
-2.4,-1.05,45
-2.4,-0.9,22
-2.4,-0.75,0
-2.4,-0.6,16
-2.4,-0.45,120
-2.4,-0.3,159
-2.4,-0.15,113
-2.4,0.0,61
-2.4,0.15,65
-2.4,0.3,78
-2.4,0.45,82
-2.4,0.6,84
-2.4,0.75,87
-2.4,0.9,89
-2.4,1.05,86
-2.4,1.2,78
-2.4,1.35,75
-2.4,1.5,70
-2.25,-1.5,87
-2.25,-1.35,89
-2.25,-1.2,88
-2.25,-1.05,77
-2.25,-0.9,54
-2.25,-0.75,39
-2.25,-0.6,85
-2.25,-0.45,246
-2.25,-0.3,253
-2.25,-0.15,149
-2.25,0.0,82
-2.25,0.15,77
-2.25,0.3,83
-2.25,0.45,77
-2.25,0.6,84
-2.25,0.75,96
-2.25,0.9,95
-2.25,1.05,91
-2.25,1.2,88
-2.25,1.35,86
-2.25,1.5,82
-2.1,-1.5,106
-2.1,-1.35,117
-2.1,-1.2,130
-2.1,-1.05,133
-2.1,-0.9,113
-2.1,-0.75,102
-2.1,-0.6,140
-2.1,-0.45,226
-2.1,-0.3,232
-2.1,-0.15,168
-2.1,0.0,121
-2.1,0.15,101
-2.1,0.3,83
-2.1,0.45,57
-2.1,0.6,69
-2.1,0.75,114
-2.1,0.9,100
-2.1,1.05,94
-2.1,1.2,94
-2.1,1.35,93
-2.1,1.5,91
-1.95,-1.5,120
-1.95,-1.35,140
-1.95,-1.2,175
-1.95,-1.05,207
-1.95,-0.9,176
-1.95,-0.75,143
-1.95,-0.6,151
-1.95,-0.45,177
-1.95,-0.3,187
-1.95,-0.15,170
-1.95,0.0,143
-1.95,0.15,116
-1.95,0.3,76
-1.95,0.45,29
-1.95,0.6,0
-1.95,0.75,77
-1.95,0.9,91
-1.95,1.05,95
-1.95,1.2,100
-1.95,1.35,100
-1.95,1.5,97
-1.8,-1.5,132
-1.8,-1.35,151
-1.8,-1.2,186
-1.8,-1.05,229
-1.8,-0.9,194
-1.8,-0.75,156
-1.8,-0.6,160
-1.8,-0.45,178
-1.8,-0.3,192
-1.8,-0.15,190
-1.8,0.0,163
-1.8,0.15,125
-1.8,0.3,88
-1.8,0.45,49
-1.8,0.6,32
-1.8,0.75,63
-1.8,0.9,87
-1.8,1.05,102
-1.8,1.2,109
-1.8,1.35,107
-1.8,1.5,102
-1.65,-1.5,127
-1.65,-1.35,137
-1.65,-1.2,153
-1.65,-1.05,167
-1.65,-0.9,156
-1.65,-0.75,144
-1.65,-0.6,161
-1.65,-0.45,194
-1.65,-0.3,237
-1.65,-0.15,237
-1.65,0.0,193
-1.65,0.15,146
-1.65,0.3,112
-1.65,0.45,85
-1.65,0.6,74
-1.65,0.75,81
-1.65,0.9,95
-1.65,1.05,106
-1.65,1.2,115
-1.65,1.35,109
-1.65,1.5,100
-1.5,-1.5,122
-1.5,-1.35,115
-1.5,-1.2,109
-1.5,-1.05,101
-1.5,-0.9,104
-1.5,-0.75,127
-1.5,-0.6,161
-1.5,-0.45,202
-1.5,-0.3,255
-1.5,-0.15,255
-1.5,0.0,206
-1.5,0.15,155
-1.5,0.3,125
-1.5,0.45,107
-1.5,0.6,96
-1.5,0.75,94
-1.5,0.9,93
-1.5,1.05,103
-1.5,1.2,108
-1.5,1.35,102
-1.5,1.5,93
-1.35,-1.5,113
-1.35,-1.35,100
-1.35,-1.2,81
-1.35,-1.05,65
-1.35,-0.9,64
-1.35,-0.75,103
-1.35,-0.6,151
-1.35,-0.45,195
-1.35,-0.3,226
-1.35,-0.15,224
-1.35,0.0,180
-1.35,0.15,143
-1.35,0.3,123
-1.35,0.45,113
-1.35,0.6,97
-1.35,0.75,92
-1.35,0.9,92
-1.35,1.05,95
-1.35,1.2,98
-1.35,1.35,97
-1.35,1.5,86
-1.2,-1.5,103
-1.2,-1.35,91
-1.2,-1.2,75
-1.2,-1.05,58
-1.2,-0.9,68
-1.2,-0.75,104
-1.2,-0.6,144
-1.2,-0.45,184
-1.2,-0.3,226
-1.2,-0.15,192
-1.2,0.0,152
-1.2,0.15,123
-1.2,0.3,114
-1.2,0.45,109
-1.2,0.6,99
-1.2,0.75,91
-1.2,0.9,88
-1.2,1.05,87
-1.2,1.2,87
-1.2,1.35,87
-1.2,1.5,78
-1.05,-1.5,117
-1.05,-1.35,107
-1.05,-1.2,93
-1.05,-1.05,86
-1.05,-0.9,96
-1.05,-0.75,112
-1.05,-0.6,134
-1.05,-0.45,134
-1.05,-0.3,125
-1.05,-0.15,124
-1.05,0.0,117
-1.05,0.15,111
-1.05,0.3,113
-1.05,0.45,106
-1.05,0.6,95
-1.05,0.75,87
-1.05,0.9,80
-1.05,1.05,69
-1.05,1.2,76
-1.05,1.35,69
-1.05,1.5,69
-0.9,-1.5,125
-0.9,-1.35,123
-0.9,-1.2,119
-0.9,-1.05,121
-0.9,-0.9,130
-0.9,-0.75,137
-0.9,-0.6,126
-0.9,-0.45,95
-0.9,-0.3,56
-0.9,-0.15,55
-0.9,0.0,72
-0.9,0.15,98
-0.9,0.3,102
-0.9,0.45,94
-0.9,0.6,87
-0.9,0.75,78
-0.9,0.9,63
-0.9,1.05,51
-0.9,1.2,50
-0.9,1.35,51
-0.9,1.5,50
-0.75,-1.5,123
-0.75,-1.35,126
-0.75,-1.2,133
-0.75,-1.05,139
-0.75,-0.9,165
-0.75,-0.75,167
-0.75,-0.6,141
-0.75,-0.45,104
-0.75,-0.3,61
-0.75,-0.15,0
-0.75,0.0,41
-0.75,0.15,76
-0.75,0.3,91
-0.75,0.45,93
-0.75,0.6,88
-0.75,0.75,71
-0.75,0.9,50
-0.75,1.05,37
-0.75,1.2,38
-0.75,1.35,40
-0.75,1.5,43
-0.6,-1.5,126
-0.6,-1.35,125
-0.6,-1.2,140
-0.6,-1.05,167
-0.6,-0.9,215
-0.6,-0.75,236
-0.6,-0.6,172
-0.6,-0.45,119
-0.6,-0.3,88
-0.6,-0.15,55
-0.6,0.0,61
-0.6,0.15,69
-0.6,0.3,77
-0.6,0.45,87
-0.6,0.6,106
-0.6,0.75,86
-0.6,0.9,29
-0.6,1.05,17
-0.6,1.2,29
-0.6,1.35,33
-0.6,1.5,38
-0.45,-1.5,111
-0.45,-1.35,120
-0.45,-1.2,136
-0.45,-1.05,165
-0.45,-0.9,229
-0.45,-0.75,255
-0.45,-0.6,180
-0.45,-0.45,133
-0.45,-0.3,112
-0.45,-0.15,100
-0.45,0.0,81
-0.45,0.15,68
-0.45,0.3,68
-0.45,0.45,83
-0.45,0.6,99
-0.45,0.75,72
-0.45,0.9,7
-0.45,1.05,3
-0.45,1.2,24
-0.45,1.35,38
-0.45,1.5,36
-0.3,-1.5,107
-0.3,-1.35,115
-0.3,-1.2,126
-0.3,-1.05,141
-0.3,-0.9,150
-0.3,-0.75,139
-0.3,-0.6,139
-0.3,-0.45,135
-0.3,-0.3,133
-0.3,-0.15,124
-0.3,0.0,98
-0.3,0.15,92
-0.3,0.3,77
-0.3,0.45,64
-0.3,0.6,49
-0.3,0.75,38
-0.3,0.9,27
-0.3,1.05,22
-0.3,1.2,30
-0.3,1.35,30
-0.3,1.5,35
-0.15,-1.5,101
-0.15,-1.35,105
-0.15,-1.2,110
-0.15,-1.05,113
-0.15,-0.9,115
-0.15,-0.75,113
-0.15,-0.6,106
-0.15,-0.45,153
-0.15,-0.3,155
-0.15,-0.15,131
-0.15,0.0,108
-0.15,0.15,96
-0.15,0.3,76
-0.15,0.45,56
-0.15,0.6,27
-0.15,0.75,9
-0.15,0.9,30
-0.15,1.05,34
-0.15,1.2,36
-0.15,1.35,38
-0.15,1.5,38
0.0,-1.5,89
0.0,-1.35,90
0.0,-1.2,90
0.0,-1.05,89
0.0,-0.9,87
0.0,-0.75,77
0.0,-0.6,62
0.0,-0.45,144
0.0,-0.3,132
0.0,-0.15,110
0.0,0.0,110
0.0,0.15,107
0.0,0.3,86
0.0,0.45,54
0.0,0.6,49
0.0,0.75,28
0.0,0.9,34
0.0,1.05,36
0.0,1.2,38
0.0,1.35,38
0.0,1.5,38
0.15,-1.5,79
0.15,-1.35,76
0.15,-1.2,71
0.15,-1.05,62
0.15,-0.9,50
0.15,-0.75,61
0.15,-0.6,79
0.15,-0.45,79
0.15,-0.3,55
0.15,-0.15,87
0.15,0.0,119
0.15,0.15,126
0.15,0.3,87
0.15,0.45,62
0.15,0.6,54
0.15,0.75,43
0.15,0.9,36
0.15,1.05,36
0.15,1.2,38
0.15,1.35,38
0.15,1.5,38
0.3,-1.5,70
0.3,-1.35,65
0.3,-1.2,56
0.3,-1.05,41
0.3,-0.9,8
0.3,-0.75,12
0.3,-0.6,58
0.3,-0.45,73
0.3,-0.3,73
0.3,-0.15,97
0.3,0.0,154
0.3,0.15,196
0.3,0.3,121
0.3,0.45,72
0.3,0.6,54
0.3,0.75,32
0.3,0.9,21
0.3,1.05,29
0.3,1.2,35
0.3,1.35,38
0.3,1.5,38
0.45,-1.5,63
0.45,-1.35,56
0.45,-1.2,47
0.45,-1.05,34
0.45,-0.9,17
0.45,-0.75,20
0.45,-0.6,40
0.45,-0.45,63
0.45,-0.3,76
0.45,-0.15,81
0.45,0.0,180
0.45,0.15,255
0.45,0.3,121
0.45,0.45,74
0.45,0.6,47
0.45,0.75,9
0.45,0.9,9
0.45,1.05,22
0.45,1.2,32
0.45,1.35,38
0.45,1.5,38
0.6,-1.5,42
0.6,-1.35,40
0.6,-1.2,33
0.6,-1.05,23
0.6,-0.9,10
0.6,-0.75,9
0.6,-0.6,25
0.6,-0.45,39
0.6,-0.3,55
0.6,-0.15,58
0.6,0.0,102
0.6,0.15,106
0.6,0.3,61
0.6,0.45,61
0.6,0.6,41
0.6,0.75,9
0.6,0.9,13
0.6,1.05,24
0.6,1.2,32
0.6,1.35,36
0.6,1.5,38
0.75,-1.5,27
0.75,-1.35,27
0.75,-1.2,20
0.75,-1.05,9
0.75,-0.9,0
0.75,-0.75,0
0.75,-0.6,11
0.75,-0.45,30
0.75,-0.3,41
0.75,-0.15,45
0.75,0.0,60
0.75,0.15,67
0.75,0.3,61
0.75,0.45,58
0.75,0.6,39
0.75,0.75,2
0.75,0.9,15
0.75,1.05,30
0.75,1.2,38
0.75,1.35,38
0.75,1.5,38
0.9,-1.5,27
0.9,-1.35,21
0.9,-1.2,18
0.9,-1.05,15
0.9,-0.9,10
0.9,-0.75,9
0.9,-0.6,1
0.9,-0.45,20
0.9,-0.3,25
0.9,-0.15,3
0.9,0.0,37
0.9,0.15,55
0.9,0.3,60
0.9,0.45,57
0.9,0.6,49
0.9,0.75,34
0.9,0.9,36
0.9,1.05,38
0.9,1.2,30
0.9,1.35,30
0.9,1.5,31
1.05,-1.5,26
1.05,-1.35,25
1.05,-1.2,24
1.05,-1.05,22
1.05,-0.9,20
1.05,-0.75,15
1.05,-0.6,15
1.05,-0.45,44
1.05,-0.3,31
1.05,-0.15,6
1.05,0.0,25
1.05,0.15,55
1.05,0.3,63
1.05,0.45,60
1.05,0.6,55
1.05,0.75,38
1.05,0.9,37
1.05,1.05,37
1.05,1.2,38
1.05,1.35,39
1.05,1.5,40
1.2,-1.5,32
1.2,-1.35,32
1.2,-1.2,31
1.2,-1.05,31
1.2,-0.9,29
1.2,-0.75,28
1.2,-0.6,34
1.2,-0.45,46
1.2,-0.3,44
1.2,-0.15,28
1.2,0.0,50
1.2,0.15,82
1.2,0.3,64
1.2,0.45,55
1.2,0.6,55
1.2,0.75,50
1.2,0.9,46
1.2,1.05,44
1.2,1.2,43
1.2,1.35,43
1.2,1.5,43
1.35,-1.5,35
1.35,-1.35,37
1.35,-1.2,39
1.35,-1.05,42
1.35,-0.9,41
1.35,-0.75,36
1.35,-0.6,29
1.35,-0.45,17
1.35,-0.3,25
1.35,-0.15,21
1.35,0.0,9
1.35,0.15,92
1.35,0.3,67
1.35,0.45,64
1.35,0.6,56
1.35,0.75,51
1.35,0.9,45
1.35,1.05,46
1.35,1.2,44
1.35,1.35,43
1.35,1.5,43
1.5,-1.5,40
1.5,-1.35,44
1.5,-1.2,47
1.5,-1.05,50
1.5,-0.9,50
1.5,-0.75,47
1.5,-0.6,31
1.5,-0.45,6
1.5,-0.3,21
1.5,-0.15,30
1.5,0.0,32
1.5,0.15,56
1.5,0.3,72
1.5,0.45,72
1.5,0.6,59
1.5,0.75,51
1.5,0.9,51
1.5,1.05,50
1.5,1.2,44
1.5,1.35,43
1.5,1.5,54
1.65,-1.5,39
1.65,-1.35,43
1.65,-1.2,48
1.65,-1.05,50
1.65,-0.9,50
1.65,-0.75,50
1.65,-0.6,47
1.65,-0.45,44
1.65,-0.3,49
1.65,-0.15,46
1.65,0.0,46
1.65,0.15,53
1.65,0.3,89
1.65,0.45,88
1.65,0.6,51
1.65,0.75,50
1.65,0.9,51
1.65,1.05,46
1.65,1.2,44
1.65,1.35,52
1.65,1.5,56
1.8,-1.5,39
1.8,-1.35,41
1.8,-1.2,43
1.8,-1.05,47
1.8,-0.9,50
1.8,-0.75,48
1.8,-0.6,50
1.8,-0.45,53
1.8,-0.3,53
1.8,-0.15,45
1.8,0.0,42
1.8,0.15,42
1.8,0.3,51
1.8,0.45,50
1.8,0.6,23
1.8,0.75,51
1.8,0.9,52
1.8,1.05,53
1.8,1.2,55
1.8,1.35,56
1.8,1.5,54
1.95,-1.5,37
1.95,-1.35,41
1.95,-1.2,41
1.95,-1.05,42
1.95,-0.9,42
1.95,-0.75,44
1.95,-0.6,49
1.95,-0.45,50
1.95,-0.3,53
1.95,-0.15,47
1.95,0.0,42
1.95,0.15,46
1.95,0.3,43
1.95,0.45,49
1.95,0.6,34
1.95,0.75,43
1.95,0.9,52
1.95,1.05,54
1.95,1.2,56
1.95,1.35,57
1.95,1.5,58
2.1,-1.5,35
2.1,-1.35,34
2.1,-1.2,33
2.1,-1.05,31
2.1,-0.9,30
2.1,-0.75,34
2.1,-0.6,50
2.1,-0.45,56
2.1,-0.3,47
2.1,-0.15,37
2.1,0.0,42
2.1,0.15,39
2.1,0.3,37
2.1,0.45,39
2.1,0.6,43
2.1,0.75,50
2.1,0.9,53
2.1,1.05,56
2.1,1.2,58
2.1,1.35,59
2.1,1.5,60
2.25,-1.5,33
2.25,-1.35,32
2.25,-1.2,31
2.25,-1.05,37
2.25,-0.9,25
2.25,-0.75,28
2.25,-0.6,19
2.25,-0.45,62
2.25,-0.3,43
2.25,-0.15,25
2.25,0.0,22
2.25,0.15,50
2.25,0.3,29
2.25,0.45,40
2.25,0.6,50
2.25,0.75,49
2.25,0.9,53
2.25,1.05,65
2.25,1.2,68
2.25,1.35,69
2.25,1.5,70
2.4,-1.5,45
2.4,-1.35,58
2.4,-1.2,54
2.4,-1.05,36
2.4,-0.9,8
2.4,-0.75,16
2.4,-0.6,16
2.4,-0.45,32
2.4,-0.3,31
2.4,-0.15,76
2.4,0.0,70
2.4,0.15,39
2.4,0.3,35
2.4,0.45,41
2.4,0.6,26
2.4,0.75,47
2.4,0.9,71
2.4,1.05,75
2.4,1.2,75
2.4,1.35,75
2.4,1.5,74
2.55,-1.5,58
2.55,-1.35,56
2.55,-1.2,54
2.55,-1.05,51
2.55,-0.9,47
2.55,-0.75,50
2.55,-0.6,101
2.55,-0.45,122
2.55,-0.3,104
2.55,-0.15,152
2.55,0.0,128
2.55,0.15,83
2.55,0.3,52
2.55,0.45,38
2.55,0.6,50
2.55,0.75,101
2.55,0.9,93
2.55,1.05,85
2.55,1.2,81
2.55,1.35,79
2.55,1.5,78
2.7,-1.5,57
2.7,-1.35,60
2.7,-1.2,58
2.7,-1.05,55
2.7,-0.9,60
2.7,-0.75,59
2.7,-0.6,134
2.7,-0.45,80
2.7,-0.3,212
2.7,-0.15,198
2.7,0.0,190
2.7,0.15,143
2.7,0.3,59
2.7,0.45,36
2.7,0.6,88
2.7,0.75,173
2.7,0.9,106
2.7,1.05,89
2.7,1.2,82
2.7,1.35,79
2.7,1.5,79
2.85,-1.5,62
2.85,-1.35,62
2.85,-1.2,61
2.85,-1.05,61
2.85,-0.9,68
2.85,-0.75,59
2.85,-0.6,59
2.85,-0.45,136
2.85,-0.3,176
2.85,-0.15,212
2.85,0.0,255
2.85,0.15,197
2.85,0.3,29
2.85,0.45,35
2.85,0.6,95
2.85,0.75,106
2.85,0.9,93
2.85,1.05,87
2.85,1.2,82
2.85,1.35,79
2.85,1.5,76
3.0,-1.5,65
3.0,-1.35,65
3.0,-1.2,65
3.0,-1.05,65
3.0,-0.9,73
3.0,-0.75,133
3.0,-0.6,112
3.0,-0.45,105
3.0,-0.3,144
3.0,-0.15,255
3.0,0.0,255
3.0,0.15,181
3.0,0.3,87
3.0,0.45,73
3.0,0.6,113
3.0,0.75,156
3.0,0.9,79
3.0,1.05,81
3.0,1.2,79
3.0,1.35,77
3.0,1.5,75
3.15,-1.5,65
3.15,-1.35,49
3.15,-1.2,49
3.15,-1.05,50
3.15,-0.9,49
3.15,-0.75,28
3.15,-0.6,45
3.15,-0.45,47
3.15,-0.3,78
3.15,-0.15,185
3.15,0.0,147
3.15,0.15,117
3.15,0.3,85
3.15,0.45,83
3.15,0.6,95
3.15,0.75,86
3.15,0.9,63
3.15,1.05,71
3.15,1.2,72
3.15,1.35,71
3.15,1.5,72
3.3,-1.5,50
3.3,-1.35,50
3.3,-1.2,49
3.3,-1.05,43
3.3,-0.9,35
3.3,-0.75,13
3.3,-0.6,27
3.3,-0.45,30
3.3,-0.3,46
3.3,-0.15,72
3.3,0.0,57
3.3,0.15,54
3.3,0.3,53
3.3,0.45,42
3.3,0.6,58
3.3,0.75,61
3.3,0.9,61
3.3,1.05,66
3.3,1.2,69
3.3,1.35,70
3.3,1.5,67
3.45,-1.5,49
3.45,-1.35,44
3.45,-1.2,43
3.45,-1.05,39
3.45,-0.9,39
3.45,-0.75,24
3.45,-0.6,33
3.45,-0.45,52
3.45,-0.3,93
3.45,-0.15,59
3.45,0.0,0
3.45,0.15,15
3.45,0.3,15
3.45,0.45,41
3.45,0.6,30
3.45,0.75,5
3.45,0.9,39
3.45,1.05,56
3.45,1.2,62
3.45,1.35,67
3.45,1.5,69
3.6,-1.5,43
3.6,-1.35,42
3.6,-1.2,39
3.6,-1.05,44
3.6,-0.9,42
3.6,-0.75,42
3.6,-0.6,61
3.6,-0.45,72
3.6,-0.3,193
3.6,-0.15,164
3.6,0.0,84
3.6,0.15,46
3.6,0.3,38
3.6,0.45,44
3.6,0.6,39
3.6,0.75,19
3.6,0.9,31
3.6,1.05,43
3.6,1.2,48
3.6,1.35,51
3.6,1.5,61
3.75,-1.5,42
3.75,-1.35,54
3.75,-1.2,65
3.75,-1.05,51
3.75,-0.9,52
3.75,-0.75,57
3.75,-0.6,65
3.75,-0.45,67
3.75,-0.3,32
3.75,-0.15,114
3.75,0.0,73
3.75,0.15,41
3.75,0.3,54
3.75,0.45,55
3.75,0.6,19
3.75,0.75,2
3.75,0.9,27
3.75,1.05,38
3.75,1.2,43
3.75,1.35,47
3.75,1.5,49
3.9,-1.5,54
3.9,-1.35,47
3.9,-1.2,56
3.9,-1.05,70
3.9,-0.9,70
3.9,-0.75,70
3.9,-0.6,63
3.9,-0.45,106
3.9,-0.3,137
3.9,-0.15,90
3.9,0.0,43
3.9,0.15,49
3.9,0.3,58
3.9,0.45,107
3.9,0.6,37
3.9,0.75,22
3.9,0.9,26
3.9,1.05,36
3.9,1.2,41
3.9,1.35,44
3.9,1.5,46
4.05,-1.5,49
4.05,-1.35,45
4.05,-1.2,43
4.05,-1.05,52
4.05,-0.9,43
4.05,-0.75,57
4.05,-0.6,97
4.05,-0.45,122
4.05,-0.3,112
4.05,-0.15,78
4.05,0.0,43
4.05,0.15,48
4.05,0.3,40
4.05,0.45,38
4.05,0.6,6
4.05,0.75,24
4.05,0.9,26
4.05,1.05,28
4.05,1.2,41
4.05,1.35,43
4.05,1.5,45
4.2,-1.5,49
4.2,-1.35,48
4.2,-1.2,47
4.2,-1.05,35
4.2,-0.9,9
4.2,-0.75,18
4.2,-0.6,115
4.2,-0.45,213
4.2,-0.3,125
4.2,-0.15,216
4.2,0.0,110
4.2,0.15,44
4.2,0.3,40
4.2,0.45,24
4.2,0.6,26
4.2,0.75,35
4.2,0.9,36
4.2,1.05,36
4.2,1.2,56
4.2,1.35,60
4.2,1.5,62
4.35,-1.5,49
4.35,-1.35,49
4.35,-1.2,47
4.35,-1.05,40
4.35,-0.9,28
4.35,-0.75,38
4.35,-0.6,90
4.35,-0.45,131
4.35,-0.3,112
4.35,-0.15,255
4.35,0.0,153
4.35,0.15,13
4.35,0.3,36
4.35,0.45,41
4.35,0.6,24
4.35,0.75,30
4.35,0.9,47
4.35,1.05,55
4.35,1.2,63
4.35,1.35,69
4.35,1.5,67
4.5,-1.5,49
4.5,-1.35,49
4.5,-1.2,48
4.5,-1.05,43
4.5,-0.9,42
4.5,-0.75,42
4.5,-0.6,25
4.5,-0.45,35
4.5,-0.3,22
4.5,-0.15,102
4.5,0.0,67
4.5,0.15,72
4.5,0.3,14
4.5,0.45,63
4.5,0.6,43
4.5,0.75,44
4.5,0.9,56
4.5,1.05,64
4.5,1.2,63
4.5,1.35,86
4.5,1.5,86
4.65,-1.5,48
4.65,-1.35,23
4.65,-1.2,23
4.65,-1.05,24
4.65,-0.9,25
4.65,-0.75,39
4.65,-0.6,34
4.65,-0.45,45
4.65,-0.3,50
4.65,-0.15,47
4.65,0.0,70
4.65,0.15,79
4.65,0.3,58
4.65,0.45,146
4.65,0.6,115
4.65,0.75,88
4.65,0.9,77
4.65,1.05,70
4.65,1.2,87
4.65,1.35,94
4.65,1.5,97
4.8,-1.5,27
4.8,-1.35,28
4.8,-1.2,29
4.8,-1.05,31
4.8,-0.9,32
4.8,-0.75,35
4.8,-0.6,30
4.8,-0.45,33
4.8,-0.3,27
4.8,-0.15,113
4.8,0.0,154
4.8,0.15,125
4.8,0.3,59
4.8,0.45,191
4.8,0.6,131
4.8,0.75,95
4.8,0.9,90
4.8,1.05,103
4.8,1.2,98
4.8,1.35,102
4.8,1.5,104
4.95,-1.5,51
4.95,-1.35,50
4.95,-1.2,31
4.95,-1.05,49
4.95,-0.9,49
4.95,-0.75,52
4.95,-0.6,44
4.95,-0.45,27
4.95,-0.3,48
4.95,-0.15,89
4.95,0.0,29
4.95,0.15,174
4.95,0.3,68
4.95,0.45,81
4.95,0.6,112
4.95,0.75,95
4.95,0.9,105
4.95,1.05,118
4.95,1.2,116
4.95,1.35,135
4.95,1.5,137
5.1,-1.5,80
5.1,-1.35,81
5.1,-1.2,86
5.1,-1.05,64
5.1,-0.9,60
5.1,-0.75,54
5.1,-0.6,35
5.1,-0.45,16
5.1,-0.3,79
5.1,-0.15,189
5.1,0.0,209
5.1,0.15,227
5.1,0.3,154
5.1,0.45,108
5.1,0.6,54
5.1,0.75,67
5.1,0.9,98
5.1,1.05,126
5.1,1.2,144
5.1,1.35,149
5.1,1.5,148
5.25,-1.5,116
5.25,-1.35,113
5.25,-1.2,109
5.25,-1.05,93
5.25,-0.9,88
5.25,-0.75,74
5.25,-0.6,77
5.25,-0.45,104
5.25,-0.3,121
5.25,-0.15,130
5.25,0.0,131
5.25,0.15,185
5.25,0.3,139
5.25,0.45,171
5.25,0.6,95
5.25,0.75,83
5.25,0.9,107
5.25,1.05,155
5.25,1.2,171
5.25,1.35,160
5.25,1.5,148
5.4,-1.5,126
5.4,-1.35,127
5.4,-1.2,138
5.4,-1.05,138
5.4,-0.9,127
5.4,-0.75,121
5.4,-0.6,87
5.4,-0.45,247
5.4,-0.3,194
5.4,-0.15,191
5.4,0.0,161
5.4,0.15,140
5.4,0.3,98
5.4,0.45,131
5.4,0.6,184
5.4,0.75,123
5.4,0.9,129
5.4,1.05,255
5.4,1.2,235
5.4,1.35,172
5.4,1.5,144
5.55,-1.5,132
5.55,-1.35,135
5.55,-1.2,149
5.55,-1.05,154
5.55,-0.9,164
5.55,-0.75,153
5.55,-0.6,171
5.55,-0.45,133
5.55,-0.3,79
5.55,-0.15,166
5.55,0.0,165
5.55,0.15,143
5.55,0.3,107
5.55,0.45,132
5.55,0.6,150
5.55,0.75,101
5.55,0.9,74
5.55,1.05,181
5.55,1.2,222
5.55,1.35,169
5.55,1.5,140
5.7,-1.5,139
5.7,-1.35,160
5.7,-1.2,167
5.7,-1.05,170
5.7,-0.9,187
5.7,-0.75,224
5.7,-0.6,180
5.7,-0.45,101
5.7,-0.3,255
5.7,-0.15,96
5.7,0.0,54
5.7,0.15,78
5.7,0.3,56
5.7,0.45,124
5.7,0.6,119
5.7,0.75,74
5.7,0.9,15
5.7,1.05,102
5.7,1.2,146
5.7,1.35,142
5.7,1.5,133
5.85,-1.5,130
5.85,-1.35,141
5.85,-1.2,153
5.85,-1.05,162
5.85,-0.9,170
5.85,-0.75,105
5.85,-0.6,147
5.85,-0.45,188
5.85,-0.3,131
5.85,-0.15,86
5.85,0.0,55
5.85,0.15,30
5.85,0.3,135
5.85,0.45,149
5.85,0.6,118
5.85,0.75,63
5.85,0.9,72
5.85,1.05,83
5.85,1.2,109
5.85,1.35,124
5.85,1.5,130
6.0,-1.5,112
6.0,-1.35,126
6.0,-1.2,133
6.0,-1.05,137
6.0,-0.9,194
6.0,-0.75,140
6.0,-0.6,76
6.0,-0.45,122
6.0,-0.3,46
6.0,-0.15,90
6.0,0.0,0
6.0,0.15,39
6.0,0.3,75
6.0,0.45,108
6.0,0.6,121
6.0,0.75,55
6.0,0.9,46
6.0,1.05,77
6.0,1.2,93
6.0,1.35,103
6.0,1.5,109
6.15,-1.5,119
6.15,-1.35,110
6.15,-1.2,110
6.15,-1.05,118
6.15,-0.9,123
6.15,-0.75,78
6.15,-0.6,50
6.15,-0.45,52
6.15,-0.3,36
6.15,-0.15,35
6.15,0.0,35
6.15,0.15,21
6.15,0.3,91
6.15,0.45,101
6.15,0.6,105
6.15,0.75,73
6.15,0.9,59
6.15,1.05,74
6.15,1.2,91
6.15,1.35,99
6.15,1.5,108
6.3,-1.5,111
6.3,-1.35,112
6.3,-1.2,111
6.3,-1.05,88
6.3,-0.9,78
6.3,-0.75,50
6.3,-0.6,42
6.3,-0.45,21
6.3,-0.3,18
6.3,-0.15,29
6.3,0.0,58
6.3,0.15,92
6.3,0.3,94
6.3,0.45,144
6.3,0.6,128
6.3,0.75,97
6.3,0.9,96
6.3,1.05,77
6.3,1.2,77
6.3,1.35,87
6.3,1.5,91
6.45,-1.5,100
6.45,-1.35,97
6.45,-1.2,88
6.45,-1.05,90
6.45,-0.9,84
6.45,-0.75,36
6.45,-0.6,21
6.45,-0.45,7
6.45,-0.3,23
6.45,-0.15,28
6.45,0.0,46
6.45,0.15,29
6.45,0.3,65
6.45,0.45,38
6.45,0.6,101
6.45,0.75,103
6.45,0.9,98
6.45,1.05,95
6.45,1.2,79
6.45,1.35,83
6.45,1.5,74
6.6,-1.5,98
6.6,-1.35,99
6.6,-1.2,99
6.6,-1.05,96
6.6,-0.9,119
6.6,-0.75,168
6.6,-0.6,83
6.6,-0.45,21
6.6,-0.3,64
6.6,-0.15,34
6.6,0.0,99
6.6,0.15,37
6.6,0.3,38
6.6,0.45,131
6.6,0.6,96
6.6,0.75,87
6.6,0.9,103
6.6,1.05,101
6.6,1.2,93
6.6,1.35,99
6.6,1.5,99
6.75,-1.5,96
6.75,-1.35,82
6.75,-1.2,85
6.75,-1.05,91
6.75,-0.9,105
6.75,-0.75,110
6.75,-0.6,120
6.75,-0.45,67
6.75,-0.3,49
6.75,-0.15,60
6.75,0.0,61
6.75,0.15,8
6.75,0.3,43
6.75,0.45,63
6.75,0.6,2
6.75,0.75,90
6.75,0.9,101
6.75,1.05,99
6.75,1.2,99
6.75,1.35,98
6.75,1.5,97
6.9,-1.5,77
6.9,-1.35,77
6.9,-1.2,76
6.9,-1.05,85
6.9,-0.9,76
6.9,-0.75,109
6.9,-0.6,85
6.9,-0.45,151
6.9,-0.3,17
6.9,-0.15,44
6.9,0.0,157
6.9,0.15,26
6.9,0.3,8
6.9,0.45,75
6.9,0.6,116
6.9,0.75,102
6.9,0.9,102
6.9,1.05,102
6.9,1.2,98
6.9,1.35,97
6.9,1.5,97
7.05,-1.5,73
7.05,-1.35,71
7.05,-1.2,67
7.05,-1.05,54
7.05,-0.9,13
7.05,-0.75,130
7.05,-0.6,12
7.05,-0.45,66
7.05,-0.3,15
7.05,-0.15,33
7.05,0.0,19
7.05,0.15,8
7.05,0.3,52
7.05,0.45,124
7.05,0.6,100
7.05,0.75,89
7.05,0.9,93
7.05,1.05,86
7.05,1.2,84
7.05,1.35,84
7.05,1.5,83
7.2,-1.5,44
7.2,-1.35,67
7.2,-1.2,53
7.2,-1.05,48
7.2,-0.9,35
7.2,-0.75,43
7.2,-0.6,44
7.2,-0.45,2
7.2,-0.3,21
7.2,-0.15,78
7.2,0.0,20
7.2,0.15,0
7.2,0.3,20
7.2,0.45,91
7.2,0.6,108
7.2,0.75,27
7.2,0.9,74
7.2,1.05,73
7.2,1.2,76
7.2,1.35,77
7.2,1.5,78
7.35,-1.5,67
7.35,-1.35,65
7.35,-1.2,47
7.35,-1.05,47
7.35,-0.9,61
7.35,-0.75,36
7.35,-0.6,0
7.35,-0.45,28
7.35,-0.3,55
7.35,-0.15,36
7.35,0.0,49
7.35,0.15,53
7.35,0.3,29
7.35,0.45,47
7.35,0.6,7
7.35,0.75,34
7.35,0.9,57
7.35,1.05,67
7.35,1.2,60
7.35,1.35,62
7.35,1.5,71
7.5,-1.5,70
7.5,-1.35,69
7.5,-1.2,66
7.5,-1.05,71
7.5,-0.9,67
7.5,-0.75,95
7.5,-0.6,122
7.5,-0.45,100
7.5,-0.3,111
7.5,-0.15,81
7.5,0.0,5
7.5,0.15,53
7.5,0.3,43
7.5,0.45,7
7.5,0.6,54
7.5,0.75,53
7.5,0.9,53
7.5,1.05,58
7.5,1.2,69
7.5,1.35,69
7.5,1.5,70
7.65,-1.5,81
7.65,-1.35,82
7.65,-1.2,80
7.65,-1.05,75
7.65,-0.9,60
7.65,-0.75,45
7.65,-0.6,237
7.65,-0.45,111
7.65,-0.3,97
7.65,-0.15,99
7.65,0.0,68
7.65,0.15,0
7.65,0.3,7
7.65,0.45,64
7.65,0.6,102
7.65,0.75,63
7.65,0.9,52
7.65,1.05,52
7.65,1.2,53
7.65,1.35,53
7.65,1.5,53
7.8,-1.5,83
7.8,-1.35,92
7.8,-1.2,94
7.8,-1.05,88
7.8,-0.9,47
7.8,-0.75,25
7.8,-0.6,51
7.8,-0.45,51
7.8,-0.3,6
7.8,-0.15,33
7.8,0.0,29
7.8,0.15,35
7.8,0.3,43
7.8,0.45,8
7.8,0.6,48
7.8,0.75,54
7.8,0.9,53
7.8,1.05,52
7.8,1.2,51
7.8,1.35,51
7.8,1.5,51
7.95,-1.5,94
7.95,-1.35,100
7.95,-1.2,113
7.95,-1.05,160
7.95,-0.9,110
7.95,-0.75,43
7.95,-0.6,25
7.95,-0.45,34
7.95,-0.3,23
7.95,-0.15,26
7.95,0.0,51
7.95,0.15,33
7.95,0.3,45
7.95,0.45,26
7.95,0.6,29
7.95,0.75,46
7.95,0.9,48
7.95,1.05,51
7.95,1.2,52
7.95,1.35,52
7.95,1.5,52
8.1,-1.5,92
8.1,-1.35,99
8.1,-1.2,102
8.1,-1.05,141
8.1,-0.9,128
8.1,-0.75,78
8.1,-0.6,60
8.1,-0.45,23
8.1,-0.3,32
8.1,-0.15,51
8.1,0.0,33
8.1,0.15,20
8.1,0.3,174
8.1,0.45,34
8.1,0.6,43
8.1,0.75,33
8.1,0.9,48
8.1,1.05,50
8.1,1.2,48
8.1,1.35,38
8.1,1.5,45
8.25,-1.5,84
8.25,-1.35,89
8.25,-1.2,100
8.25,-1.05,108
8.25,-0.9,102
8.25,-0.75,113
8.25,-0.6,170
8.25,-0.45,58
8.25,-0.3,47
8.25,-0.15,51
8.25,0.0,48
8.25,0.15,84
8.25,0.3,18
8.25,0.45,56
8.25,0.6,50
8.25,0.75,51
8.25,0.9,47
8.25,1.05,50
8.25,1.2,42
8.25,1.35,46
8.25,1.5,42
8.4,-1.5,77
8.4,-1.35,95
8.4,-1.2,94
8.4,-1.05,84
8.4,-0.9,78
8.4,-0.75,61
8.4,-0.6,77
8.4,-0.45,63
8.4,-0.3,50
8.4,-0.15,17
8.4,0.0,53
8.4,0.15,199
8.4,0.3,53
8.4,0.45,38
8.4,0.6,35
8.4,0.75,41
8.4,0.9,51
8.4,1.05,43
8.4,1.2,43
8.4,1.35,51
8.4,1.5,63
8.55,-1.5,58
8.55,-1.35,57
8.55,-1.2,71
8.55,-1.05,67
8.55,-0.9,53
8.55,-0.75,41
8.55,-0.6,110
8.55,-0.45,50
8.55,-0.3,179
8.55,-0.15,60
8.55,0.0,48
8.55,0.15,62
8.55,0.3,10
8.55,0.45,8
8.55,0.6,9
8.55,0.75,35
8.55,0.9,47
8.55,1.05,65
8.55,1.2,66
8.55,1.35,63
8.55,1.5,63
8.7,-1.5,41
8.7,-1.35,42
8.7,-1.2,44
8.7,-1.05,46
8.7,-0.9,52
8.7,-0.75,21
8.7,-0.6,29
8.7,-0.45,80
8.7,-0.3,170
8.7,-0.15,60
8.7,0.0,105
8.7,0.15,91
8.7,0.3,11
8.7,0.45,0
8.7,0.6,32
8.7,0.75,74
8.7,0.9,68
8.7,1.05,69
8.7,1.2,68
8.7,1.35,67
8.7,1.5,67
8.85,-1.5,63
8.85,-1.35,63
8.85,-1.2,62
8.85,-1.05,60
8.85,-0.9,58
8.85,-0.75,183
8.85,-0.6,37
8.85,-0.45,7
8.85,-0.3,208
8.85,-0.15,144
8.85,0.0,107
8.85,0.15,11
8.85,0.3,35
8.85,0.45,47
8.85,0.6,59
8.85,0.75,69
8.85,0.9,77
8.85,1.05,73
8.85,1.2,69
8.85,1.35,66
8.85,1.5,64
9.0,-1.5,63
9.0,-1.35,63
9.0,-1.2,58
9.0,-1.05,54
9.0,-0.9,66
9.0,-0.75,79
9.0,-0.6,71
9.0,-0.45,50
9.0,-0.3,146
9.0,-0.15,134
9.0,0.0,47
9.0,0.15,46
9.0,0.3,23
9.0,0.45,23
9.0,0.6,35
9.0,0.75,115
9.0,0.9,95
9.0,1.05,82
9.0,1.2,76
9.0,1.35,70
9.0,1.5,64
9.15,-1.5,79
9.15,-1.35,72
9.15,-1.2,58
9.15,-1.05,13
9.15,-0.9,30
9.15,-0.75,96
9.15,-0.6,73
9.15,-0.45,58
9.15,-0.3,69
9.15,-0.15,80
9.15,0.0,41
9.15,0.15,23
9.15,0.3,81
9.15,0.45,98
9.15,0.6,47
9.15,0.75,77
9.15,0.9,81
9.15,1.05,71
9.15,1.2,66
9.15,1.35,64
9.15,1.5,62
9.3,-1.5,68
9.3,-1.35,76
9.3,-1.2,61
9.3,-1.05,55
9.3,-0.9,66
9.3,-0.75,49
9.3,-0.6,55
9.3,-0.45,20
9.3,-0.3,46
9.3,-0.15,192
9.3,0.0,136
9.3,0.15,60
9.3,0.3,60
9.3,0.45,99
9.3,0.6,27
9.3,0.75,48
9.3,0.9,63
9.3,1.05,67
9.3,1.2,61
9.3,1.35,61
9.3,1.5,61
9.45,-1.5,68
9.45,-1.35,68
9.45,-1.2,71
9.45,-1.05,78
9.45,-0.9,109
9.45,-0.75,174
9.45,-0.6,60
9.45,-0.45,46
9.45,-0.3,49
9.45,-0.15,88
9.45,0.0,115
9.45,0.15,56
9.45,0.3,56
9.45,0.45,42
9.45,0.6,23
9.45,0.75,43
9.45,0.9,50
9.45,1.05,56
9.45,1.2,67
9.45,1.35,69
9.45,1.5,70
9.6,-1.5,74
9.6,-1.35,77
9.6,-1.2,79
9.6,-1.05,83
9.6,-0.9,110
9.6,-0.75,84
9.6,-0.6,22
9.6,-0.45,55
9.6,-0.3,39
9.6,-0.15,120
9.6,0.0,177
9.6,0.15,61
9.6,0.3,87
9.6,0.45,96
9.6,0.6,65
9.6,0.75,69
9.6,0.9,62
9.6,1.05,59
9.6,1.2,65
9.6,1.35,70
9.6,1.5,71
9.75,-1.5,89
9.75,-1.35,90
9.75,-1.2,95
9.75,-1.05,105
9.75,-0.9,165
9.75,-0.75,123
9.75,-0.6,60
9.75,-0.45,60
9.75,-0.3,12
9.75,-0.15,139
9.75,0.0,255
9.75,0.15,27
9.75,0.3,68
9.75,0.45,82
9.75,0.6,67
9.75,0.75,104
9.75,0.9,90
9.75,1.05,86
9.75,1.2,84
9.75,1.35,80
9.75,1.5,80
9.9,-1.5,121
9.9,-1.35,114
9.9,-1.2,83
9.9,-1.05,45
9.9,-0.9,98
9.9,-0.75,195
9.9,-0.6,129
9.9,-0.45,224
9.9,-0.3,114
9.9,-0.15,96
9.9,0.0,84
9.9,0.15,56
9.9,0.3,217
9.9,0.45,74
9.9,0.6,255
9.9,0.75,101
9.9,0.9,90
9.9,1.05,94
9.9,1.2,94
9.9,1.35,93
9.9,1.5,92
10.05,-1.5,130
10.05,-1.35,122
10.05,-1.2,89
10.05,-1.05,53
10.05,-0.9,81
10.05,-0.75,91
10.05,-0.6,55
10.05,-0.45,97
10.05,-0.3,101
10.05,-0.15,95
10.05,0.0,70
10.05,0.15,64
10.05,0.3,17
10.05,0.45,18
10.05,0.6,70
10.05,0.75,70
10.05,0.9,88
10.05,1.05,94
10.05,1.2,94
10.05,1.35,93
10.05,1.5,93
10.2,-1.5,133
10.2,-1.35,130
10.2,-1.2,126
10.2,-1.05,125
10.2,-0.9,110
10.2,-0.75,78
10.2,-0.6,44
10.2,-0.45,60
10.2,-0.3,67
10.2,-0.15,105
10.2,0.0,147
10.2,0.15,81
10.2,0.3,98
10.2,0.45,105
10.2,0.6,120
10.2,0.75,99
10.2,0.9,98
10.2,1.05,100
10.2,1.2,102
10.2,1.35,103
10.2,1.5,103
10.35,-1.5,141
10.35,-1.35,144
10.35,-1.2,150
10.35,-1.05,152
10.35,-0.9,199
10.35,-0.75,152
10.35,-0.6,59
10.35,-0.45,43
10.35,-0.3,65
10.35,-0.15,94
10.35,0.0,119
10.35,0.15,110
10.35,0.3,113
10.35,0.45,122
10.35,0.6,92
10.35,0.75,115
10.35,0.9,106
10.35,1.05,105
10.35,1.2,114
10.35,1.35,116
10.35,1.5,117
10.5,-1.5,144
10.5,-1.35,150
10.5,-1.2,160
10.5,-1.05,181
10.5,-0.9,203
10.5,-0.75,98
10.5,-0.6,90
10.5,-0.45,4
10.5,-0.3,61
10.5,-0.15,33
10.5,0.0,148
10.5,0.15,49
10.5,0.3,65
10.5,0.45,232
10.5,0.6,54
10.5,0.75,94
10.5,0.9,106
10.5,1.05,96
10.5,1.2,95
10.5,1.35,95
10.5,1.5,110
10.65,-1.5,129
10.65,-1.35,150
10.65,-1.2,157
10.65,-1.05,171
10.65,-0.9,213
10.65,-0.75,126
10.65,-0.6,46
10.65,-0.45,55
10.65,-0.3,72
10.65,-0.15,103
10.65,0.0,182
10.65,0.15,117
10.65,0.3,102
10.65,0.45,95
10.65,0.6,169
10.65,0.75,90
10.65,0.9,91
10.65,1.05,92
10.65,1.2,96
10.65,1.35,96
10.65,1.5,95
10.8,-1.5,148
10.8,-1.35,164
10.8,-1.2,164
10.8,-1.05,160
10.8,-0.9,174
10.8,-0.75,60
10.8,-0.6,56
10.8,-0.45,59
10.8,-0.3,75
10.8,-0.15,99
10.8,0.0,78
10.8,0.15,26
10.8,0.3,68
10.8,0.45,32
10.8,0.6,48
10.8,0.75,90
10.8,0.9,90
10.8,1.05,97
10.8,1.2,97
10.8,1.35,97
10.8,1.5,97
10.95,-1.5,140
10.95,-1.35,131
10.95,-1.2,136
10.95,-1.05,138
10.95,-0.9,152
10.95,-0.75,97
10.95,-0.6,58
10.95,-0.45,111
10.95,-0.3,100
10.95,-0.15,103
10.95,0.0,103
10.95,0.15,126
10.95,0.3,100
10.95,0.45,69
10.95,0.6,82
10.95,0.75,106
10.95,0.9,102
10.95,1.05,109
10.95,1.2,100
10.95,1.35,99
10.95,1.5,98
11.1,-1.5,137
11.1,-1.35,133
11.1,-1.2,107
11.1,-1.05,93
11.1,-0.9,68
11.1,-0.75,189
11.1,-0.6,107
11.1,-0.45,191
11.1,-0.3,102
11.1,-0.15,149
11.1,0.0,164
11.1,0.15,10
11.1,0.3,31
11.1,0.45,77
11.1,0.6,191
11.1,0.75,159
11.1,0.9,149
11.1,1.05,125
11.1,1.2,146
11.1,1.35,146
11.1,1.5,105
11.25,-1.5,137
11.25,-1.35,133
11.25,-1.2,120
11.25,-1.05,100
11.25,-0.9,68
11.25,-0.75,122
11.25,-0.6,35
11.25,-0.45,58
11.25,-0.3,79
11.25,-0.15,164
11.25,0.0,133
11.25,0.15,106
11.25,0.3,20
11.25,0.45,108
11.25,0.6,147
11.25,0.75,157
11.25,0.9,150
11.25,1.05,145
11.25,1.2,153
11.25,1.35,152
11.25,1.5,151
11.4,-1.5,126
11.4,-1.35,128
11.4,-1.2,107
11.4,-1.05,39
11.4,-0.9,71
11.4,-0.75,0
11.4,-0.6,30
11.4,-0.45,59
11.4,-0.3,91
11.4,-0.15,193
11.4,0.0,202
11.4,0.15,138
11.4,0.3,135
11.4,0.45,224
11.4,0.6,151
11.4,0.75,150
11.4,0.9,145
11.4,1.05,153
11.4,1.2,150
11.4,1.35,132
11.4,1.5,129
11.55,-1.5,121
11.55,-1.35,130
11.55,-1.2,148
11.55,-1.05,202
11.55,-0.9,170
11.55,-0.75,67
11.55,-0.6,101
11.55,-0.45,75
11.55,-0.3,88
11.55,-0.15,113
11.55,0.0,72
11.55,0.15,69
11.55,0.3,115
11.55,0.45,193
11.55,0.6,217
11.55,0.75,186
11.55,0.9,165
11.55,1.05,187
11.55,1.2,187
11.55,1.35,187
11.55,1.5,186
11.7,-1.5,121
11.7,-1.35,131
11.7,-1.2,155
11.7,-1.05,211
11.7,-0.9,109
11.7,-0.75,81
11.7,-0.6,172
11.7,-0.45,105
11.7,-0.3,73
11.7,-0.15,64
11.7,0.0,69
11.7,0.15,106
11.7,0.3,186
11.7,0.45,121
11.7,0.6,178
11.7,0.75,192
11.7,0.9,169
11.7,1.05,179
11.7,1.2,179
11.7,1.35,165
11.7,1.5,169
11.85,-1.5,117
11.85,-1.35,118
11.85,-1.2,118
11.85,-1.05,118
11.85,-0.9,162
11.85,-0.75,60
11.85,-0.6,79
11.85,-0.45,61
11.85,-0.3,61
11.85,-0.15,53
11.85,0.0,44
11.85,0.15,186
11.85,0.3,33
11.85,0.45,207
11.85,0.6,163
11.85,0.75,135
11.85,0.9,131
11.85,1.05,127
11.85,1.2,124
11.85,1.35,121
11.85,1.5,133
12.0,-1.5,106
12.0,-1.35,100
12.0,-1.2,83
12.0,-1.05,26
12.0,-0.9,60
12.0,-0.75,122
12.0,-0.6,69
12.0,-0.45,73
12.0,-0.3,75
12.0,-0.15,83
12.0,0.0,80
12.0,0.15,121
12.0,0.3,81
12.0,0.45,109
12.0,0.6,112
12.0,0.75,97
12.0,0.9,112
12.0,1.05,114
12.0,1.2,114
12.0,1.35,96
12.0,1.5,93
12.15,-1.5,120
12.15,-1.35,109
12.15,-1.2,79
12.15,-1.05,55
12.15,-0.9,55
12.15,-0.75,45
12.15,-0.6,53
12.15,-0.45,68
12.15,-0.3,78
12.15,-0.15,107
12.15,0.0,92
12.15,0.15,235
12.15,0.3,155
12.15,0.45,66
12.15,0.6,79
12.15,0.75,72
12.15,0.9,75
12.15,1.05,77
12.15,1.2,86
12.15,1.35,86
12.15,1.5,84
12.3,-1.5,105
12.3,-1.35,86
12.3,-1.2,82
12.3,-1.05,68
12.3,-0.9,60
12.3,-0.75,42
12.3,-0.6,14
12.3,-0.45,51
12.3,-0.3,69
12.3,-0.15,121
12.3,0.0,134
12.3,0.15,92
12.3,0.3,121
12.3,0.45,46
12.3,0.6,35
12.3,0.75,50
12.3,0.9,50
12.3,1.05,55
12.3,1.2,56
12.3,1.35,55
12.3,1.5,54
12.45,-1.5,54
12.45,-1.35,60
12.45,-1.2,69
12.45,-1.05,92
12.45,-0.9,142
12.45,-0.75,255
12.45,-0.6,70
12.45,-0.45,60
12.45,-0.3,75
12.45,-0.15,118
12.45,0.0,134
12.45,0.15,86
12.45,0.3,30
12.45,0.45,30
12.45,0.6,0
12.45,0.75,24
12.45,0.9,27
12.45,1.05,24
12.45,1.2,23
12.45,1.35,21
12.45,1.5,19
12.6,-1.5,48
12.6,-1.35,57
12.6,-1.2,69
12.6,-1.05,87
12.6,-0.9,117
12.6,-0.75,57
12.6,-0.6,47
12.6,-0.45,71
12.6,-0.3,78
12.6,-0.15,95
12.6,0.0,84
12.6,0.15,62
12.6,0.3,49
12.6,0.45,40
12.6,0.6,32
12.6,0.75,30
12.6,0.9,31
12.6,1.05,27
12.6,1.2,24
12.6,1.35,21
12.6,1.5,17
12.75,-1.5,30
12.75,-1.35,43
12.75,-1.2,61
12.75,-1.05,73
12.75,-0.9,75
12.75,-0.75,66
12.75,-0.6,66
12.75,-0.45,75
12.75,-0.3,78
12.75,-0.15,63
12.75,0.0,63
12.75,0.15,58
12.75,0.3,56
12.75,0.45,43
12.75,0.6,38
12.75,0.75,34
12.75,0.9,33
12.75,1.05,27
12.75,1.2,22
12.75,1.35,14
12.75,1.5,9
12.9,-1.5,4
12.9,-1.35,22
12.9,-1.2,49
12.9,-1.05,62
12.9,-0.9,58
12.9,-0.75,58
12.9,-0.6,71
12.9,-0.45,74
12.9,-0.3,78
12.9,-0.15,59
12.9,0.0,57
12.9,0.15,56
12.9,0.3,55
12.9,0.45,45
12.9,0.6,27
12.9,0.75,33
12.9,0.9,33
12.9,1.05,29
12.9,1.2,21
12.9,1.35,7
12.9,1.5,0
13.05,-1.5,0
13.05,-1.35,14
13.05,-1.2,42
13.05,-1.05,56
13.05,-0.9,58
13.05,-0.75,60
13.05,-0.6,63
13.05,-0.45,75
13.05,-0.3,78
13.05,-0.15,59
13.05,0.0,54
13.05,0.15,54
13.05,0.3,47
13.05,0.45,38
13.05,0.6,24
13.05,0.75,32
13.05,0.9,33
13.05,1.05,29
13.05,1.2,19
13.05,1.35,4
13.05,1.5,0
