-3.0,-1.5,0
-3.0,-1.35,0
-3.0,-1.2,3
-3.0,-1.05,10
-3.0,-0.9,16
-3.0,-0.75,20
-3.0,-0.6,24
-3.0,-0.45,26
-3.0,-0.3,28
-3.0,-0.15,29
-3.0,0.0,29
-3.0,0.15,29
-3.0,0.3,28
-3.0,0.45,26
-3.0,0.6,23
-3.0,0.75,19
-3.0,0.9,16
-3.0,1.05,9
-3.0,1.2,3
-3.0,1.35,0
-3.0,1.5,0
-2.85,-1.5,0
-2.85,-1.35,0
-2.85,-1.2,6
-2.85,-1.05,12
-2.85,-0.9,22
-2.85,-0.75,27
-2.85,-0.6,25
-2.85,-0.45,28
-2.85,-0.3,29
-2.85,-0.15,31
-2.85,0.0,31
-2.85,0.15,31
-2.85,0.3,29
-2.85,0.45,28
-2.85,0.6,25
-2.85,0.75,21
-2.85,0.9,20
-2.85,1.05,13
-2.85,1.2,5
-2.85,1.35,0
-2.85,1.5,0
-2.7,-1.5,4
-2.7,-1.35,7
-2.7,-1.2,12
-2.7,-1.05,16
-2.7,-0.9,21
-2.7,-0.75,29
-2.7,-0.6,32
-2.7,-0.45,30
-2.7,-0.3,32
-2.7,-0.15,33
-2.7,0.0,33
-2.7,0.15,33
-2.7,0.3,32
-2.7,0.45,30
-2.7,0.6,33
-2.7,0.75,29
-2.7,0.9,24
-2.7,1.05,17
-2.7,1.2,11
-2.7,1.35,5
-2.7,1.5,3
-2.55,-1.5,13
-2.55,-1.35,15
-2.55,-1.2,18
-2.55,-1.05,20
-2.55,-0.9,23
-2.55,-0.75,30
-2.55,-0.6,33
-2.55,-0.45,36
-2.55,-0.3,38
-2.55,-0.15,36
-2.55,0.0,36
-2.55,0.15,36
-2.55,0.3,39
-2.55,0.45,37
-2.55,0.6,35
-2.55,0.75,32
-2.55,0.9,27
-2.55,1.05,23
-2.55,1.2,17
-2.55,1.35,13
-2.55,1.5,11
-2.4,-1.5,19
-2.4,-1.35,21
-2.4,-1.2,23
-2.4,-1.05,23
-2.4,-0.9,25
-2.4,-0.75,31
-2.4,-0.6,34
-2.4,-0.45,37
-2.4,-0.3,40
-2.4,-0.15,43
-2.4,0.0,40
-2.4,0.15,43
-2.4,0.3,41
-2.4,0.45,39
-2.4,0.6,37
-2.4,0.75,34
-2.4,0.9,31
-2.4,1.05,27
-2.4,1.2,24
-2.4,1.35,22
-2.4,1.5,20
-2.25,-1.5,24
-2.25,-1.35,25
-2.25,-1.2,26
-2.25,-1.05,26
-2.25,-0.9,25
-2.25,-0.75,27
-2.25,-0.6,33
-2.25,-0.45,38
-2.25,-0.3,43
-2.25,-0.15,48
-2.25,0.0,48
-2.25,0.15,46
-2.25,0.3,43
-2.25,0.45,40
-2.25,0.6,38
-2.25,0.75,36
-2.25,0.9,34
-2.25,1.05,31
-2.25,1.2,31
-2.25,1.35,29
-2.25,1.5,27
-2.1,-1.5,28
-2.1,-1.35,28
-2.1,-1.2,27
-2.1,-1.05,27
-2.1,-0.9,25
-2.1,-0.75,25
-2.1,-0.6,31
-2.1,-0.45,36
-2.1,-0.3,46
-2.1,-0.15,56
-2.1,0.0,55
-2.1,0.15,49
-2.1,0.3,44
-2.1,0.45,41
-2.1,0.6,39
-2.1,0.75,38
-2.1,0.9,39
-2.1,1.05,37
-2.1,1.2,35
-2.1,1.35,34
-2.1,1.5,32
-1.95,-1.5,33
-1.95,-1.35,30
-1.95,-1.2,28
-1.95,-1.05,26
-1.95,-0.9,24
-1.95,-0.75,22
-1.95,-0.6,26
-1.95,-0.45,31
-1.95,-0.3,43
-1.95,-0.15,60
-1.95,0.0,57
-1.95,0.15,49
-1.95,0.3,45
-1.95,0.45,43
-1.95,0.6,42
-1.95,0.75,42
-1.95,0.9,41
-1.95,1.05,39
-1.95,1.2,38
-1.95,1.35,34
-1.95,1.5,36
-1.8,-1.5,35
-1.8,-1.35,34
-1.8,-1.2,30
-1.8,-1.05,25
-1.8,-0.9,19
-1.8,-0.75,18
-1.8,-0.6,19
-1.8,-0.45,17
-1.8,-0.3,28
-1.8,-0.15,44
-1.8,0.0,49
-1.8,0.15,46
-1.8,0.3,44
-1.8,0.45,42
-1.8,0.6,42
-1.8,0.75,42
-1.8,0.9,42
-1.8,1.05,41
-1.8,1.2,37
-1.8,1.35,39
-1.8,1.5,39
-1.65,-1.5,37
-1.65,-1.35,37
-1.65,-1.2,36
-1.65,-1.05,28
-1.65,-0.9,13
-1.65,-0.75,13
-1.65,-0.6,13
-1.65,-0.45,0
-1.65,-0.3,12
-1.65,-0.15,37
-1.65,0.0,49
-1.65,0.15,48
-1.65,0.3,42
-1.65,0.45,41
-1.65,0.6,41
-1.65,0.75,42
-1.65,0.9,39
-1.65,1.05,39
-1.65,1.2,42
-1.65,1.35,41
-1.65,1.5,41
-1.5,-1.5,42
-1.5,-1.35,43
-1.5,-1.2,45
-1.5,-1.05,49
-1.5,-0.9,13
-1.5,-0.75,13
-1.5,-0.6,16
-1.5,-0.45,8
-1.5,-0.3,17
-1.5,-0.15,26
-1.5,0.0,42
-1.5,0.15,39
-1.5,0.3,37
-1.5,0.45,39
-1.5,0.6,40
-1.5,0.75,42
-1.5,0.9,43
-1.5,1.05,43
-1.5,1.2,43
-1.5,1.35,43
-1.5,1.5,43
-1.35,-1.5,42
-1.35,-1.35,43
-1.35,-1.2,48
-1.35,-1.05,49
-1.35,-0.9,40
-1.35,-0.75,28
-1.35,-0.6,29
-1.35,-0.45,28
-1.35,-0.3,26
-1.35,-0.15,13
-1.35,0.0,1
-1.35,0.15,24
-1.35,0.3,33
-1.35,0.45,38
-1.35,0.6,40
-1.35,0.75,42
-1.35,0.9,43
-1.35,1.05,44
-1.35,1.2,45
-1.35,1.35,45
-1.35,1.5,48
-1.2,-1.5,54
-1.2,-1.35,53
-1.2,-1.2,49
-1.2,-1.05,46
-1.2,-0.9,42
-1.2,-0.75,42
-1.2,-0.6,43
-1.2,-0.45,42
-1.2,-0.3,39
-1.2,-0.15,28
-1.2,0.0,4
-1.2,0.15,19
-1.2,0.3,33
-1.2,0.45,39
-1.2,0.6,42
-1.2,0.75,44
-1.2,0.9,45
-1.2,1.05,45
-1.2,1.2,49
-1.2,1.35,50
-1.2,1.5,50
-1.05,-1.5,63
-1.05,-1.35,62
-1.05,-1.2,61
-1.05,-1.05,60
-1.05,-0.9,51
-1.05,-0.75,53
-1.05,-0.6,57
-1.05,-0.45,55
-1.05,-0.3,54
-1.05,-0.15,52
-1.05,0.0,22
-1.05,0.15,31
-1.05,0.3,42
-1.05,0.45,46
-1.05,0.6,48
-1.05,0.75,49
-1.05,0.9,49
-1.05,1.05,50
-1.05,1.2,50
-1.05,1.35,50
-1.05,1.5,50
-0.9,-1.5,65
-0.9,-1.35,65
-0.9,-1.2,67
-0.9,-1.05,68
-0.9,-0.9,67
-0.9,-0.75,66
-0.9,-0.6,64
-0.9,-0.45,61
-0.9,-0.3,59
-0.9,-0.15,63
-0.9,0.0,63
-0.9,0.15,55
-0.9,0.3,52
-0.9,0.45,51
-0.9,0.6,51
-0.9,0.75,51
-0.9,0.9,51
-0.9,1.05,47
-0.9,1.2,47
-0.9,1.35,47
-0.9,1.5,46
-0.75,-1.5,81
-0.75,-1.35,80
-0.75,-1.2,72
-0.75,-1.05,75
-0.75,-0.9,77
-0.75,-0.75,77
-0.75,-0.6,69
-0.75,-0.45,53
-0.75,-0.3,40
-0.75,-0.15,102
-0.75,0.0,89
-0.75,0.15,65
-0.75,0.3,59
-0.75,0.45,54
-0.75,0.6,54
-0.75,0.75,50
-0.75,0.9,49
-0.75,1.05,48
-0.75,1.2,47
-0.75,1.35,47
-0.75,1.5,46
-0.6,-1.5,94
-0.6,-1.35,90
-0.6,-1.2,85
-0.6,-1.05,85
-0.6,-0.9,90
-0.6,-0.75,89
-0.6,-0.6,79
-0.6,-0.45,62
-0.6,-0.3,26
-0.6,-0.15,72
-0.6,0.0,65
-0.6,0.15,66
-0.6,0.3,59
-0.6,0.45,55
-0.6,0.6,49
-0.6,0.75,47
-0.6,0.9,45
-0.6,1.05,44
-0.6,1.2,44
-0.6,1.35,44
-0.6,1.5,46
-0.45,-1.5,100
-0.45,-1.35,93
-0.45,-1.2,80
-0.45,-1.05,65
-0.45,-0.9,91
-0.45,-0.75,118
-0.45,-0.6,120
-0.45,-0.45,94
-0.45,-0.3,76
-0.45,-0.15,71
-0.45,0.0,67
-0.45,0.15,66
-0.45,0.3,57
-0.45,0.45,51
-0.45,0.6,47
-0.45,0.75,45
-0.45,0.9,44
-0.45,1.05,44
-0.45,1.2,44
-0.45,1.35,44
-0.45,1.5,44
-0.3,-1.5,103
-0.3,-1.35,98
-0.3,-1.2,86
-0.3,-1.05,76
-0.3,-0.9,102
-0.3,-0.75,128
-0.3,-0.6,142
-0.3,-0.45,188
-0.3,-0.3,116
-0.3,-0.15,80
-0.3,0.0,63
-0.3,0.15,61
-0.3,0.3,59
-0.3,0.45,57
-0.3,0.6,47
-0.3,0.75,46
-0.3,0.9,45
-0.3,1.05,45
-0.3,1.2,44
-0.3,1.35,44
-0.3,1.5,44
-0.15,-1.5,111
-0.15,-1.35,106
-0.15,-1.2,111
-0.15,-1.05,115
-0.15,-0.9,128
-0.15,-0.75,143
-0.15,-0.6,159
-0.15,-0.45,175
-0.15,-0.3,114
-0.15,-0.15,72
-0.15,0.0,72
-0.15,0.15,67
-0.15,0.3,66
-0.15,0.45,65
-0.15,0.6,55
-0.15,0.75,53
-0.15,0.9,53
-0.15,1.05,53
-0.15,1.2,53
-0.15,1.35,53
-0.15,1.5,39
0.0,-1.5,123
0.0,-1.35,123
0.0,-1.2,126
0.0,-1.05,132
0.0,-0.9,145
0.0,-0.75,158
0.0,-0.6,146
0.0,-0.45,84
0.0,-0.3,92
0.0,-0.15,12
0.0,0.0,68
0.0,0.15,58
0.0,0.3,44
0.0,0.45,44
0.0,0.6,44
0.0,0.75,44
0.0,0.9,50
0.0,1.05,51
0.0,1.2,51
0.0,1.35,52
0.0,1.5,53
0.15,-1.5,123
0.15,-1.35,121
0.15,-1.2,125
0.15,-1.05,134
0.15,-0.9,150
0.15,-0.75,178
0.15,-0.6,253
0.15,-0.45,212
0.15,-0.3,159
0.15,-0.15,108
0.15,0.0,64
0.15,0.15,30
0.15,0.3,37
0.15,0.45,49
0.15,0.6,44
0.15,0.75,42
0.15,0.9,42
0.15,1.05,42
0.15,1.2,43
0.15,1.35,43
0.15,1.5,44
0.3,-1.5,119
0.3,-1.35,117
0.3,-1.2,125
0.3,-1.05,121
0.3,-0.9,138
0.3,-0.75,158
0.3,-0.6,162
0.3,-0.45,76
0.3,-0.3,224
0.3,-0.15,135
0.3,0.0,69
0.3,0.15,0
0.3,0.3,16
0.3,0.45,53
0.3,0.6,41
0.3,0.75,39
0.3,0.9,40
0.3,1.05,43
0.3,1.2,41
0.3,1.35,42
0.3,1.5,43
0.45,-1.5,94
0.45,-1.35,91
0.45,-1.2,92
0.45,-1.05,87
0.45,-0.9,105
0.45,-0.75,114
0.45,-0.6,107
0.45,-0.45,95
0.45,-0.3,76
0.45,-0.15,111
0.45,0.0,76
0.45,0.15,30
0.45,0.3,8
0.45,0.45,25
0.45,0.6,38
0.45,0.75,43
0.45,0.9,43
0.45,1.05,40
0.45,1.2,41
0.45,1.35,42
0.45,1.5,43
0.6,-1.5,91
0.6,-1.35,86
0.6,-1.2,76
0.6,-1.05,62
0.6,-0.9,87
0.6,-0.75,102
0.6,-0.6,81
0.6,-0.45,66
0.6,-0.3,36
0.6,-0.15,0
0.6,0.0,46
0.6,0.15,42
0.6,0.3,27
0.6,0.45,29
0.6,0.6,37
0.6,0.75,43
0.6,0.9,43
0.6,1.05,40
0.6,1.2,42
0.6,1.35,43
0.6,1.5,43
0.75,-1.5,89
0.75,-1.35,85
0.75,-1.2,76
0.75,-1.05,74
0.75,-0.9,75
0.75,-0.75,80
0.75,-0.6,73
0.75,-0.45,60
0.75,-0.3,57
0.75,-0.15,43
0.75,0.0,40
0.75,0.15,33
0.75,0.3,1
0.75,0.45,17
0.75,0.6,29
0.75,0.75,34
0.75,0.9,37
0.75,1.05,38
0.75,1.2,40
0.75,1.35,40
0.75,1.5,41
0.9,-1.5,76
0.9,-1.35,75
0.9,-1.2,75
0.9,-1.05,78
0.9,-0.9,78
0.9,-0.75,92
0.9,-0.6,80
0.9,-0.45,41
0.9,-0.3,58
0.9,-0.15,63
0.9,0.0,66
0.9,0.15,43
0.9,0.3,11
0.9,0.45,23
0.9,0.6,33
0.9,0.75,37
0.9,0.9,39
0.9,1.05,40
0.9,1.2,41
0.9,1.35,41
0.9,1.5,41
1.05,-1.5,62
1.05,-1.35,63
1.05,-1.2,65
1.05,-1.05,68
1.05,-0.9,79
1.05,-0.75,126
1.05,-0.6,235
1.05,-0.45,28
1.05,-0.3,59
1.05,-0.15,74
1.05,0.0,119
1.05,0.15,74
1.05,0.3,46
1.05,0.45,38
1.05,0.6,37
1.05,0.75,40
1.05,0.9,40
1.05,1.05,38
1.05,1.2,38
1.05,1.35,38
1.05,1.5,38
1.2,-1.5,58
1.2,-1.35,59
1.2,-1.2,61
1.2,-1.05,62
1.2,-0.9,62
1.2,-0.75,64
1.2,-0.6,110
1.2,-0.45,59
1.2,-0.3,54
1.2,-0.15,43
1.2,0.0,97
1.2,0.15,75
1.2,0.3,58
1.2,0.45,49
1.2,0.6,42
1.2,0.75,40
1.2,0.9,38
1.2,1.05,38
1.2,1.2,38
1.2,1.35,38
1.2,1.5,38
1.35,-1.5,56
1.35,-1.35,57
1.35,-1.2,58
1.35,-1.05,61
1.35,-0.9,50
1.35,-0.75,9
1.35,-0.6,36
1.35,-0.45,43
1.35,-0.3,50
1.35,-0.15,38
1.35,0.0,22
1.35,0.15,51
1.35,0.3,50
1.35,0.45,47
1.35,0.6,44
1.35,0.75,43
1.35,0.9,39
1.35,1.05,38
1.35,1.2,38
1.35,1.35,38
1.35,1.5,38
1.5,-1.5,54
1.5,-1.35,54
1.5,-1.2,51
1.5,-1.05,50
1.5,-0.9,40
1.5,-0.75,43
1.5,-0.6,44
1.5,-0.45,44
1.5,-0.3,47
1.5,-0.15,29
1.5,0.0,16
1.5,0.15,30
1.5,0.3,38
1.5,0.45,40
1.5,0.6,37
1.5,0.75,37
1.5,0.9,37
1.5,1.05,38
1.5,1.2,38
1.5,1.35,38
1.5,1.5,38
1.65,-1.5,48
1.65,-1.35,47
1.65,-1.2,46
1.65,-1.05,51
1.65,-0.9,39
1.65,-0.75,37
1.65,-0.6,37
1.65,-0.45,33
1.65,-0.3,50
1.65,-0.15,46
1.65,0.0,9
1.65,0.15,22
1.65,0.3,38
1.65,0.45,35
1.65,0.6,37
1.65,0.75,39
1.65,0.9,40
1.65,1.05,53
1.65,1.2,37
1.65,1.35,38
1.65,1.5,38
1.8,-1.5,35
1.8,-1.35,35
1.8,-1.2,35
1.8,-1.05,33
1.8,-0.9,29
1.8,-0.75,39
1.8,-0.6,23
1.8,-0.45,27
1.8,-0.3,148
1.8,-0.15,60
1.8,0.0,26
1.8,0.15,22
1.8,0.3,35
1.8,0.45,40
1.8,0.6,36
1.8,0.75,36
1.8,0.9,37
1.8,1.05,38
1.8,1.2,34
1.8,1.35,34
1.8,1.5,20
1.95,-1.5,40
1.95,-1.35,37
1.95,-1.2,38
1.95,-1.05,43
1.95,-0.9,51
1.95,-0.75,44
1.95,-0.6,34
1.95,-0.45,31
1.95,-0.3,56
1.95,-0.15,53
1.95,0.0,14
1.95,0.15,1
1.95,0.3,22
1.95,0.45,34
1.95,0.6,40
1.95,0.75,42
1.95,0.9,44
1.95,1.05,44
1.95,1.2,44
1.95,1.35,61
1.95,1.5,63
2.1,-1.5,41
2.1,-1.35,43
2.1,-1.2,48
2.1,-1.05,58
2.1,-0.9,61
2.1,-0.75,51
2.1,-0.6,40
2.1,-0.45,36
2.1,-0.3,31
2.1,-0.15,65
2.1,0.0,63
2.1,0.15,28
2.1,0.3,38
2.1,0.45,39
2.1,0.6,45
2.1,0.75,47
2.1,0.9,47
2.1,1.05,60
2.1,1.2,64
2.1,1.35,64
2.1,1.5,61
2.25,-1.5,42
2.25,-1.35,44
2.25,-1.2,44
2.25,-1.05,50
2.25,-0.9,57
2.25,-0.75,56
2.25,-0.6,49
2.25,-0.45,58
2.25,-0.3,58
2.25,-0.15,106
2.25,0.0,149
2.25,0.15,0
2.25,0.3,42
2.25,0.45,44
2.25,0.6,54
2.25,0.75,58
2.25,0.9,64
2.25,1.05,64
2.25,1.2,61
2.25,1.35,62
2.25,1.5,64
2.4,-1.5,35
2.4,-1.35,34
2.4,-1.2,41
2.4,-1.05,47
2.4,-0.9,57
2.4,-0.75,57
2.4,-0.6,49
2.4,-0.45,57
2.4,-0.3,19
2.4,-0.15,140
2.4,0.0,96
2.4,0.15,50
2.4,0.3,47
2.4,0.45,50
2.4,0.6,62
2.4,0.75,60
2.4,0.9,61
2.4,1.05,63
2.4,1.2,64
2.4,1.35,61
2.4,1.5,61
2.55,-1.5,60
2.55,-1.35,59
2.55,-1.2,42
2.55,-1.05,51
2.55,-0.9,51
2.55,-0.75,46
2.55,-0.6,33
2.55,-0.45,32
2.55,-0.3,53
2.55,-0.15,45
2.55,0.0,79
2.55,0.15,12
2.55,0.3,41
2.55,0.45,55
2.55,0.6,63
2.55,0.75,66
2.55,0.9,67
2.55,1.05,72
2.55,1.2,72
2.55,1.35,65
2.55,1.5,69
2.7,-1.5,73
2.7,-1.35,71
2.7,-1.2,68
2.7,-1.05,58
2.7,-0.9,56
2.7,-0.75,32
2.7,-0.6,13
2.7,-0.45,1
2.7,-0.3,3
2.7,-0.15,3
2.7,0.0,42
2.7,0.15,32
2.7,0.3,59
2.7,0.45,78
2.7,0.6,79
2.7,0.75,75
2.7,0.9,75
2.7,1.05,74
2.7,1.2,73
2.7,1.35,72
2.7,1.5,71
2.85,-1.5,92
2.85,-1.35,85
2.85,-1.2,69
2.85,-1.05,65
2.85,-0.9,62
2.85,-0.75,56
2.85,-0.6,25
2.85,-0.45,4
2.85,-0.3,12
2.85,-0.15,14
2.85,0.0,73
2.85,0.15,33
2.85,0.3,68
2.85,0.45,96
2.85,0.6,97
2.85,0.75,91
2.85,0.9,84
2.85,1.05,80
2.85,1.2,94
2.85,1.35,92
2.85,1.5,96
3.0,-1.5,98
3.0,-1.35,96
3.0,-1.2,90
3.0,-1.05,81
3.0,-0.9,69
3.0,-0.75,71
3.0,-0.6,61
3.0,-0.45,51
3.0,-0.3,62
3.0,-0.15,48
3.0,0.0,31
3.0,0.15,42
3.0,0.3,105
3.0,0.45,161
3.0,0.6,137
3.0,0.75,119
3.0,0.9,108
3.0,1.05,103
3.0,1.2,99
3.0,1.35,98
3.0,1.5,96
3.15,-1.5,107
3.15,-1.35,108
3.15,-1.2,105
3.15,-1.05,100
3.15,-0.9,110
3.15,-0.75,127
3.15,-0.6,156
3.15,-0.45,116
3.15,-0.3,43
3.15,-0.15,57
3.15,0.0,33
3.15,0.15,39
3.15,0.3,107
3.15,0.45,227
3.15,0.6,150
3.15,0.75,117
3.15,0.9,107
3.15,1.05,102
3.15,1.2,103
3.15,1.35,101
3.15,1.5,100
3.3,-1.5,101
3.3,-1.35,106
3.3,-1.2,110
3.3,-1.05,116
3.3,-0.9,129
3.3,-0.75,150
3.3,-0.6,210
3.3,-0.45,204
3.3,-0.3,37
3.3,-0.15,33
3.3,0.0,76
3.3,0.15,80
3.3,0.3,84
3.3,0.45,110
3.3,0.6,105
3.3,0.75,102
3.3,0.9,102
3.3,1.05,101
3.3,1.2,101
3.3,1.35,100
3.3,1.5,101
3.45,-1.5,101
3.45,-1.35,103
3.45,-1.2,101
3.45,-1.05,106
3.45,-0.9,116
3.45,-0.75,135
3.45,-0.6,145
3.45,-0.45,101
3.45,-0.3,56
3.45,-0.15,72
3.45,0.0,130
3.45,0.15,140
3.45,0.3,94
3.45,0.45,94
3.45,0.6,66
3.45,0.75,89
3.45,0.9,96
3.45,1.05,100
3.45,1.2,101
3.45,1.35,101
3.45,1.5,101
3.6,-1.5,75
3.6,-1.35,58
3.6,-1.2,80
3.6,-1.05,82
3.6,-0.9,84
3.6,-0.75,106
3.6,-0.6,135
3.6,-0.45,25
3.6,-0.3,41
3.6,-0.15,57
3.6,0.0,137
3.6,0.15,159
3.6,0.3,111
3.6,0.45,140
3.6,0.6,90
3.6,0.75,82
3.6,0.9,85
3.6,1.05,86
3.6,1.2,101
3.6,1.35,101
3.6,1.5,101
3.75,-1.5,70
3.75,-1.35,70
3.75,-1.2,70
3.75,-1.05,69
3.75,-0.9,60
3.75,-0.75,58
3.75,-0.6,48
3.75,-0.45,25
3.75,-0.3,36
3.75,-0.15,63
3.75,0.0,159
3.75,0.15,127
3.75,0.3,64
3.75,0.45,71
3.75,0.6,83
3.75,0.75,75
3.75,0.9,75
3.75,1.05,85
3.75,1.2,99
3.75,1.35,101
3.75,1.5,101
3.9,-1.5,70
3.9,-1.35,69
3.9,-1.2,69
3.9,-1.05,67
3.9,-0.9,65
3.9,-0.75,56
3.9,-0.6,10
3.9,-0.45,47
3.9,-0.3,11
3.9,-0.15,29
3.9,0.0,162
3.9,0.15,92
3.9,0.3,56
3.9,0.45,66
3.9,0.6,75
3.9,0.75,80
3.9,0.9,83
3.9,1.05,84
3.9,1.2,85
3.9,1.35,85
3.9,1.5,85
4.05,-1.5,70
4.05,-1.35,69
4.05,-1.2,62
4.05,-1.05,62
4.05,-0.9,62
4.05,-0.75,60
4.05,-0.6,0
4.05,-0.45,49
4.05,-0.3,56
4.05,-0.15,6
4.05,0.0,106
4.05,0.15,35
4.05,0.3,48
4.05,0.45,48
4.05,0.6,90
4.05,0.75,86
4.05,0.9,87
4.05,1.05,90
4.05,1.2,89
4.05,1.35,101
4.05,1.5,101
4.2,-1.5,96
4.2,-1.35,87
4.2,-1.2,90
4.2,-1.05,88
4.2,-0.9,80
4.2,-0.75,107
4.2,-0.6,46
4.2,-0.45,46
4.2,-0.3,56
4.2,-0.15,52
4.2,0.0,167
4.2,0.15,81
4.2,0.3,63
4.2,0.45,92
4.2,0.6,122
4.2,0.75,119
4.2,0.9,118
4.2,1.05,141
4.2,1.2,143
4.2,1.35,151
4.2,1.5,150
4.35,-1.5,95
4.35,-1.35,96
4.35,-1.2,97
4.35,-1.05,96
4.35,-0.9,94
4.35,-0.75,56
4.35,-0.6,59
4.35,-0.45,24
4.35,-0.3,157
4.35,-0.15,55
4.35,0.0,63
4.35,0.15,0
4.35,0.3,111
4.35,0.45,215
4.35,0.6,232
4.35,0.75,198
4.35,0.9,190
4.35,1.05,184
4.35,1.2,180
4.35,1.35,181
4.35,1.5,187
4.5,-1.5,98
4.5,-1.35,101
4.5,-1.2,104
4.5,-1.05,105
4.5,-0.9,125
4.5,-0.75,108
4.5,-0.6,32
4.5,-0.45,255
4.5,-0.3,255
4.5,-0.15,74
4.5,0.0,39
4.5,0.15,113
4.5,0.3,214
4.5,0.45,240
4.5,0.6,239
4.5,0.75,225
4.5,0.9,215
4.5,1.05,188
4.5,1.2,199
4.5,1.35,195
4.5,1.5,193
4.65,-1.5,114
4.65,-1.35,116
4.65,-1.2,120
4.65,-1.05,124
4.65,-0.9,155
4.65,-0.75,234
4.65,-0.6,95
4.65,-0.45,32
4.65,-0.3,69
4.65,-0.15,59
4.65,0.0,100
4.65,0.15,255
4.65,0.3,255
4.65,0.45,255
4.65,0.6,243
4.65,0.75,231
4.65,0.9,216
4.65,1.05,206
4.65,1.2,202
4.65,1.35,200
4.65,1.5,185
4.8,-1.5,115
4.8,-1.35,114
4.8,-1.2,116
4.8,-1.05,123
4.8,-0.9,134
4.8,-0.75,121
4.8,-0.6,68
4.8,-0.45,99
4.8,-0.3,98
4.8,-0.15,70
4.8,0.0,179
4.8,0.15,186
4.8,0.3,255
4.8,0.45,246
4.8,0.6,210
4.8,0.75,203
4.8,0.9,198
4.8,1.05,196
4.8,1.2,182
4.8,1.35,180
4.8,1.5,180
4.95,-1.5,116
4.95,-1.35,116
4.95,-1.2,116
4.95,-1.05,118
4.95,-0.9,119
4.95,-0.75,124
4.95,-0.6,122
4.95,-0.45,68
4.95,-0.3,138
4.95,-0.15,14
4.95,0.0,94
4.95,0.15,108
4.95,0.3,86
4.95,0.45,108
4.95,0.6,141
4.95,0.75,141
4.95,0.9,144
4.95,1.05,145
4.95,1.2,145
4.95,1.35,169
4.95,1.5,170
5.1,-1.5,113
5.1,-1.35,114
5.1,-1.2,116
5.1,-1.05,114
5.1,-0.9,117
5.1,-0.75,112
5.1,-0.6,49
5.1,-0.45,40
5.1,-0.3,18
5.1,-0.15,1
5.1,0.0,13
5.1,0.15,13
5.1,0.3,31
5.1,0.45,109
5.1,0.6,92
5.1,0.75,98
5.1,0.9,119
5.1,1.05,124
5.1,1.2,127
5.1,1.35,137
5.1,1.5,167
5.25,-1.5,108
5.25,-1.35,108
5.25,-1.2,105
5.25,-1.05,91
5.25,-0.9,85
5.25,-0.75,110
5.25,-0.6,187
5.25,-0.45,50
5.25,-0.3,169
5.25,-0.15,52
5.25,0.0,79
5.25,0.15,57
5.25,0.3,92
5.25,0.45,207
5.25,0.6,75
5.25,0.75,91
5.25,0.9,117
5.25,1.05,124
5.25,1.2,153
5.25,1.35,147
5.25,1.5,149
5.4,-1.5,115
5.4,-1.35,114
5.4,-1.2,97
5.4,-1.05,79
5.4,-0.9,79
5.4,-0.75,75
5.4,-0.6,34
5.4,-0.45,42
5.4,-0.3,138
5.4,-0.15,22
5.4,0.0,39
5.4,0.15,81
5.4,0.3,116
5.4,0.45,122
5.4,0.6,108
5.4,0.75,128
5.4,0.9,156
5.4,1.05,147
5.4,1.2,151
5.4,1.35,153
5.4,1.5,153
5.55,-1.5,115
5.55,-1.35,105
5.55,-1.2,88
5.55,-1.05,84
5.55,-0.9,95
5.55,-0.75,75
5.55,-0.6,44
5.55,-0.45,51
5.55,-0.3,42
5.55,-0.15,154
5.55,0.0,255
5.55,0.15,230
5.55,0.3,87
5.55,0.45,204
5.55,0.6,176
5.55,0.75,170
5.55,0.9,173
5.55,1.05,158
5.55,1.2,158
5.55,1.35,157
5.55,1.5,156
5.7,-1.5,120
5.7,-1.35,121
5.7,-1.2,90
5.7,-1.05,63
5.7,-0.9,81
5.7,-0.75,98
5.7,-0.6,78
5.7,-0.45,55
5.7,-0.3,87
5.7,-0.15,37
5.7,0.0,91
5.7,0.15,165
5.7,0.3,238
5.7,0.45,246
5.7,0.6,244
5.7,0.75,205
5.7,0.9,191
5.7,1.05,184
5.7,1.2,198
5.7,1.35,176
5.7,1.5,175
5.85,-1.5,122
5.85,-1.35,117
5.85,-1.2,107
5.85,-1.05,93
5.85,-0.9,121
5.85,-0.75,146
5.85,-0.6,177
5.85,-0.45,210
5.85,-0.3,30
5.85,-0.15,28
5.85,0.0,41
5.85,0.15,190
5.85,0.3,173
5.85,0.45,255
5.85,0.6,243
5.85,0.75,207
5.85,0.9,187
5.85,1.05,186
5.85,1.2,161
5.85,1.35,158
5.85,1.5,156
6.0,-1.5,126
6.0,-1.35,125
6.0,-1.2,125
6.0,-1.05,130
6.0,-0.9,142
6.0,-0.75,171
6.0,-0.6,159
6.0,-0.45,9
6.0,-0.3,28
6.0,-0.15,55
6.0,0.0,43
6.0,0.15,85
6.0,0.3,213
6.0,0.45,105
6.0,0.6,135
6.0,0.75,174
6.0,0.9,173
6.0,1.05,173
6.0,1.2,151
6.0,1.35,150
6.0,1.5,154
6.15,-1.5,133
6.15,-1.35,123
6.15,-1.2,123
6.15,-1.05,129
6.15,-0.9,135
6.15,-0.75,121
6.15,-0.6,85
6.15,-0.45,90
6.15,-0.3,38
6.15,-0.15,36
6.15,0.0,21
6.15,0.15,55
6.15,0.3,162
6.15,0.45,97
6.15,0.6,125
6.15,0.75,127
6.15,0.9,121
6.15,1.05,121
6.15,1.2,121
6.15,1.35,121
6.15,1.5,126
6.3,-1.5,123
6.3,-1.35,125
6.3,-1.2,129
6.3,-1.05,141
6.3,-0.9,143
6.3,-0.75,141
6.3,-0.6,94
6.3,-0.45,134
6.3,-0.3,131
6.3,-0.15,71
6.3,0.0,85
6.3,0.15,70
6.3,0.3,86
6.3,0.45,27
6.3,0.6,170
6.3,0.75,101
6.3,0.9,105
6.3,1.05,106
6.3,1.2,107
6.3,1.35,108
6.3,1.5,108
6.45,-1.5,111
6.45,-1.35,114
6.45,-1.2,127
6.45,-1.05,130
6.45,-0.9,136
6.45,-0.75,143
6.45,-0.6,123
6.45,-0.45,255
6.45,-0.3,157
6.45,-0.15,134
6.45,0.0,15
6.45,0.15,110
6.45,0.3,79
6.45,0.45,68
6.45,0.6,92
6.45,0.75,77
6.45,0.9,85
6.45,1.05,96
6.45,1.2,98
6.45,1.35,107
6.45,1.5,108
6.6,-1.5,101
6.6,-1.35,101
6.6,-1.2,101
6.6,-1.05,114
6.6,-0.9,113
6.6,-0.75,115
6.6,-0.6,162
6.6,-0.45,97
6.6,-0.3,68
6.6,-0.15,147
6.6,0.0,9
6.6,0.15,7
6.6,0.3,174
6.6,0.45,91
6.6,0.6,80
6.6,0.75,74
6.6,0.9,78
6.6,1.05,72
6.6,1.2,71
6.6,1.35,75
6.6,1.5,74
6.75,-1.5,105
6.75,-1.35,105
6.75,-1.2,104
6.75,-1.05,97
6.75,-0.9,104
6.75,-0.75,88
6.75,-0.6,76
6.75,-0.45,4
6.75,-0.3,61
6.75,-0.15,48
6.75,0.0,58
6.75,0.15,1
6.75,0.3,14
6.75,0.45,14
6.75,0.6,30
6.75,0.75,67
6.75,0.9,86
6.75,1.05,90
6.75,1.2,88
6.75,1.35,71
6.75,1.5,43
6.9,-1.5,107
6.9,-1.35,107
6.9,-1.2,112
6.9,-1.05,92
6.9,-0.9,91
6.9,-0.75,79
6.9,-0.6,73
6.9,-0.45,141
6.9,-0.3,65
6.9,-0.15,48
6.9,0.0,54
6.9,0.15,19
6.9,0.3,20
6.9,0.45,51
6.9,0.6,46
6.9,0.75,57
6.9,0.9,59
6.9,1.05,65
6.9,1.2,66
6.9,1.35,82
6.9,1.5,74
7.05,-1.5,91
7.05,-1.35,89
7.05,-1.2,96
7.05,-1.05,94
7.05,-0.9,94
7.05,-0.75,74
7.05,-0.6,70
7.05,-0.45,191
7.05,-0.3,173
7.05,-0.15,68
7.05,0.0,76
7.05,0.15,28
7.05,0.3,120
7.05,0.45,45
7.05,0.6,45
7.05,0.75,54
7.05,0.9,60
7.05,1.05,61
7.05,1.2,66
7.05,1.35,67
7.05,1.5,68
7.2,-1.5,74
7.2,-1.35,75
7.2,-1.2,95
7.2,-1.05,94
7.2,-0.9,90
7.2,-0.75,93
7.2,-0.6,91
7.2,-0.45,70
7.2,-0.3,155
7.2,-0.15,43
7.2,0.0,52
7.2,0.15,149
7.2,0.3,63
7.2,0.45,37
7.2,0.6,46
7.2,0.75,57
7.2,0.9,66
7.2,1.05,67
7.2,1.2,67
7.2,1.35,47
7.2,1.5,47
7.35,-1.5,76
7.35,-1.35,78
7.35,-1.2,81
7.35,-1.05,85
7.35,-0.9,97
7.35,-0.75,97
7.35,-0.6,77
7.35,-0.45,84
7.35,-0.3,33
7.35,-0.15,17
7.35,0.0,42
7.35,0.15,55
7.35,0.3,49
7.35,0.45,47
7.35,0.6,26
7.35,0.75,26
7.35,0.9,26
7.35,1.05,26
7.35,1.2,26
7.35,1.35,26
7.35,1.5,26
7.5,-1.5,93
7.5,-1.35,82
7.5,-1.2,85
7.5,-1.05,91
7.5,-0.9,110
7.5,-0.75,230
7.5,-0.6,62
7.5,-0.45,64
7.5,-0.3,66
7.5,-0.15,17
7.5,0.0,30
7.5,0.15,59
7.5,0.3,88
7.5,0.45,24
7.5,0.6,37
7.5,0.75,39
7.5,0.9,39
7.5,1.05,35
7.5,1.2,35
7.5,1.35,35
7.5,1.5,36
7.65,-1.5,96
7.65,-1.35,95
7.65,-1.2,95
7.65,-1.05,86
7.65,-0.9,92
7.65,-0.75,89
7.65,-0.6,41
7.65,-0.45,93
7.65,-0.3,81
7.65,-0.15,0
7.65,0.0,19
7.65,0.15,76
7.65,0.3,54
7.65,0.45,20
7.65,0.6,58
7.65,0.75,40
7.65,0.9,43
7.65,1.05,56
7.65,1.2,57
7.65,1.35,57
7.65,1.5,57
7.8,-1.5,100
7.8,-1.35,103
7.8,-1.2,101
7.8,-1.05,95
7.8,-0.9,81
7.8,-0.75,73
7.8,-0.6,68
7.8,-0.45,85
7.8,-0.3,52
7.8,-0.15,70
7.8,0.0,18
7.8,0.15,50
7.8,0.3,50
7.8,0.45,49
7.8,0.6,90
7.8,0.75,88
7.8,0.9,72
7.8,1.05,75
7.8,1.2,75
7.8,1.35,74
7.8,1.5,74
7.95,-1.5,104
7.95,-1.35,105
7.95,-1.2,101
7.95,-1.05,96
7.95,-0.9,81
7.95,-0.75,63
7.95,-0.6,63
7.95,-0.45,58
7.95,-0.3,52
7.95,-0.15,102
7.95,0.0,90
7.95,0.15,81
7.95,0.3,57
7.95,0.45,195
7.95,0.6,88
7.95,0.75,86
7.95,0.9,80
7.95,1.05,73
7.95,1.2,73
7.95,1.35,75
7.95,1.5,75
8.1,-1.5,104
8.1,-1.35,110
8.1,-1.2,118
8.1,-1.05,130
8.1,-0.9,105
8.1,-0.75,87
8.1,-0.6,75
8.1,-0.45,76
8.1,-0.3,85
8.1,-0.15,72
8.1,0.0,40
8.1,0.15,162
8.1,0.3,131
8.1,0.45,48
8.1,0.6,62
8.1,0.75,73
8.1,0.9,75
8.1,1.05,75
8.1,1.2,74
8.1,1.35,74
8.1,1.5,75
8.25,-1.5,116
8.25,-1.35,125
8.25,-1.2,154
8.25,-1.05,185
8.25,-0.9,210
8.25,-0.75,117
8.25,-0.6,92
8.25,-0.45,123
8.25,-0.3,148
8.25,-0.15,86
8.25,0.0,14
8.25,0.15,159
8.25,0.3,63
8.25,0.45,11
8.25,0.6,33
8.25,0.75,53
8.25,0.9,64
8.25,1.05,68
8.25,1.2,75
8.25,1.35,56
8.25,1.5,56
8.4,-1.5,120
8.4,-1.35,129
8.4,-1.2,148
8.4,-1.05,191
8.4,-0.9,219
8.4,-0.75,88
8.4,-0.6,58
8.4,-0.45,126
8.4,-0.3,117
8.4,-0.15,52
8.4,0.0,60
8.4,0.15,133
8.4,0.3,14
8.4,0.45,61
8.4,0.6,26
8.4,0.75,19
8.4,0.9,27
8.4,1.05,28
8.4,1.2,29
8.4,1.35,34
8.4,1.5,35
8.55,-1.5,106
8.55,-1.35,119
8.55,-1.2,128
8.55,-1.05,136
8.55,-0.9,118
8.55,-0.75,61
8.55,-0.6,48
8.55,-0.45,71
8.55,-0.3,52
8.55,-0.15,48
8.55,0.0,75
8.55,0.15,132
8.55,0.3,125
8.55,0.45,46
8.55,0.6,30
8.55,0.75,24
8.55,0.9,19
8.55,1.05,18
8.55,1.2,13
8.55,1.35,13
8.55,1.5,13
8.7,-1.5,106
8.7,-1.35,108
8.7,-1.2,109
8.7,-1.05,107
8.7,-0.9,96
8.7,-0.75,87
8.7,-0.6,81
8.7,-0.45,64
8.7,-0.3,64
8.7,-0.15,44
8.7,0.0,7
8.7,0.15,40
8.7,0.3,50
8.7,0.45,17
8.7,0.6,33
8.7,0.75,27
8.7,0.9,27
8.7,1.05,23
8.7,1.2,23
8.7,1.35,18
8.7,1.5,18
8.85,-1.5,100
8.85,-1.35,106
8.85,-1.2,107
8.85,-1.05,100
8.85,-0.9,96
8.85,-0.75,96
8.85,-0.6,78
8.85,-0.45,75
8.85,-0.3,74
8.85,-0.15,59
8.85,0.0,49
8.85,0.15,139
8.85,0.3,78
8.85,0.45,9
8.85,0.6,23
8.85,0.75,29
8.85,0.9,30
8.85,1.05,27
8.85,1.2,27
8.85,1.35,27
8.85,1.5,27
9.0,-1.5,96
9.0,-1.35,90
9.0,-1.2,88
9.0,-1.05,85
9.0,-0.9,82
9.0,-0.75,88
9.0,-0.6,70
9.0,-0.45,93
9.0,-0.3,112
9.0,-0.15,67
9.0,0.0,81
9.0,0.15,54
9.0,0.3,71
9.0,0.45,33
9.0,0.6,30
9.0,0.75,30
9.0,0.9,27
9.0,1.05,27
9.0,1.2,27
9.0,1.35,27
9.0,1.5,17
9.15,-1.5,89
9.15,-1.35,86
9.15,-1.2,83
9.15,-1.05,77
9.15,-0.9,67
9.15,-0.75,57
9.15,-0.6,7
9.15,-0.45,79
9.15,-0.3,191
9.15,-0.15,69
9.15,0.0,50
9.15,0.15,152
9.15,0.3,71
9.15,0.45,31
9.15,0.6,57
9.15,0.75,58
9.15,0.9,60
9.15,1.05,57
9.15,1.2,59
9.15,1.35,54
9.15,1.5,55
9.3,-1.5,103
9.3,-1.35,100
9.3,-1.2,92
9.3,-1.05,83
9.3,-0.9,74
9.3,-0.75,61
9.3,-0.6,55
9.3,-0.45,64
9.3,-0.3,40
9.3,-0.15,56
9.3,0.0,50
9.3,0.15,68
9.3,0.3,90
9.3,0.45,48
9.3,0.6,36
9.3,0.75,86
9.3,0.9,82
9.3,1.05,84
9.3,1.2,90
9.3,1.35,91
9.3,1.5,77
9.45,-1.5,105
9.45,-1.35,103
9.45,-1.2,100
9.45,-1.05,83
9.45,-0.9,78
9.45,-0.75,67
9.45,-0.6,66
9.45,-0.45,22
9.45,-0.3,40
9.45,-0.15,61
9.45,0.0,67
9.45,0.15,46
9.45,0.3,60
9.45,0.45,144
9.45,0.6,113
9.45,0.75,98
9.45,0.9,90
9.45,1.05,91
9.45,1.2,91
9.45,1.35,91
9.45,1.5,91
9.6,-1.5,93
9.6,-1.35,94
9.6,-1.2,95
9.6,-1.05,95
9.6,-0.9,97
9.6,-0.75,101
9.6,-0.6,86
9.6,-0.45,62
9.6,-0.3,40
9.6,-0.15,44
9.6,0.0,90
9.6,0.15,44
9.6,0.3,56
9.6,0.45,113
9.6,0.6,20
9.6,0.75,84
9.6,0.9,93
9.6,1.05,80
9.6,1.2,80
9.6,1.35,79
9.6,1.5,79
9.75,-1.5,82
9.75,-1.35,85
9.75,-1.2,90
9.75,-1.05,107
9.75,-0.9,117
9.75,-0.75,129
9.75,-0.6,150
9.75,-0.45,174
9.75,-0.3,83
9.75,-0.15,52
9.75,0.0,44
9.75,0.15,130
9.75,0.3,255
9.75,0.45,105
9.75,0.6,92
9.75,0.75,94
9.75,0.9,102
9.75,1.05,103
9.75,1.2,91
9.75,1.35,100
9.75,1.5,84
9.9,-1.5,115
9.9,-1.35,115
9.9,-1.2,105
9.9,-1.05,109
9.9,-0.9,117
9.9,-0.75,139
9.9,-0.6,242
9.9,-0.45,255
9.9,-0.3,153
9.9,-0.15,149
9.9,0.0,214
9.9,0.15,162
9.9,0.3,22
9.9,0.45,66
9.9,0.6,80
9.9,0.75,67
9.9,0.9,80
9.9,1.05,85
9.9,1.2,86
9.9,1.35,87
9.9,1.5,97
10.05,-1.5,115
10.05,-1.35,115
10.05,-1.2,115
10.05,-1.05,115
10.05,-0.9,110
10.05,-0.75,102
10.05,-0.6,146
10.05,-0.45,157
10.05,-0.3,110
10.05,-0.15,80
10.05,0.0,90
10.05,0.15,64
10.05,0.3,53
10.05,0.45,68
10.05,0.6,68
10.05,0.75,56
10.05,0.9,64
10.05,1.05,64
10.05,1.2,73
10.05,1.35,74
10.05,1.5,79
10.2,-1.5,115
10.2,-1.35,115
10.2,-1.2,115
10.2,-1.05,113
10.2,-0.9,129
10.2,-0.75,75
10.2,-0.6,96
10.2,-0.45,76
10.2,-0.3,65
10.2,-0.15,43
10.2,0.0,4
10.2,0.15,44
10.2,0.3,84
10.2,0.45,102
10.2,0.6,92
10.2,0.75,84
10.2,0.9,85
10.2,1.05,55
10.2,1.2,56
10.2,1.35,56
10.2,1.5,75
10.35,-1.5,102
10.35,-1.35,102
10.35,-1.2,101
10.35,-1.05,98
10.35,-0.9,91
10.35,-0.75,62
10.35,-0.6,88
10.35,-0.45,101
10.35,-0.3,116
10.35,-0.15,94
10.35,0.0,44
10.35,0.15,14
10.35,0.3,51
10.35,0.45,74
10.35,0.6,58
10.35,0.75,96
10.35,0.9,95
10.35,1.05,75
10.35,1.2,77
10.35,1.35,82
10.35,1.5,82
10.5,-1.5,102
10.5,-1.35,104
10.5,-1.2,106
10.5,-1.05,104
10.5,-0.9,66
10.5,-0.75,60
10.5,-0.6,95
10.5,-0.45,130
10.5,-0.3,164
10.5,-0.15,175
10.5,0.0,226
10.5,0.15,66
10.5,0.3,120
10.5,0.45,150
10.5,0.6,95
10.5,0.75,118
10.5,0.9,117
10.5,1.05,117
10.5,1.2,117
10.5,1.35,117
10.5,1.5,117
10.65,-1.5,103
10.65,-1.35,117
10.65,-1.2,124
10.65,-1.05,145
10.65,-0.9,255
10.65,-0.75,144
10.65,-0.6,89
10.65,-0.45,112
10.65,-0.3,187
10.65,-0.15,140
10.65,0.0,78
10.65,0.15,255
10.65,0.3,127
10.65,0.45,191
10.65,0.6,135
10.65,0.75,116
10.65,0.9,118
10.65,1.05,117
10.65,1.2,100
10.65,1.35,98
10.65,1.5,97
10.8,-1.5,104
10.8,-1.35,109
10.8,-1.2,129
10.8,-1.05,151
10.8,-0.9,191
10.8,-0.75,125
10.8,-0.6,70
10.8,-0.45,122
10.8,-0.3,255
10.8,-0.15,135
10.8,0.0,103
10.8,0.15,89
10.8,0.3,89
10.8,0.45,97
10.8,0.6,87
10.8,0.75,96
10.8,0.9,118
10.8,1.05,113
10.8,1.2,104
10.8,1.35,115
10.8,1.5,120
10.95,-1.5,107
10.95,-1.35,107
10.95,-1.2,110
10.95,-1.05,117
10.95,-0.9,121
10.95,-0.75,83
10.95,-0.6,40
10.95,-0.45,71
10.95,-0.3,141
10.95,-0.15,90
10.95,0.0,38
10.95,0.15,66
10.95,0.3,78
10.95,0.45,71
10.95,0.6,74
10.95,0.75,69
10.95,0.9,109
10.95,1.05,110
10.95,1.2,108
10.95,1.35,122
10.95,1.5,124
11.1,-1.5,103
11.1,-1.35,103
11.1,-1.2,104
11.1,-1.05,104
11.1,-0.9,105
11.1,-0.75,124
11.1,-0.6,207
11.1,-0.45,111
11.1,-0.3,92
11.1,-0.15,11
11.1,0.0,52
11.1,0.15,72
11.1,0.3,49
11.1,0.45,102
11.1,0.6,56
11.1,0.75,74
11.1,0.9,90
11.1,1.05,94
11.1,1.2,98
11.1,1.35,98
11.1,1.5,98
11.25,-1.5,105
11.25,-1.35,105
11.25,-1.2,103
11.25,-1.05,98
11.25,-0.9,98
11.25,-0.75,124
11.25,-0.6,161
11.25,-0.45,124
11.25,-0.3,78
11.25,-0.15,32
11.25,0.0,231
11.25,0.15,42
11.25,0.3,121
11.25,0.45,104
11.25,0.6,83
11.25,0.75,92
11.25,0.9,112
11.25,1.05,110
11.25,1.2,134
11.25,1.35,135
11.25,1.5,133
11.4,-1.5,105
11.4,-1.35,102
11.4,-1.2,96
11.4,-1.05,85
11.4,-0.9,70
11.4,-0.75,76
11.4,-0.6,80
11.4,-0.45,73
11.4,-0.3,93
11.4,-0.15,84
11.4,0.0,85
11.4,0.15,194
11.4,0.3,81
11.4,0.45,182
11.4,0.6,180
11.4,0.75,179
11.4,0.9,163
11.4,1.05,160
11.4,1.2,150
11.4,1.35,149
11.4,1.5,135
11.55,-1.5,105
11.55,-1.35,101
11.55,-1.2,95
11.55,-1.05,85
11.55,-0.9,67
11.55,-0.75,65
11.55,-0.6,66
11.55,-0.45,65
11.55,-0.3,80
11.55,-0.15,100
11.55,0.0,100
11.55,0.15,100
11.55,0.3,217
11.55,0.45,222
11.55,0.6,181
11.55,0.75,163
11.55,0.9,156
11.55,1.05,158
11.55,1.2,155
11.55,1.35,153
11.55,1.5,152
11.7,-1.5,116
11.7,-1.35,115
11.7,-1.2,110
11.7,-1.05,98
11.7,-0.9,85
11.7,-0.75,43
11.7,-0.6,33
11.7,-0.45,59
11.7,-0.3,69
11.7,-0.15,82
11.7,0.0,76
11.7,0.15,52
11.7,0.3,23
11.7,0.45,132
11.7,0.6,147
11.7,0.75,159
11.7,0.9,142
11.7,1.05,141
11.7,1.2,141
11.7,1.35,109
11.7,1.5,109
11.85,-1.5,118
11.85,-1.35,119
11.85,-1.2,124
11.85,-1.05,132
11.85,-0.9,167
11.85,-0.75,176
11.85,-0.6,91
11.85,-0.45,102
11.85,-0.3,109
11.85,-0.15,89
11.85,0.0,57
11.85,0.15,61
11.85,0.3,126
11.85,0.45,82
11.85,0.6,103
11.85,0.75,104
11.85,0.9,109
11.85,1.05,109
11.85,1.2,109
11.85,1.35,109
11.85,1.5,109
12.0,-1.5,128
12.0,-1.35,133
12.0,-1.2,141
12.0,-1.05,163
12.0,-0.9,200
12.0,-0.75,229
12.0,-0.6,160
12.0,-0.45,151
12.0,-0.3,151
12.0,-0.15,165
12.0,0.0,135
12.0,0.15,99
12.0,0.3,68
12.0,0.45,68
12.0,0.6,93
12.0,0.75,99
12.0,0.9,109
12.0,1.05,109
12.0,1.2,109
12.0,1.35,109
12.0,1.5,109
12.15,-1.5,129
12.15,-1.35,137
12.15,-1.2,147
12.15,-1.05,153
12.15,-0.9,171
12.15,-0.75,176
12.15,-0.6,163
12.15,-0.45,151
12.15,-0.3,152
12.15,-0.15,216
12.15,0.0,110
12.15,0.15,17
12.15,0.3,120
12.15,0.45,80
12.15,0.6,89
12.15,0.75,94
12.15,0.9,95
12.15,1.05,95
12.15,1.2,90
12.15,1.35,86
12.15,1.5,103
12.3,-1.5,124
12.3,-1.35,134
12.3,-1.2,136
12.3,-1.05,152
12.3,-0.9,168
12.3,-0.75,184
12.3,-0.6,183
12.3,-0.45,177
12.3,-0.3,159
12.3,-0.15,139
12.3,0.0,69
12.3,0.15,125
12.3,0.3,80
12.3,0.45,97
12.3,0.6,76
12.3,0.75,76
12.3,0.9,89
12.3,1.05,89
12.3,1.2,86
12.3,1.35,82
12.3,1.5,77
12.45,-1.5,99
12.45,-1.35,112
12.45,-1.2,130
12.45,-1.05,150
12.45,-0.9,182
12.45,-0.75,218
12.45,-0.6,248
12.45,-0.45,225
12.45,-0.3,164
12.45,-0.15,98
12.45,0.0,77
12.45,0.15,71
12.45,0.3,54
12.45,0.45,62
12.45,0.6,58
12.45,0.75,51
12.45,0.9,49
12.45,1.05,47
12.45,1.2,43
12.45,1.35,38
12.45,1.5,34
12.6,-1.5,74
12.6,-1.35,90
12.6,-1.2,115
12.6,-1.05,151
12.6,-0.9,189
12.6,-0.75,220
12.6,-0.6,250
12.6,-0.45,211
12.6,-0.3,143
12.6,-0.15,90
12.6,0.0,98
12.6,0.15,81
12.6,0.3,4
12.6,0.45,12
12.6,0.6,42
12.6,0.75,47
12.6,0.9,49
12.6,1.05,42
12.6,1.2,37
12.6,1.35,27
12.6,1.5,22
12.75,-1.5,41
12.75,-1.35,60
12.75,-1.2,98
12.75,-1.05,144
12.75,-0.9,171
12.75,-0.75,194
12.75,-0.6,176
12.75,-0.45,147
12.75,-0.3,92
12.75,-0.15,60
12.75,0.0,56
12.75,0.15,27
12.75,0.3,0
12.75,0.45,0
12.75,0.6,4
12.75,0.75,10
12.75,0.9,6
12.75,1.05,5
12.75,1.2,26
12.75,1.35,16
12.75,1.5,10
12.9,-1.5,3
12.9,-1.35,23
12.9,-1.2,77
12.9,-1.05,105
12.9,-0.9,132
12.9,-0.75,132
12.9,-0.6,117
12.9,-0.45,98
12.9,-0.3,73
12.9,-0.15,40
12.9,0.0,19
12.9,0.15,0
12.9,0.3,0
12.9,0.45,0
12.9,0.6,0
12.9,0.75,0
12.9,0.9,0
12.9,1.05,0
12.9,1.2,0
12.9,1.35,0
12.9,1.5,0
13.05,-1.5,0
13.05,-1.35,14
13.05,-1.2,53
13.05,-1.05,79
13.05,-0.9,100
13.05,-0.75,93
13.05,-0.6,91
13.05,-0.45,78
13.05,-0.3,60
13.05,-0.15,31
13.05,0.0,14
13.05,0.15,0
13.05,0.3,0
13.05,0.45,0
13.05,0.6,0
13.05,0.75,0
13.05,0.9,0
13.05,1.05,0
13.05,1.2,0
13.05,1.35,0
13.05,1.5,0
