-3.0,-1.5,0
-3.0,-1.35,9
-3.0,-1.2,46
-3.0,-1.05,82
-3.0,-0.9,107
-3.0,-0.75,125
-3.0,-0.6,138
-3.0,-0.45,146
-3.0,-0.3,147
-3.0,-0.15,134
-3.0,0.0,103
-3.0,0.15,82
-3.0,0.3,88
-3.0,0.45,96
-3.0,0.6,96
-3.0,0.75,90
-3.0,0.9,79
-3.0,1.05,61
-3.0,1.2,34
-3.0,1.35,5
-3.0,1.5,0
-2.85,-1.5,7
-2.85,-1.35,24
-2.85,-1.2,58
-2.85,-1.05,89
-2.85,-0.9,111
-2.85,-0.75,129
-2.85,-0.6,145
-2.85,-0.45,158
-2.85,-0.3,165
-2.85,-0.15,155
-2.85,0.0,105
-2.85,0.15,50
-2.85,0.3,79
-2.85,0.45,96
-2.85,0.6,95
-2.85,0.75,89
-2.85,0.9,80
-2.85,1.05,66
-2.85,1.2,43
-2.85,1.35,16
-2.85,1.5,4
-2.7,-1.5,39
-2.7,-1.35,53
-2.7,-1.2,75
-2.7,-1.05,94
-2.7,-0.9,109
-2.7,-0.75,129
-2.7,-0.6,153
-2.7,-0.45,172
-2.7,-0.3,194
-2.7,-0.15,210
-2.7,0.0,170
-2.7,0.15,106
-2.7,0.3,103
-2.7,0.45,100
-2.7,0.6,91
-2.7,0.75,85
-2.7,0.9,81
-2.7,1.05,72
-2.7,1.2,57
-2.7,1.35,39
-2.7,1.5,28
-2.55,-1.5,66
-2.55,-1.35,75
-2.55,-1.2,85
-2.55,-1.05,90
-2.55,-0.9,90
-2.55,-0.75,117
-2.55,-0.6,172
-2.55,-0.45,184
-2.55,-0.3,219
-2.55,-0.15,255
-2.55,0.0,255
-2.55,0.15,133
-2.55,0.3,115
-2.55,0.45,94
-2.55,0.6,77
-2.55,0.75,75
-2.55,0.9,77
-2.55,1.05,75
-2.55,1.2,68
-2.55,1.35,58
-2.55,1.5,51
-2.4,-1.5,82
-2.4,-1.35,87
-2.4,-1.2,89
-2.4,-1.05,80
-2.4,-0.9,49
-2.4,-0.75,30
-2.4,-0.6,217
-2.4,-0.45,188
-2.4,-0.3,223
-2.4,-0.15,255
-2.4,0.0,255
-2.4,0.15,141
-2.4,0.3,116
-2.4,0.45,76
-2.4,0.6,54
-2.4,0.75,62
-2.4,0.9,71
-2.4,1.05,76
-2.4,1.2,75
-2.4,1.35,70
-2.4,1.5,66
-2.25,-1.5,92
-2.25,-1.35,94
-2.25,-1.2,92
-2.25,-1.05,82
-2.25,-0.9,54
-2.25,-0.75,43
-2.25,-0.6,139
-2.25,-0.45,174
-2.25,-0.3,223
-2.25,-0.15,255
-2.25,0.0,255
-2.25,0.15,183
-2.25,0.3,127
-2.25,0.45,78
-2.25,0.6,54
-2.25,0.75,56
-2.25,0.9,69
-2.25,1.05,77
-2.25,1.2,79
-2.25,1.35,78
-2.25,1.5,76
-2.1,-1.5,102
-2.1,-1.35,98
-2.1,-1.2,98
-2.1,-1.05,94
-2.1,-0.9,89
-2.1,-0.75,98
-2.1,-0.6,129
-2.1,-0.45,162
-2.1,-0.3,198
-2.1,-0.15,255
-2.1,0.0,250
-2.1,0.15,183
-2.1,0.3,133
-2.1,0.45,96
-2.1,0.6,74
-2.1,0.75,69
-2.1,0.9,76
-2.1,1.05,81
-2.1,1.2,83
-2.1,1.35,83
-2.1,1.5,90
-1.95,-1.5,105
-1.95,-1.35,106
-1.95,-1.2,107
-1.95,-1.05,107
-1.95,-0.9,109
-1.95,-0.75,119
-1.95,-0.6,130
-1.95,-0.45,138
-1.95,-0.3,148
-1.95,-0.15,165
-1.95,0.0,173
-1.95,0.15,158
-1.95,0.3,131
-1.95,0.45,111
-1.95,0.6,96
-1.95,0.75,91
-1.95,0.9,85
-1.95,1.05,87
-1.95,1.2,88
-1.95,1.35,96
-1.95,1.5,96
-1.8,-1.5,99
-1.8,-1.35,108
-1.8,-1.2,109
-1.8,-1.05,111
-1.8,-0.9,117
-1.8,-0.75,121
-1.8,-0.6,123
-1.8,-0.45,118
-1.8,-0.3,102
-1.8,-0.15,99
-1.8,0.0,119
-1.8,0.15,129
-1.8,0.3,123
-1.8,0.45,116
-1.8,0.6,108
-1.8,0.75,104
-1.8,0.9,103
-1.8,1.05,101
-1.8,1.2,102
-1.8,1.35,103
-1.8,1.5,103
-1.65,-1.5,94
-1.65,-1.35,95
-1.65,-1.2,96
-1.65,-1.05,111
-1.65,-0.9,113
-1.65,-0.75,117
-1.65,-0.6,122
-1.65,-0.45,125
-1.65,-0.3,81
-1.65,-0.15,69
-1.65,0.0,94
-1.65,0.15,112
-1.65,0.3,120
-1.65,0.45,123
-1.65,0.6,121
-1.65,0.75,120
-1.65,0.9,120
-1.65,1.05,121
-1.65,1.2,109
-1.65,1.35,109
-1.65,1.5,92
-1.5,-1.5,75
-1.5,-1.35,92
-1.5,-1.2,92
-1.5,-1.05,93
-1.5,-0.9,96
-1.5,-0.75,104
-1.5,-0.6,117
-1.5,-0.45,155
-1.5,-0.3,110
-1.5,-0.15,69
-1.5,0.0,87
-1.5,0.15,108
-1.5,0.3,120
-1.5,0.45,121
-1.5,0.6,122
-1.5,0.75,122
-1.5,0.9,122
-1.5,1.05,113
-1.5,1.2,113
-1.5,1.35,98
-1.5,1.5,108
-1.35,-1.5,86
-1.35,-1.35,84
-1.35,-1.2,81
-1.35,-1.05,83
-1.35,-0.9,84
-1.35,-0.75,92
-1.35,-0.6,106
-1.35,-0.45,112
-1.35,-0.3,86
-1.35,-0.15,49
-1.35,0.0,100
-1.35,0.15,118
-1.35,0.3,123
-1.35,0.45,124
-1.35,0.6,124
-1.35,0.75,112
-1.35,0.9,111
-1.35,1.05,103
-1.35,1.2,102
-1.35,1.35,101
-1.35,1.5,107
-1.2,-1.5,84
-1.2,-1.35,81
-1.2,-1.2,76
-1.2,-1.05,69
-1.2,-0.9,60
-1.2,-0.75,65
-1.2,-0.6,86
-1.2,-0.45,96
-1.2,-0.3,99
-1.2,-0.15,136
-1.2,0.0,189
-1.2,0.15,140
-1.2,0.3,124
-1.2,0.45,120
-1.2,0.6,122
-1.2,0.75,121
-1.2,0.9,110
-1.2,1.05,108
-1.2,1.2,113
-1.2,1.35,111
-1.2,1.5,109
-1.05,-1.5,74
-1.05,-1.35,72
-1.05,-1.2,68
-1.05,-1.05,61
-1.05,-0.9,50
-1.05,-0.75,56
-1.05,-0.6,71
-1.05,-0.45,90
-1.05,-0.3,108
-1.05,-0.15,151
-1.05,0.0,177
-1.05,0.15,143
-1.05,0.3,130
-1.05,0.45,127
-1.05,0.6,119
-1.05,0.75,118
-1.05,0.9,124
-1.05,1.05,121
-1.05,1.2,118
-1.05,1.35,115
-1.05,1.5,113
-0.9,-1.5,74
-0.9,-1.35,74
-0.9,-1.2,70
-0.9,-1.05,64
-0.9,-0.9,58
-0.9,-0.75,61
-0.9,-0.6,62
-0.9,-0.45,78
-0.9,-0.3,92
-0.9,-0.15,112
-0.9,0.0,127
-0.9,0.15,118
-0.9,0.3,117
-0.9,0.45,125
-0.9,0.6,138
-0.9,0.75,136
-0.9,0.9,130
-0.9,1.05,124
-0.9,1.2,120
-0.9,1.35,117
-0.9,1.5,114
-0.75,-1.5,67
-0.75,-1.35,66
-0.75,-1.2,71
-0.75,-1.05,66
-0.75,-0.9,64
-0.75,-0.75,61
-0.75,-0.6,64
-0.75,-0.45,64
-0.75,-0.3,59
-0.75,-0.15,74
-0.75,0.0,95
-0.75,0.15,106
-0.75,0.3,118
-0.75,0.45,147
-0.75,0.6,160
-0.75,0.75,147
-0.75,0.9,132
-0.75,1.05,125
-0.75,1.2,120
-0.75,1.35,116
-0.75,1.5,114
-0.6,-1.5,66
-0.6,-1.35,66
-0.6,-1.2,68
-0.6,-1.05,70
-0.6,-0.9,63
-0.6,-0.75,54
-0.6,-0.6,47
-0.6,-0.45,30
-0.6,-0.3,38
-0.6,-0.15,64
-0.6,0.0,86
-0.6,0.15,112
-0.6,0.3,121
-0.6,0.45,171
-0.6,0.6,206
-0.6,0.75,160
-0.6,0.9,134
-0.6,1.05,123
-0.6,1.2,118
-0.6,1.35,115
-0.6,1.5,113
-0.45,-1.5,59
-0.45,-1.35,64
-0.45,-1.2,67
-0.45,-1.05,68
-0.45,-0.9,63
-0.45,-0.75,52
-0.45,-0.6,45
-0.45,-0.45,0
-0.45,-0.3,16
-0.45,-0.15,44
-0.45,0.0,67
-0.45,0.15,205
-0.45,0.3,120
-0.45,0.45,135
-0.45,0.6,165
-0.45,0.75,135
-0.45,0.9,119
-0.45,1.05,111
-0.45,1.2,106
-0.45,1.35,103
-0.45,1.5,102
-0.3,-1.5,61
-0.3,-1.35,67
-0.3,-1.2,75
-0.3,-1.05,85
-0.3,-0.9,92
-0.3,-0.75,77
-0.3,-0.6,56
-0.3,-0.45,30
-0.3,-0.3,24
-0.3,-0.15,16
-0.3,0.0,49
-0.3,0.15,76
-0.3,0.3,78
-0.3,0.45,78
-0.3,0.6,83
-0.3,0.75,104
-0.3,0.9,108
-0.3,1.05,107
-0.3,1.2,107
-0.3,1.35,104
-0.3,1.5,102
-0.15,-1.5,73
-0.15,-1.35,69
-0.15,-1.2,82
-0.15,-1.05,115
-0.15,-0.9,159
-0.15,-0.75,153
-0.15,-0.6,75
-0.15,-0.45,40
-0.15,-0.3,30
-0.15,-0.15,16
-0.15,0.0,43
-0.15,0.15,0
-0.15,0.3,50
-0.15,0.45,66
-0.15,0.6,72
-0.15,0.75,104
-0.15,0.9,109
-0.15,1.05,107
-0.15,1.2,105
-0.15,1.35,103
-0.15,1.5,98
0.0,-1.5,71
0.0,-1.35,78
0.0,-1.2,87
0.0,-1.05,112
0.0,-0.9,170
0.0,-0.75,172
0.0,-0.6,71
0.0,-0.45,37
0.0,-0.3,41
0.0,-0.15,42
0.0,0.0,51
0.0,0.15,45
0.0,0.3,53
0.0,0.45,100
0.0,0.6,173
0.0,0.75,136
0.0,0.9,116
0.0,1.05,106
0.0,1.2,101
0.0,1.35,98
0.0,1.5,95
0.15,-1.5,68
0.15,-1.35,71
0.15,-1.2,75
0.15,-1.05,84
0.15,-0.9,97
0.15,-0.75,84
0.15,-0.6,55
0.15,-0.45,8
0.15,-0.3,51
0.15,-0.15,60
0.15,0.0,64
0.15,0.15,55
0.15,0.3,57
0.15,0.45,108
0.15,0.6,185
0.15,0.75,140
0.15,0.9,108
0.15,1.05,95
0.15,1.2,91
0.15,1.35,91
0.15,1.5,92
0.3,-1.5,63
0.3,-1.35,63
0.3,-1.2,64
0.3,-1.05,68
0.3,-0.9,60
0.3,-0.75,51
0.3,-0.6,52
0.3,-0.45,54
0.3,-0.3,77
0.3,-0.15,113
0.3,0.0,108
0.3,0.15,74
0.3,0.3,70
0.3,0.45,90
0.3,0.6,100
0.3,0.75,98
0.3,0.9,86
0.3,1.05,97
0.3,1.2,93
0.3,1.35,91
0.3,1.5,91
0.45,-1.5,58
0.45,-1.35,63
0.45,-1.2,60
0.45,-1.05,56
0.45,-0.9,49
0.45,-0.75,41
0.45,-0.6,56
0.45,-0.45,65
0.45,-0.3,64
0.45,-0.15,122
0.45,0.0,165
0.45,0.15,80
0.45,0.3,74
0.45,0.45,72
0.45,0.6,77
0.45,0.75,84
0.45,0.9,85
0.45,1.05,84
0.45,1.2,82
0.45,1.35,91
0.45,1.5,91
0.6,-1.5,51
0.6,-1.35,58
0.6,-1.2,54
0.6,-1.05,49
0.6,-0.9,38
0.6,-0.75,7
0.6,-0.6,43
0.6,-0.45,190
0.6,-0.3,168
0.6,-0.15,201
0.6,0.0,69
0.6,0.15,61
0.6,0.3,66
0.6,0.45,61
0.6,0.6,64
0.6,0.75,71
0.6,0.9,76
0.6,1.05,78
0.6,1.2,79
0.6,1.35,75
0.6,1.5,70
0.75,-1.5,48
0.75,-1.35,47
0.75,-1.2,47
0.75,-1.05,48
0.75,-0.9,36
0.75,-0.75,3
0.75,-0.6,50
0.75,-0.45,94
0.75,-0.3,84
0.75,-0.15,148
0.75,0.0,87
0.75,0.15,60
0.75,0.3,42
0.75,0.45,46
0.75,0.6,60
0.75,0.75,69
0.75,0.9,71
0.75,1.05,71
0.75,1.2,67
0.75,1.35,66
0.75,1.5,65
0.9,-1.5,48
0.9,-1.35,47
0.9,-1.2,47
0.9,-1.05,48
0.9,-0.9,40
0.9,-0.75,22
0.9,-0.6,45
0.9,-0.45,56
0.9,-0.3,97
0.9,-0.15,25
0.9,0.0,87
0.9,0.15,71
0.9,0.3,117
0.9,0.45,53
0.9,0.6,61
0.9,0.75,63
0.9,0.9,66
0.9,1.05,63
0.9,1.2,62
0.9,1.35,61
0.9,1.5,60
1.05,-1.5,48
1.05,-1.35,47
1.05,-1.2,46
1.05,-1.05,43
1.05,-0.9,39
1.05,-0.75,36
1.05,-0.6,41
1.05,-0.45,41
1.05,-0.3,94
1.05,-0.15,33
1.05,0.0,44
1.05,0.15,68
1.05,0.3,138
1.05,0.45,90
1.05,0.6,67
1.05,0.75,58
1.05,0.9,53
1.05,1.05,49
1.05,1.2,47
1.05,1.35,45
1.05,1.5,55
1.2,-1.5,48
1.2,-1.35,47
1.2,-1.2,36
1.2,-1.05,32
1.2,-0.9,29
1.2,-0.75,31
1.2,-0.6,28
1.2,-0.45,38
1.2,-0.3,28
1.2,-0.15,21
1.2,0.0,21
1.2,0.15,42
1.2,0.3,53
1.2,0.45,68
1.2,0.6,58
1.2,0.75,51
1.2,0.9,45
1.2,1.05,41
1.2,1.2,42
1.2,1.35,42
1.2,1.5,42
1.35,-1.5,28
1.35,-1.35,28
1.35,-1.2,27
1.35,-1.05,27
1.35,-0.9,31
1.35,-0.75,22
1.35,-0.6,13
1.35,-0.45,26
1.35,-0.3,10
1.35,-0.15,21
1.35,0.0,21
1.35,0.15,49
1.35,0.3,49
1.35,0.45,52
1.35,0.6,47
1.35,0.75,40
1.35,0.9,35
1.35,1.05,33
1.35,1.2,34
1.35,1.35,35
1.35,1.5,36
1.5,-1.5,28
1.5,-1.35,41
1.5,-1.2,40
1.5,-1.05,39
1.5,-0.9,27
1.5,-0.75,17
1.5,-0.6,0
1.5,-0.45,26
1.5,-0.3,34
1.5,-0.15,48
1.5,0.0,36
1.5,0.15,39
1.5,0.3,49
1.5,0.45,48
1.5,0.6,43
1.5,0.75,28
1.5,0.9,22
1.5,1.05,23
1.5,1.2,27
1.5,1.35,31
1.5,1.5,34
1.65,-1.5,42
1.65,-1.35,42
1.65,-1.2,40
1.65,-1.05,42
1.65,-0.9,43
1.65,-0.75,38
1.65,-0.6,34
1.65,-0.45,44
1.65,-0.3,47
1.65,-0.15,47
1.65,0.0,57
1.65,0.15,51
1.65,0.3,42
1.65,0.45,40
1.65,0.6,26
1.65,0.75,4
1.65,0.9,2
1.65,1.05,11
1.65,1.2,19
1.65,1.35,24
1.65,1.5,26
1.8,-1.5,43
1.8,-1.35,44
1.8,-1.2,44
1.8,-1.05,44
1.8,-0.9,49
1.8,-0.75,46
1.8,-0.6,48
1.8,-0.45,55
1.8,-0.3,34
1.8,-0.15,54
1.8,0.0,69
1.8,0.15,45
1.8,0.3,41
1.8,0.45,38
1.8,0.6,21
1.8,0.75,3
1.8,0.9,0
1.8,1.05,11
1.8,1.2,25
1.8,1.35,31
1.8,1.5,34
1.95,-1.5,50
1.95,-1.35,43
1.95,-1.2,44
1.95,-1.05,49
1.95,-0.9,45
1.95,-0.75,42
1.95,-0.6,32
1.95,-0.45,106
1.95,-0.3,127
1.95,-0.15,105
1.95,0.0,0
1.95,0.15,26
1.95,0.3,3
1.95,0.45,26
1.95,0.6,24
1.95,0.75,20
1.95,0.9,13
1.95,1.05,27
1.95,1.2,36
1.95,1.35,37
1.95,1.5,38
2.1,-1.5,50
2.1,-1.35,49
2.1,-1.2,49
2.1,-1.05,46
2.1,-0.9,50
2.1,-0.75,45
2.1,-0.6,25
2.1,-0.45,68
2.1,-0.3,78
2.1,-0.15,21
2.1,0.0,32
2.1,0.15,28
2.1,0.3,48
2.1,0.45,39
2.1,0.6,31
2.1,0.75,33
2.1,0.9,37
2.1,1.05,46
2.1,1.2,46
2.1,1.35,43
2.1,1.5,43
2.25,-1.5,49
2.25,-1.35,50
2.25,-1.2,50
2.25,-1.05,47
2.25,-0.9,47
2.25,-0.75,50
2.25,-0.6,50
2.25,-0.45,47
2.25,-0.3,90
2.25,-0.15,55
2.25,0.0,60
2.25,0.15,64
2.25,0.3,58
2.25,0.45,37
2.25,0.6,10
2.25,0.75,40
2.25,0.9,45
2.25,1.05,49
2.25,1.2,47
2.25,1.35,45
2.25,1.5,45
2.4,-1.5,50
2.4,-1.35,49
2.4,-1.2,47
2.4,-1.05,47
2.4,-0.9,47
2.4,-0.75,47
2.4,-0.6,49
2.4,-0.45,50
2.4,-0.3,53
2.4,-0.15,60
2.4,0.0,89
2.4,0.15,86
2.4,0.3,76
2.4,0.45,64
2.4,0.6,57
2.4,0.75,58
2.4,0.9,52
2.4,1.05,48
2.4,1.2,47
2.4,1.35,46
2.4,1.5,45
2.55,-1.5,52
2.55,-1.35,51
2.55,-1.2,49
2.55,-1.05,48
2.55,-0.9,54
2.55,-0.75,56
2.55,-0.6,63
2.55,-0.45,83
2.55,-0.3,62
2.55,-0.15,55
2.55,0.0,60
2.55,0.15,62
2.55,0.3,75
2.55,0.45,162
2.55,0.6,122
2.55,0.75,71
2.55,0.9,59
2.55,1.05,53
2.55,1.2,49
2.55,1.35,48
2.55,1.5,47
2.7,-1.5,76
2.7,-1.35,71
2.7,-1.2,65
2.7,-1.05,56
2.7,-0.9,47
2.7,-0.75,47
2.7,-0.6,41
2.7,-0.45,87
2.7,-0.3,65
2.7,-0.15,61
2.7,0.0,29
2.7,0.15,24
2.7,0.3,48
2.7,0.45,76
2.7,0.6,66
2.7,0.75,56
2.7,0.9,56
2.7,1.05,56
2.7,1.2,50
2.7,1.35,49
2.7,1.5,48
2.85,-1.5,68
2.85,-1.35,68
2.85,-1.2,66
2.85,-1.05,53
2.85,-0.9,0
2.85,-0.75,48
2.85,-0.6,10
2.85,-0.45,112
2.85,-0.3,108
2.85,-0.15,55
2.85,0.0,45
2.85,0.15,45
2.85,0.3,45
2.85,0.45,34
2.85,0.6,55
2.85,0.75,53
2.85,0.9,55
2.85,1.05,52
2.85,1.2,52
2.85,1.35,51
2.85,1.5,48
3.0,-1.5,71
3.0,-1.35,72
3.0,-1.2,80
3.0,-1.05,111
3.0,-0.9,173
3.0,-0.75,55
3.0,-0.6,67
3.0,-0.45,50
3.0,-0.3,74
3.0,-0.15,64
3.0,0.0,59
3.0,0.15,76
3.0,0.3,76
3.0,0.45,49
3.0,0.6,51
3.0,0.75,52
3.0,0.9,53
3.0,1.05,54
3.0,1.2,49
3.0,1.35,49
3.0,1.5,48
3.15,-1.5,71
3.15,-1.35,75
3.15,-1.2,81
3.15,-1.05,91
3.15,-0.9,64
3.15,-0.75,82
3.15,-0.6,189
3.15,-0.45,119
3.15,-0.3,65
3.15,-0.15,88
3.15,0.0,83
3.15,0.15,63
3.15,0.3,61
3.15,0.45,47
3.15,0.6,48
3.15,0.75,45
3.15,0.9,46
3.15,1.05,47
3.15,1.2,49
3.15,1.35,48
3.15,1.5,48
3.3,-1.5,73
3.3,-1.35,75
3.3,-1.2,79
3.3,-1.05,74
3.3,-0.9,65
3.3,-0.75,81
3.3,-0.6,67
3.3,-0.45,109
3.3,-0.3,95
3.3,-0.15,78
3.3,0.0,154
3.3,0.15,80
3.3,0.3,55
3.3,0.45,38
3.3,0.6,13
3.3,0.75,29
3.3,0.9,37
3.3,1.05,38
3.3,1.2,51
3.3,1.35,53
3.3,1.5,55
3.45,-1.5,73
3.45,-1.35,73
3.45,-1.2,73
3.45,-1.05,74
3.45,-0.9,70
3.45,-0.75,65
3.45,-0.6,69
3.45,-0.45,73
3.45,-0.3,53
3.45,-0.15,32
3.45,0.0,95
3.45,0.15,76
3.45,0.3,58
3.45,0.45,44
3.45,0.6,8
3.45,0.75,42
3.45,0.9,48
3.45,1.05,52
3.45,1.2,52
3.45,1.35,55
3.45,1.5,57
3.6,-1.5,69
3.6,-1.35,60
3.6,-1.2,59
3.6,-1.05,71
3.6,-0.9,60
3.6,-0.75,66
3.6,-0.6,57
3.6,-0.45,12
3.6,-0.3,40
3.6,-0.15,110
3.6,0.0,143
3.6,0.15,77
3.6,0.3,66
3.6,0.45,39
3.6,0.6,23
3.6,0.75,44
3.6,0.9,51
3.6,1.05,57
3.6,1.2,62
3.6,1.35,65
3.6,1.5,66
3.75,-1.5,69
3.75,-1.35,69
3.75,-1.2,66
3.75,-1.05,57
3.75,-0.9,58
3.75,-0.75,69
3.75,-0.6,87
3.75,-0.45,255
3.75,-0.3,11
3.75,-0.15,64
3.75,0.0,65
3.75,0.15,56
3.75,0.3,74
3.75,0.45,37
3.75,0.6,15
3.75,0.75,53
3.75,0.9,63
3.75,1.05,65
3.75,1.2,79
3.75,1.35,85
3.75,1.5,87
3.9,-1.5,65
3.9,-1.35,53
3.9,-1.2,53
3.9,-1.05,53
3.9,-0.9,49
3.9,-0.75,67
3.9,-0.6,75
3.9,-0.45,75
3.9,-0.3,51
3.9,-0.15,50
3.9,0.0,31
3.9,0.15,32
3.9,0.3,89
3.9,0.45,123
3.9,0.6,103
3.9,0.75,97
3.9,0.9,96
3.9,1.05,92
3.9,1.2,90
3.9,1.35,103
3.9,1.5,105
4.05,-1.5,59
4.05,-1.35,65
4.05,-1.2,54
4.05,-1.05,53
4.05,-0.9,72
4.05,-0.75,91
4.05,-0.6,87
4.05,-0.45,51
4.05,-0.3,91
4.05,-0.15,102
4.05,0.0,40
4.05,0.15,23
4.05,0.3,97
4.05,0.45,163
4.05,0.6,201
4.05,0.75,150
4.05,0.9,114
4.05,1.05,112
4.05,1.2,121
4.05,1.35,122
4.05,1.5,123
4.2,-1.5,59
4.2,-1.35,58
4.2,-1.2,57
4.2,-1.05,59
4.2,-0.9,66
4.2,-0.75,93
4.2,-0.6,88
4.2,-0.45,88
4.2,-0.3,216
4.2,-0.15,78
4.2,0.0,0
4.2,0.15,43
4.2,0.3,82
4.2,0.45,108
4.2,0.6,143
4.2,0.75,131
4.2,0.9,124
4.2,1.05,132
4.2,1.2,133
4.2,1.35,134
4.2,1.5,134
4.35,-1.5,61
4.35,-1.35,61
4.35,-1.2,61
4.35,-1.05,63
4.35,-0.9,72
4.35,-0.75,100
4.35,-0.6,124
4.35,-0.45,78
4.35,-0.3,53
4.35,-0.15,13
4.35,0.0,107
4.35,0.15,76
4.35,0.3,58
4.35,0.45,86
4.35,0.6,51
4.35,0.75,109
4.35,0.9,129
4.35,1.05,136
4.35,1.2,136
4.35,1.35,136
4.35,1.5,120
4.5,-1.5,55
4.5,-1.35,57
4.5,-1.2,54
4.5,-1.05,48
4.5,-0.9,45
4.5,-0.75,89
4.5,-0.6,157
4.5,-0.45,133
4.5,-0.3,185
4.5,-0.15,170
4.5,0.0,126
4.5,0.15,126
4.5,0.3,74
4.5,0.45,119
4.5,0.6,49
4.5,0.75,129
4.5,0.9,137
4.5,1.05,132
4.5,1.2,127
4.5,1.35,126
4.5,1.5,124
4.65,-1.5,57
4.65,-1.35,55
4.65,-1.2,49
4.65,-1.05,31
4.65,-0.9,0
4.65,-0.75,54
4.65,-0.6,74
4.65,-0.45,109
4.65,-0.3,205
4.65,-0.15,81
4.65,0.0,122
4.65,0.15,145
4.65,0.3,161
4.65,0.45,165
4.65,0.6,254
4.65,0.75,214
4.65,0.9,143
4.65,1.05,142
4.65,1.2,143
4.65,1.35,131
4.65,1.5,134
4.8,-1.5,53
4.8,-1.35,51
4.8,-1.2,55
4.8,-1.05,46
4.8,-0.9,45
4.8,-0.75,62
4.8,-0.6,78
4.8,-0.45,77
4.8,-0.3,36
4.8,-0.15,35
4.8,0.0,41
4.8,0.15,58
4.8,0.3,127
4.8,0.45,38
4.8,0.6,100
4.8,0.75,129
4.8,0.9,128
4.8,1.05,155
4.8,1.2,157
4.8,1.35,142
4.8,1.5,131
4.95,-1.5,43
4.95,-1.35,48
4.95,-1.2,48
4.95,-1.05,48
4.95,-0.9,47
4.95,-0.75,55
4.95,-0.6,72
4.95,-0.45,109
4.95,-0.3,94
4.95,-0.15,106
4.95,0.0,35
4.95,0.15,23
4.95,0.3,47
4.95,0.45,12
4.95,0.6,50
4.95,0.75,85
4.95,0.9,116
4.95,1.05,195
4.95,1.2,199
4.95,1.35,159
4.95,1.5,142
5.1,-1.5,43
5.1,-1.35,48
5.1,-1.2,47
5.1,-1.05,48
5.1,-0.9,48
5.1,-0.75,41
5.1,-0.6,29
5.1,-0.45,81
5.1,-0.3,255
5.1,-0.15,41
5.1,0.0,43
5.1,0.15,66
5.1,0.3,85
5.1,0.45,32
5.1,0.6,75
5.1,0.75,59
5.1,0.9,92
5.1,1.05,160
5.1,1.2,176
5.1,1.35,156
5.1,1.5,145
5.25,-1.5,24
5.25,-1.35,26
5.25,-1.2,30
5.25,-1.05,32
5.25,-0.9,38
5.25,-0.75,29
5.25,-0.6,37
5.25,-0.45,108
5.25,-0.3,115
5.25,-0.15,54
5.25,0.0,70
5.25,0.15,92
5.25,0.3,123
5.25,0.45,217
5.25,0.6,111
5.25,0.75,11
5.25,0.9,46
5.25,1.05,99
5.25,1.2,121
5.25,1.35,136
5.25,1.5,146
5.4,-1.5,11
5.4,-1.35,12
5.4,-1.2,12
5.4,-1.05,10
5.4,-0.9,18
5.4,-0.75,11
5.4,-0.6,1
5.4,-0.45,24
5.4,-0.3,35
5.4,-0.15,77
5.4,0.0,62
5.4,0.15,37
5.4,0.3,0
5.4,0.45,118
5.4,0.6,102
5.4,0.75,75
5.4,0.9,100
5.4,1.05,106
5.4,1.2,116
5.4,1.35,121
5.4,1.5,121
5.55,-1.5,9
5.55,-1.35,8
5.55,-1.2,7
5.55,-1.05,4
5.55,-0.9,2
5.55,-0.75,0
5.55,-0.6,4
5.55,-0.45,33
5.55,-0.3,68
5.55,-0.15,155
5.55,0.0,164
5.55,0.15,49
5.55,0.3,34
5.55,0.45,33
5.55,0.6,90
5.55,0.75,205
5.55,0.9,134
5.55,1.05,105
5.55,1.2,101
5.55,1.35,100
5.55,1.5,100
5.7,-1.5,12
5.7,-1.35,10
5.7,-1.2,8
5.7,-1.05,9
5.7,-0.9,6
5.7,-0.75,4
5.7,-0.6,0
5.7,-0.45,25
5.7,-0.3,80
5.7,-0.15,49
5.7,0.0,69
5.7,0.15,53
5.7,0.3,29
5.7,0.45,11
5.7,0.6,48
5.7,0.75,89
5.7,0.9,94
5.7,1.05,93
5.7,1.2,86
5.7,1.35,97
5.7,1.5,96
5.85,-1.5,12
5.85,-1.35,17
5.85,-1.2,13
5.85,-1.05,11
5.85,-0.9,5
5.85,-0.75,0
5.85,-0.6,31
5.85,-0.45,75
5.85,-0.3,58
5.85,-0.15,55
5.85,0.0,45
5.85,0.15,63
5.85,0.3,47
5.85,0.45,28
5.85,0.6,23
5.85,0.75,65
5.85,0.9,94
5.85,1.05,98
5.85,1.2,92
5.85,1.35,85
5.85,1.5,83
6.0,-1.5,30
6.0,-1.35,29
6.0,-1.2,33
6.0,-1.05,29
6.0,-0.9,14
6.0,-0.75,10
6.0,-0.6,27
6.0,-0.45,0
6.0,-0.3,36
6.0,-0.15,13
6.0,0.0,54
6.0,0.15,223
6.0,0.3,66
6.0,0.45,18
6.0,0.6,18
6.0,0.75,52
6.0,0.9,140
6.0,1.05,119
6.0,1.2,82
6.0,1.35,73
6.0,1.5,73
6.15,-1.5,37
6.15,-1.35,36
6.15,-1.2,36
6.15,-1.05,37
6.15,-0.9,36
6.15,-0.75,29
6.15,-0.6,32
6.15,-0.45,33
6.15,-0.3,48
6.15,-0.15,52
6.15,0.0,103
6.15,0.15,136
6.15,0.3,20
6.15,0.45,18
6.15,0.6,19
6.15,0.75,65
6.15,0.9,125
6.15,1.05,43
6.15,1.2,68
6.15,1.35,77
6.15,1.5,77
6.3,-1.5,60
6.3,-1.35,40
6.3,-1.2,42
6.3,-1.05,44
6.3,-0.9,49
6.3,-0.75,52
6.3,-0.6,160
6.3,-0.45,133
6.3,-0.3,44
6.3,-0.15,2
6.3,0.0,94
6.3,0.15,127
6.3,0.3,54
6.3,0.45,2
6.3,0.6,31
6.3,0.75,63
6.3,0.9,52
6.3,1.05,32
6.3,1.2,56
6.3,1.35,66
6.3,1.5,68
6.45,-1.5,69
6.45,-1.35,67
6.45,-1.2,62
6.45,-1.05,71
6.45,-0.9,72
6.45,-0.75,95
6.45,-0.6,153
6.45,-0.45,181
6.45,-0.3,136
6.45,-0.15,74
6.45,0.0,26
6.45,0.15,94
6.45,0.3,44
6.45,0.45,20
6.45,0.6,29
6.45,0.75,51
6.45,0.9,61
6.45,1.05,61
6.45,1.2,63
6.45,1.35,66
6.45,1.5,68
6.6,-1.5,88
6.6,-1.35,87
6.6,-1.2,85
6.6,-1.05,87
6.6,-0.9,82
6.6,-0.75,74
6.6,-0.6,59
6.6,-0.45,63
6.6,-0.3,38
6.6,-0.15,144
6.6,0.0,126
6.6,0.15,85
6.6,0.3,62
6.6,0.45,20
6.6,0.6,20
6.6,0.75,61
6.6,0.9,75
6.6,1.05,72
6.6,1.2,71
6.6,1.35,70
6.6,1.5,71
6.75,-1.5,100
6.75,-1.35,103
6.75,-1.2,113
6.75,-1.05,113
6.75,-0.9,91
6.75,-0.75,63
6.75,-0.6,15
6.75,-0.45,38
6.75,-0.3,39
6.75,-0.15,64
6.75,0.0,39
6.75,0.15,24
6.75,0.3,29
6.75,0.45,49
6.75,0.6,44
6.75,0.75,172
6.75,0.9,88
6.75,1.05,79
6.75,1.2,76
6.75,1.35,75
6.75,1.5,75
6.9,-1.5,122
6.9,-1.35,129
6.9,-1.2,143
6.9,-1.05,157
6.9,-0.9,161
6.9,-0.75,107
6.9,-0.6,21
6.9,-0.45,15
6.9,-0.3,64
6.9,-0.15,4
6.9,0.0,50
6.9,0.15,31
6.9,0.3,24
6.9,0.45,30
6.9,0.6,60
6.9,0.75,84
6.9,0.9,66
6.9,1.05,73
6.9,1.2,79
6.9,1.35,77
6.9,1.5,89
7.05,-1.5,127
7.05,-1.35,130
7.05,-1.2,146
7.05,-1.05,176
7.05,-0.9,255
7.05,-0.75,179
7.05,-0.6,125
7.05,-0.45,25
7.05,-0.3,58
7.05,-0.15,20
7.05,0.0,63
7.05,0.15,50
7.05,0.3,38
7.05,0.45,0
7.05,0.6,55
7.05,0.75,76
7.05,0.9,83
7.05,1.05,88
7.05,1.2,89
7.05,1.35,90
7.05,1.5,89
7.2,-1.5,121
7.2,-1.35,125
7.2,-1.2,132
7.2,-1.05,137
7.2,-0.9,150
7.2,-0.75,95
7.2,-0.6,48
7.2,-0.45,23
7.2,-0.3,39
7.2,-0.15,16
7.2,0.0,39
7.2,0.15,63
7.2,0.3,50
7.2,0.45,44
7.2,0.6,76
7.2,0.75,69
7.2,0.9,90
7.2,1.05,90
7.2,1.2,92
7.2,1.35,92
7.2,1.5,92
7.35,-1.5,114
7.35,-1.35,114
7.35,-1.2,111
7.35,-1.05,109
7.35,-0.9,85
7.35,-0.75,50
7.35,-0.6,28
7.35,-0.45,66
7.35,-0.3,16
7.35,-0.15,70
7.35,0.0,48
7.35,0.15,16
7.35,0.3,11
7.35,0.45,52
7.35,0.6,49
7.35,0.75,62
7.35,0.9,83
7.35,1.05,83
7.35,1.2,82
7.35,1.35,80
7.35,1.5,90
7.5,-1.5,125
7.5,-1.35,123
7.5,-1.2,119
7.5,-1.05,82
7.5,-0.9,78
7.5,-0.75,80
7.5,-0.6,89
7.5,-0.45,53
7.5,-0.3,9
7.5,-0.15,82
7.5,0.0,31
7.5,0.15,7
7.5,0.3,22
7.5,0.45,49
7.5,0.6,110
7.5,0.75,107
7.5,0.9,75
7.5,1.05,76
7.5,1.2,76
7.5,1.35,76
7.5,1.5,78
7.65,-1.5,109
7.65,-1.35,108
7.65,-1.2,102
7.65,-1.05,80
7.65,-0.9,77
7.65,-0.75,78
7.65,-0.6,23
7.65,-0.45,43
7.65,-0.3,27
7.65,-0.15,34
7.65,0.0,27
7.65,0.15,47
7.65,0.3,70
7.65,0.45,39
7.65,0.6,36
7.65,0.75,47
7.65,0.9,64
7.65,1.05,80
7.65,1.2,85
7.65,1.35,87
7.65,1.5,88
7.8,-1.5,110
7.8,-1.35,103
7.8,-1.2,95
7.8,-1.05,111
7.8,-0.9,104
7.8,-0.75,70
7.8,-0.6,12
7.8,-0.45,6
7.8,-0.3,22
7.8,-0.15,67
7.8,0.0,84
7.8,0.15,79
7.8,0.3,79
7.8,0.45,26
7.8,0.6,3
7.8,0.75,51
7.8,0.9,59
7.8,1.05,66
7.8,1.2,57
7.8,1.35,57
7.8,1.5,57
7.95,-1.5,134
7.95,-1.35,137
7.95,-1.2,142
7.95,-1.05,154
7.95,-0.9,170
7.95,-0.75,146
7.95,-0.6,103
7.95,-0.45,103
7.95,-0.3,15
7.95,-0.15,90
7.95,0.0,2
7.95,0.15,107
7.95,0.3,78
7.95,0.45,84
7.95,0.6,87
7.95,0.75,103
7.95,0.9,81
7.95,1.05,62
7.95,1.2,59
7.95,1.35,58
7.95,1.5,57
8.1,-1.5,119
8.1,-1.35,132
8.1,-1.2,140
8.1,-1.05,159
8.1,-0.9,209
8.1,-0.75,233
8.1,-0.6,77
8.1,-0.45,32
8.1,-0.3,2
8.1,-0.15,96
8.1,0.0,35
8.1,0.15,92
8.1,0.3,57
8.1,0.45,81
8.1,0.6,51
8.1,0.75,86
8.1,0.9,71
8.1,1.05,57
8.1,1.2,54
8.1,1.35,57
8.1,1.5,56
8.25,-1.5,119
8.25,-1.35,131
8.25,-1.2,137
8.25,-1.05,145
8.25,-0.9,152
8.25,-0.75,124
8.25,-0.6,132
8.25,-0.45,76
8.25,-0.3,47
8.25,-0.15,45
8.25,0.0,40
8.25,0.15,38
8.25,0.3,29
8.25,0.45,38
8.25,0.6,1
8.25,0.75,37
8.25,0.9,46
8.25,1.05,50
8.25,1.2,51
8.25,1.35,51
8.25,1.5,54
8.4,-1.5,119
8.4,-1.35,119
8.4,-1.2,111
8.4,-1.05,98
8.4,-0.9,92
8.4,-0.75,60
8.4,-0.6,60
8.4,-0.45,50
8.4,-0.3,109
8.4,-0.15,148
8.4,0.0,133
8.4,0.15,80
8.4,0.3,64
8.4,0.45,126
8.4,0.6,79
8.4,0.75,43
8.4,0.9,42
8.4,1.05,59
8.4,1.2,60
8.4,1.35,62
8.4,1.5,63
8.55,-1.5,176
8.55,-1.35,159
8.55,-1.2,144
8.55,-1.05,137
8.55,-0.9,102
8.55,-0.75,78
8.55,-0.6,53
8.55,-0.45,38
8.55,-0.3,103
8.55,-0.15,23
8.55,0.0,73
8.55,0.15,64
8.55,0.3,101
8.55,0.45,85
8.55,0.6,55
8.55,0.75,60
8.55,0.9,51
8.55,1.05,52
8.55,1.2,52
8.55,1.35,52
8.55,1.5,52
8.7,-1.5,159
8.7,-1.35,159
8.7,-1.2,136
8.7,-1.05,142
8.7,-0.9,149
8.7,-0.75,149
8.7,-0.6,207
8.7,-0.45,131
8.7,-0.3,9
8.7,-0.15,9
8.7,0.0,27
8.7,0.15,147
8.7,0.3,103
8.7,0.45,58
8.7,0.6,27
8.7,0.75,15
8.7,0.9,56
8.7,1.05,75
8.7,1.2,80
8.7,1.35,73
8.7,1.5,73
8.85,-1.5,122
8.85,-1.35,125
8.85,-1.2,129
8.85,-1.05,137
8.85,-0.9,145
8.85,-0.75,148
8.85,-0.6,184
8.85,-0.45,59
8.85,-0.3,38
8.85,-0.15,39
8.85,0.0,2
8.85,0.15,88
8.85,0.3,90
8.85,0.45,47
8.85,0.6,45
8.85,0.75,196
8.85,0.9,96
8.85,1.05,78
8.85,1.2,88
8.85,1.35,88
8.85,1.5,87
9.0,-1.5,121
9.0,-1.35,124
9.0,-1.2,130
9.0,-1.05,141
9.0,-0.9,178
9.0,-0.75,255
9.0,-0.6,37
9.0,-0.45,114
9.0,-0.3,100
9.0,-0.15,35
9.0,0.0,151
9.0,0.15,54
9.0,0.3,62
9.0,0.45,49
9.0,0.6,69
9.0,0.75,45
9.0,0.9,91
9.0,1.05,89
9.0,1.2,86
9.0,1.35,84
9.0,1.5,83
9.15,-1.5,120
9.15,-1.35,107
9.15,-1.2,112
9.15,-1.05,121
9.15,-0.9,132
9.15,-0.75,111
9.15,-0.6,49
9.15,-0.45,66
9.15,-0.3,105
9.15,-0.15,1
9.15,0.0,29
9.15,0.15,54
9.15,0.3,47
9.15,0.45,54
9.15,0.6,58
9.15,0.75,88
9.15,0.9,83
9.15,1.05,76
9.15,1.2,82
9.15,1.35,82
9.15,1.5,82
9.3,-1.5,109
9.3,-1.35,93
9.3,-1.2,71
9.3,-1.05,74
9.3,-0.9,75
9.3,-0.75,63
9.3,-0.6,28
9.3,-0.45,52
9.3,-0.3,53
9.3,-0.15,177
9.3,0.0,50
9.3,0.15,22
9.3,0.3,48
9.3,0.45,59
9.3,0.6,32
9.3,0.75,183
9.3,0.9,67
9.3,1.05,81
9.3,1.2,84
9.3,1.35,84
9.3,1.5,101
9.45,-1.5,66
9.45,-1.35,70
9.45,-1.2,65
9.45,-1.05,66
9.45,-0.9,61
9.45,-0.75,28
9.45,-0.6,35
9.45,-0.45,83
9.45,-0.3,109
9.45,-0.15,49
9.45,0.0,19
9.45,0.15,7
9.45,0.3,60
9.45,0.45,132
9.45,0.6,114
9.45,0.75,100
9.45,0.9,56
9.45,1.05,65
9.45,1.2,68
9.45,1.35,68
9.45,1.5,69
9.6,-1.5,65
9.6,-1.35,70
9.6,-1.2,69
9.6,-1.05,50
9.6,-0.9,48
9.6,-0.75,46
9.6,-0.6,23
9.6,-0.45,69
9.6,-0.3,89
9.6,-0.15,10
9.6,0.0,169
9.6,0.15,41
9.6,0.3,84
9.6,0.45,132
9.6,0.6,83
9.6,0.75,106
9.6,0.9,68
9.6,1.05,75
9.6,1.2,80
9.6,1.35,83
9.6,1.5,85
9.75,-1.5,51
9.75,-1.35,30
9.75,-1.2,30
9.75,-1.05,42
9.75,-0.9,47
9.75,-0.75,51
9.75,-0.6,84
9.75,-0.45,52
9.75,-0.3,124
9.75,-0.15,68
9.75,0.0,3
9.75,0.15,83
9.75,0.3,126
9.75,0.45,184
9.75,0.6,90
9.75,0.75,69
9.75,0.9,41
9.75,1.05,70
9.75,1.2,87
9.75,1.35,95
9.75,1.5,94
9.9,-1.5,39
9.9,-1.35,39
9.9,-1.2,43
9.9,-1.05,43
9.9,-0.9,47
9.9,-0.75,36
9.9,-0.6,30
9.9,-0.45,45
9.9,-0.3,185
9.9,-0.15,195
9.9,0.0,84
9.9,0.15,77
9.9,0.3,131
9.9,0.45,35
9.9,0.6,129
9.9,0.75,114
9.9,0.9,83
9.9,1.05,81
9.9,1.2,82
9.9,1.35,82
9.9,1.5,82
10.05,-1.5,49
10.05,-1.35,49
10.05,-1.2,66
10.05,-1.05,81
10.05,-0.9,80
10.05,-0.75,77
10.05,-0.6,37
10.05,-0.45,164
10.05,-0.3,48
10.05,-0.15,88
10.05,0.0,97
10.05,0.15,108
10.05,0.3,154
10.05,0.45,128
10.05,0.6,97
10.05,0.75,108
10.05,0.9,82
10.05,1.05,75
10.05,1.2,70
10.05,1.35,68
10.05,1.5,68
10.2,-1.5,97
10.2,-1.35,97
10.2,-1.2,101
10.2,-1.05,112
10.2,-0.9,119
10.2,-0.75,126
10.2,-0.6,148
10.2,-0.45,172
10.2,-0.3,95
10.2,-0.15,81
10.2,0.0,60
10.2,0.15,86
10.2,0.3,92
10.2,0.45,85
10.2,0.6,75
10.2,0.75,179
10.2,0.9,77
10.2,1.05,66
10.2,1.2,63
10.2,1.35,70
10.2,1.5,70
10.35,-1.5,128
10.35,-1.35,135
10.35,-1.2,110
10.35,-1.05,108
10.35,-0.9,113
10.35,-0.75,106
10.35,-0.6,134
10.35,-0.45,172
10.35,-0.3,72
10.35,-0.15,50
10.35,0.0,77
10.35,0.15,89
10.35,0.3,65
10.35,0.45,55
10.35,0.6,28
10.35,0.75,29
10.35,0.9,40
10.35,1.05,47
10.35,1.2,56
10.35,1.35,61
10.35,1.5,63
10.5,-1.5,108
10.5,-1.35,108
10.5,-1.2,108
10.5,-1.05,108
10.5,-0.9,118
10.5,-0.75,95
10.5,-0.6,85
10.5,-0.45,121
10.5,-0.3,255
10.5,-0.15,132
10.5,0.0,102
10.5,0.15,83
10.5,0.3,76
10.5,0.45,47
10.5,0.6,27
10.5,0.75,27
10.5,0.9,0
10.5,1.05,36
10.5,1.2,52
10.5,1.35,59
10.5,1.5,62
10.65,-1.5,117
10.65,-1.35,117
10.65,-1.2,126
10.65,-1.05,126
10.65,-0.9,117
10.65,-0.75,115
10.65,-0.6,109
10.65,-0.45,48
10.65,-0.3,70
10.65,-0.15,143
10.65,0.0,133
10.65,0.15,121
10.65,0.3,84
10.65,0.45,60
10.65,0.6,61
10.65,0.75,57
10.65,0.9,44
10.65,1.05,58
10.65,1.2,71
10.65,1.35,78
10.65,1.5,72
10.8,-1.5,119
10.8,-1.35,119
10.8,-1.2,120
10.8,-1.05,121
10.8,-0.9,126
10.8,-0.75,145
10.8,-0.6,213
10.8,-0.45,221
10.8,-0.3,166
10.8,-0.15,121
10.8,0.0,128
10.8,0.15,141
10.8,0.3,111
10.8,0.45,78
10.8,0.6,82
10.8,0.75,115
10.8,0.9,107
10.8,1.05,87
10.8,1.2,84
10.8,1.35,85
10.8,1.5,87
10.95,-1.5,89
10.95,-1.35,90
10.95,-1.2,80
10.95,-1.05,96
10.95,-0.9,107
10.95,-0.75,132
10.95,-0.6,144
10.95,-0.45,133
10.95,-0.3,156
10.95,-0.15,197
10.95,0.0,132
10.95,0.15,117
10.95,0.3,107
10.95,0.45,95
10.95,0.6,75
10.95,0.75,7
10.95,0.9,118
10.95,1.05,96
10.95,1.2,94
10.95,1.35,92
10.95,1.5,92
11.1,-1.5,88
11.1,-1.35,88
11.1,-1.2,92
11.1,-1.05,92
11.1,-0.9,105
11.1,-0.75,103
11.1,-0.6,82
11.1,-0.45,62
11.1,-0.3,92
11.1,-0.15,183
11.1,0.0,114
11.1,0.15,107
11.1,0.3,114
11.1,0.45,108
11.1,0.6,79
11.1,0.75,76
11.1,0.9,77
11.1,1.05,95
11.1,1.2,97
11.1,1.35,95
11.1,1.5,97
11.25,-1.5,88
11.25,-1.35,88
11.25,-1.2,86
11.25,-1.05,89
11.25,-0.9,81
11.25,-0.75,53
11.25,-0.6,34
11.25,-0.45,12
11.25,-0.3,52
11.25,-0.15,56
11.25,0.0,61
11.25,0.15,80
11.25,0.3,103
11.25,0.45,126
11.25,0.6,124
11.25,0.75,207
11.25,0.9,95
11.25,1.05,107
11.25,1.2,106
11.25,1.35,101
11.25,1.5,97
11.4,-1.5,74
11.4,-1.35,72
11.4,-1.2,69
11.4,-1.05,47
11.4,-0.9,39
11.4,-0.75,31
11.4,-0.6,5
11.4,-0.45,22
11.4,-0.3,47
11.4,-0.15,69
11.4,0.0,76
11.4,0.15,84
11.4,0.3,115
11.4,0.45,141
11.4,0.6,186
11.4,0.75,255
11.4,0.9,181
11.4,1.05,134
11.4,1.2,122
11.4,1.35,107
11.4,1.5,102
11.55,-1.5,49
11.55,-1.35,48
11.55,-1.2,48
11.55,-1.05,48
11.55,-0.9,43
11.55,-0.75,44
11.55,-0.6,39
11.55,-0.45,42
11.55,-0.3,55
11.55,-0.15,68
11.55,0.0,108
11.55,0.15,96
11.55,0.3,110
11.55,0.45,120
11.55,0.6,158
11.55,0.75,179
11.55,0.9,164
11.55,1.05,141
11.55,1.2,125
11.55,1.35,113
11.55,1.5,102
11.7,-1.5,62
11.7,-1.35,62
11.7,-1.2,62
11.7,-1.05,47
11.7,-0.9,49
11.7,-0.75,52
11.7,-0.6,59
11.7,-0.45,82
11.7,-0.3,36
11.7,-0.15,64
11.7,0.0,219
11.7,0.15,108
11.7,0.3,112
11.7,0.45,117
11.7,0.6,139
11.7,0.75,148
11.7,0.9,146
11.7,1.05,136
11.7,1.2,123
11.7,1.35,114
11.7,1.5,105
11.85,-1.5,64
11.85,-1.35,64
11.85,-1.2,64
11.85,-1.05,64
11.85,-0.9,65
11.85,-0.75,68
11.85,-0.6,62
11.85,-0.45,55
11.85,-0.3,29
11.85,-0.15,55
11.85,0.0,80
11.85,0.15,89
11.85,0.3,89
11.85,0.45,111
11.85,0.6,120
11.85,0.75,132
11.85,0.9,133
11.85,1.05,127
11.85,1.2,116
11.85,1.35,110
11.85,1.5,104
12.0,-1.5,67
12.0,-1.35,69
12.0,-1.2,73
12.0,-1.05,73
12.0,-0.9,73
12.0,-0.75,72
12.0,-0.6,69
12.0,-0.45,49
12.0,-0.3,47
12.0,-0.15,73
12.0,0.0,92
12.0,0.15,108
12.0,0.3,113
12.0,0.45,120
12.0,0.6,109
12.0,0.75,110
12.0,0.9,119
12.0,1.05,116
12.0,1.2,111
12.0,1.35,107
12.0,1.5,97
12.15,-1.5,45
12.15,-1.35,51
12.15,-1.2,54
12.15,-1.05,55
12.15,-0.9,57
12.15,-0.75,90
12.15,-0.6,93
12.15,-0.45,164
12.15,-0.3,245
12.15,-0.15,96
12.15,0.0,98
12.15,0.15,107
12.15,0.3,99
12.15,0.45,101
12.15,0.6,103
12.15,0.75,100
12.15,0.9,98
12.15,1.05,103
12.15,1.2,99
12.15,1.35,95
12.15,1.5,91
12.3,-1.5,63
12.3,-1.35,48
12.3,-1.2,48
12.3,-1.05,55
12.3,-0.9,71
12.3,-0.75,79
12.3,-0.6,110
12.3,-0.45,74
12.3,-0.3,74
12.3,-0.15,86
12.3,0.0,80
12.3,0.15,78
12.3,0.3,77
12.3,0.45,57
12.3,0.6,57
12.3,0.75,72
12.3,0.9,70
12.3,1.05,70
12.3,1.2,85
12.3,1.35,81
12.3,1.5,77
12.45,-1.5,78
12.45,-1.35,85
12.45,-1.2,89
12.45,-1.05,89
12.45,-0.9,73
12.45,-0.75,71
12.45,-0.6,64
12.45,-0.45,56
12.45,-0.3,60
12.45,-0.15,72
12.45,0.0,59
12.45,0.15,57
12.45,0.3,57
12.45,0.45,60
12.45,0.6,60
12.45,0.75,59
12.45,0.9,55
12.45,1.05,71
12.45,1.2,56
12.45,1.35,51
12.45,1.5,47
12.6,-1.5,72
12.6,-1.35,84
12.6,-1.2,100
12.6,-1.05,112
12.6,-0.9,114
12.6,-0.75,108
12.6,-0.6,80
12.6,-0.45,63
12.6,-0.3,63
12.6,-0.15,75
12.6,0.0,9
12.6,0.15,77
12.6,0.3,88
12.6,0.45,71
12.6,0.6,69
12.6,0.75,62
12.6,0.9,58
12.6,1.05,53
12.6,1.2,59
12.6,1.35,49
12.6,1.5,40
12.75,-1.5,40
12.75,-1.35,60
12.75,-1.2,89
12.75,-1.05,109
12.75,-0.9,122
12.75,-0.75,122
12.75,-0.6,120
12.75,-0.45,177
12.75,-0.3,154
12.75,-0.15,142
12.75,0.0,102
12.75,0.15,92
12.75,0.3,95
12.75,0.45,91
12.75,0.6,79
12.75,0.75,64
12.75,0.9,62
12.75,1.05,59
12.75,1.2,47
12.75,1.35,29
12.75,1.5,18
12.9,-1.5,3
12.9,-1.35,26
12.9,-1.2,68
12.9,-1.05,96
12.9,-0.9,127
12.9,-0.75,137
12.9,-0.6,159
12.9,-0.45,75
12.9,-0.3,35
12.9,-0.15,101
12.9,0.0,96
12.9,0.15,93
12.9,0.3,104
12.9,0.45,94
12.9,0.6,66
12.9,0.75,54
12.9,0.9,54
12.9,1.05,55
12.9,1.2,38
12.9,1.35,11
12.9,1.5,0
13.05,-1.5,0
13.05,-1.35,22
13.05,-1.2,73
13.05,-1.05,110
13.05,-0.9,131
13.05,-0.75,144
13.05,-0.6,181
13.05,-0.45,163
13.05,-0.3,90
13.05,-0.15,91
13.05,0.0,100
13.05,0.15,85
13.05,0.3,94
13.05,0.45,86
13.05,0.6,67
13.05,0.75,54
13.05,0.9,55
13.05,1.05,52
13.05,1.2,34
13.05,1.35,6
13.05,1.5,0
