-3.0,-1.5,0
-3.0,-1.35,0
-3.0,-1.2,17
-3.0,-1.05,42
-3.0,-0.9,64
-3.0,-0.75,84
-3.0,-0.6,100
-3.0,-0.45,119
-3.0,-0.3,133
-3.0,-0.15,150
-3.0,0.0,168
-3.0,0.15,164
-3.0,0.3,99
-3.0,0.45,50
-3.0,0.6,58
-3.0,0.75,60
-3.0,0.9,44
-3.0,1.05,27
-3.0,1.2,14
-3.0,1.35,5
-3.0,1.5,5
-2.85,-1.5,0
-2.85,-1.35,6
-2.85,-1.2,25
-2.85,-1.05,51
-2.85,-0.9,69
-2.85,-0.75,87
-2.85,-0.6,103
-2.85,-0.45,118
-2.85,-0.3,140
-2.85,-0.15,162
-2.85,0.0,193
-2.85,0.15,213
-2.85,0.3,139
-2.85,0.45,66
-2.85,0.6,65
-2.85,0.75,59
-2.85,0.9,36
-2.85,1.05,12
-2.85,1.2,5
-2.85,1.35,5
-2.85,1.5,5
-2.7,-1.5,16
-2.7,-1.35,24
-2.7,-1.2,40
-2.7,-1.05,60
-2.7,-0.9,81
-2.7,-0.75,96
-2.7,-0.6,105
-2.7,-0.45,119
-2.7,-0.3,134
-2.7,-0.15,159
-2.7,0.0,184
-2.7,0.15,195
-2.7,0.3,152
-2.7,0.45,101
-2.7,0.6,79
-2.7,0.75,60
-2.7,0.9,30
-2.7,1.05,0
-2.7,1.2,0
-2.7,1.35,8
-2.7,1.5,11
-2.55,-1.5,37
-2.55,-1.35,45
-2.55,-1.2,58
-2.55,-1.05,72
-2.55,-0.9,89
-2.55,-0.75,101
-2.55,-0.6,112
-2.55,-0.45,122
-2.55,-0.3,128
-2.55,-0.15,145
-2.55,0.0,160
-2.55,0.15,157
-2.55,0.3,135
-2.55,0.45,108
-2.55,0.6,87
-2.55,0.75,66
-2.55,0.9,40
-2.55,1.05,13
-2.55,1.2,6
-2.55,1.35,15
-2.55,1.5,22
-2.4,-1.5,56
-2.4,-1.35,63
-2.4,-1.2,72
-2.4,-1.05,83
-2.4,-0.9,94
-2.4,-0.75,106
-2.4,-0.6,114
-2.4,-0.45,121
-2.4,-0.3,127
-2.4,-0.15,141
-2.4,0.0,140
-2.4,0.15,137
-2.4,0.3,121
-2.4,0.45,106
-2.4,0.6,93
-2.4,0.75,79
-2.4,0.9,62
-2.4,1.05,45
-2.4,1.2,32
-2.4,1.35,35
-2.4,1.5,38
-2.25,-1.5,69
-2.25,-1.35,75
-2.25,-1.2,83
-2.25,-1.05,92
-2.25,-0.9,100
-2.25,-0.75,108
-2.25,-0.6,118
-2.25,-0.45,123
-2.25,-0.3,127
-2.25,-0.15,134
-2.25,0.0,132
-2.25,0.15,125
-2.25,0.3,112
-2.25,0.45,107
-2.25,0.6,99
-2.25,0.75,95
-2.25,0.9,90
-2.25,1.05,74
-2.25,1.2,66
-2.25,1.35,61
-2.25,1.5,57
-2.1,-1.5,91
-2.1,-1.35,86
-2.1,-1.2,92
-2.1,-1.05,100
-2.1,-0.9,108
-2.1,-0.75,116
-2.1,-0.6,124
-2.1,-0.45,131
-2.1,-0.3,131
-2.1,-0.15,126
-2.1,0.0,124
-2.1,0.15,118
-2.1,0.3,106
-2.1,0.45,104
-2.1,0.6,108
-2.1,0.75,114
-2.1,0.9,113
-2.1,1.05,115
-2.1,1.2,104
-2.1,1.35,89
-2.1,1.5,77
-1.95,-1.5,98
-1.95,-1.35,101
-1.95,-1.2,96
-1.95,-1.05,102
-1.95,-0.9,110
-1.95,-0.75,120
-1.95,-0.6,132
-1.95,-0.45,142
-1.95,-0.3,142
-1.95,-0.15,130
-1.95,0.0,113
-1.95,0.15,110
-1.95,0.3,103
-1.95,0.45,100
-1.95,0.6,111
-1.95,0.75,135
-1.95,0.9,158
-1.95,1.05,165
-1.95,1.2,142
-1.95,1.35,113
-1.95,1.5,93
-1.8,-1.5,102
-1.8,-1.35,104
-1.8,-1.2,102
-1.8,-1.05,102
-1.8,-0.9,102
-1.8,-0.75,122
-1.8,-0.6,141
-1.8,-0.45,168
-1.8,-0.3,179
-1.8,-0.15,141
-1.8,0.0,103
-1.8,0.15,90
-1.8,0.3,85
-1.8,0.45,88
-1.8,0.6,100
-1.8,0.75,141
-1.8,0.9,197
-1.8,1.05,207
-1.8,1.2,164
-1.8,1.35,123
-1.8,1.5,96
-1.65,-1.5,105
-1.65,-1.35,106
-1.65,-1.2,107
-1.65,-1.05,105
-1.65,-0.9,105
-1.65,-0.75,117
-1.65,-0.6,144
-1.65,-0.45,206
-1.65,-0.3,255
-1.65,-0.15,171
-1.65,0.0,91
-1.65,0.15,78
-1.65,0.3,74
-1.65,0.45,74
-1.65,0.6,94
-1.65,0.75,127
-1.65,0.9,175
-1.65,1.05,191
-1.65,1.2,158
-1.65,1.35,124
-1.65,1.5,102
-1.5,-1.5,107
-1.5,-1.35,107
-1.5,-1.2,106
-1.5,-1.05,107
-1.5,-0.9,106
-1.5,-0.75,100
-1.5,-0.6,120
-1.5,-0.45,180
-1.5,-0.3,255
-1.5,-0.15,133
-1.5,0.0,59
-1.5,0.15,65
-1.5,0.3,63
-1.5,0.45,68
-1.5,0.6,68
-1.5,0.75,87
-1.5,0.9,118
-1.5,1.05,132
-1.5,1.2,124
-1.5,1.35,109
-1.5,1.5,94
-1.35,-1.5,109
-1.35,-1.35,110
-1.35,-1.2,107
-1.35,-1.05,101
-1.35,-0.9,92
-1.35,-0.75,81
-1.35,-0.6,76
-1.35,-0.45,96
-1.35,-0.3,87
-1.35,-0.15,84
-1.35,0.0,61
-1.35,0.15,59
-1.35,0.3,55
-1.35,0.45,57
-1.35,0.6,55
-1.35,0.75,62
-1.35,0.9,78
-1.35,1.05,92
-1.35,1.2,93
-1.35,1.35,90
-1.35,1.5,100
-1.2,-1.5,121
-1.2,-1.35,119
-1.2,-1.2,113
-1.2,-1.05,99
-1.2,-0.9,87
-1.2,-0.75,65
-1.2,-0.6,49
-1.2,-0.45,69
-1.2,-0.3,54
-1.2,-0.15,76
-1.2,0.0,60
-1.2,0.15,55
-1.2,0.3,80
-1.2,0.45,57
-1.2,0.6,36
-1.2,0.75,44
-1.2,0.9,55
-1.2,1.05,67
-1.2,1.2,86
-1.2,1.35,92
-1.2,1.5,96
-1.05,-1.5,121
-1.05,-1.35,121
-1.05,-1.2,118
-1.05,-1.05,110
-1.05,-0.9,98
-1.05,-0.75,82
-1.05,-0.6,73
-1.05,-0.45,76
-1.05,-0.3,69
-1.05,-0.15,84
-1.05,0.0,67
-1.05,0.15,51
-1.05,0.3,15
-1.05,0.45,15
-1.05,0.6,6
-1.05,0.75,30
-1.05,0.9,44
-1.05,1.05,65
-1.05,1.2,77
-1.05,1.35,86
-1.05,1.5,92
-0.9,-1.5,121
-0.9,-1.35,120
-0.9,-1.2,118
-0.9,-1.05,122
-0.9,-0.9,115
-0.9,-0.75,106
-0.9,-0.6,100
-0.9,-0.45,96
-0.9,-0.3,82
-0.9,-0.15,81
-0.9,0.0,86
-0.9,0.15,135
-0.9,0.3,81
-0.9,0.45,27
-0.9,0.6,4
-0.9,0.75,24
-0.9,0.9,48
-0.9,1.05,63
-0.9,1.2,76
-0.9,1.35,85
-0.9,1.5,92
-0.75,-1.5,139
-0.75,-1.35,140
-0.75,-1.2,135
-0.75,-1.05,138
-0.75,-0.9,138
-0.75,-0.75,144
-0.75,-0.6,115
-0.75,-0.45,106
-0.75,-0.3,99
-0.75,-0.15,84
-0.75,0.0,93
-0.75,0.15,57
-0.75,0.3,89
-0.75,0.45,37
-0.75,0.6,9
-0.75,0.75,29
-0.75,0.9,48
-0.75,1.05,69
-0.75,1.2,81
-0.75,1.35,87
-0.75,1.5,92
-0.6,-1.5,140
-0.6,-1.35,144
-0.6,-1.2,149
-0.6,-1.05,144
-0.6,-0.9,154
-0.6,-0.75,172
-0.6,-0.6,170
-0.6,-0.45,148
-0.6,-0.3,127
-0.6,-0.15,115
-0.6,0.0,95
-0.6,0.15,79
-0.6,0.3,71
-0.6,0.45,55
-0.6,0.6,41
-0.6,0.75,48
-0.6,0.9,60
-0.6,1.05,73
-0.6,1.2,82
-0.6,1.35,87
-0.6,1.5,99
-0.45,-1.5,131
-0.45,-1.35,134
-0.45,-1.2,145
-0.45,-1.05,161
-0.45,-0.9,189
-0.45,-0.75,231
-0.45,-0.6,245
-0.45,-0.45,187
-0.45,-0.3,136
-0.45,-0.15,124
-0.45,0.0,121
-0.45,0.15,82
-0.45,0.3,63
-0.45,0.45,62
-0.45,0.6,65
-0.45,0.75,73
-0.45,0.9,75
-0.45,1.05,95
-0.45,1.2,102
-0.45,1.35,104
-0.45,1.5,98
-0.3,-1.5,131
-0.3,-1.35,134
-0.3,-1.2,146
-0.3,-1.05,165
-0.3,-0.9,204
-0.3,-0.75,255
-0.3,-0.6,255
-0.3,-0.45,207
-0.3,-0.3,133
-0.3,-0.15,122
-0.3,0.0,211
-0.3,0.15,68
-0.3,0.3,59
-0.3,0.45,63
-0.3,0.6,75
-0.3,0.75,80
-0.3,0.9,94
-0.3,1.05,124
-0.3,1.2,131
-0.3,1.35,123
-0.3,1.5,111
-0.15,-1.5,131
-0.15,-1.35,137
-0.15,-1.2,146
-0.15,-1.05,158
-0.15,-0.9,182
-0.15,-0.75,220
-0.15,-0.6,233
-0.15,-0.45,158
-0.15,-0.3,115
-0.15,-0.15,120
-0.15,0.0,76
-0.15,0.15,59
-0.15,0.3,63
-0.15,0.45,59
-0.15,0.6,68
-0.15,0.75,89
-0.15,0.9,136
-0.15,1.05,185
-0.15,1.2,176
-0.15,1.35,145
-0.15,1.5,123
0.0,-1.5,115
0.0,-1.35,130
0.0,-1.2,135
0.0,-1.05,139
0.0,-0.9,147
0.0,-0.75,153
0.0,-0.6,141
0.0,-0.45,109
0.0,-0.3,72
0.0,-0.15,105
0.0,0.0,99
0.0,0.15,69
0.0,0.3,57
0.0,0.45,47
0.0,0.6,59
0.0,0.75,85
0.0,0.9,158
0.0,1.05,255
0.0,1.2,224
0.0,1.35,160
0.0,1.5,135
0.15,-1.5,104
0.15,-1.35,107
0.15,-1.2,113
0.15,-1.05,115
0.15,-0.9,116
0.15,-0.75,112
0.15,-0.6,108
0.15,-0.45,88
0.15,-0.3,68
0.15,-0.15,73
0.15,0.0,77
0.15,0.15,66
0.15,0.3,51
0.15,0.45,42
0.15,0.6,58
0.15,0.75,57
0.15,0.9,76
0.15,1.05,235
0.15,1.2,197
0.15,1.35,152
0.15,1.5,135
0.3,-1.5,86
0.3,-1.35,88
0.3,-1.2,98
0.3,-1.05,98
0.3,-0.9,97
0.3,-0.75,96
0.3,-0.6,93
0.3,-0.45,85
0.3,-0.3,68
0.3,-0.15,76
0.3,0.0,80
0.3,0.15,79
0.3,0.3,10
0.3,0.45,34
0.3,0.6,50
0.3,0.75,27
0.3,0.9,48
0.3,1.05,103
0.3,1.2,130
0.3,1.35,128
0.3,1.5,122
0.45,-1.5,76
0.45,-1.35,76
0.45,-1.2,79
0.45,-1.05,79
0.45,-0.9,79
0.45,-0.75,83
0.45,-0.6,96
0.45,-0.45,82
0.45,-0.3,54
0.45,-0.15,61
0.45,0.0,74
0.45,0.15,97
0.45,0.3,46
0.45,0.45,49
0.45,0.6,56
0.45,0.75,45
0.45,0.9,54
0.45,1.05,82
0.45,1.2,100
0.45,1.35,108
0.45,1.5,110
0.6,-1.5,70
0.6,-1.35,69
0.6,-1.2,68
0.6,-1.05,56
0.6,-0.9,59
0.6,-0.75,63
0.6,-0.6,70
0.6,-0.45,61
0.6,-0.3,53
0.6,-0.15,53
0.6,0.0,48
0.6,0.15,59
0.6,0.3,58
0.6,0.45,57
0.6,0.6,72
0.6,0.75,164
0.6,0.9,97
0.6,1.05,82
0.6,1.2,90
0.6,1.35,98
0.6,1.5,102
0.75,-1.5,48
0.75,-1.35,48
0.75,-1.2,49
0.75,-1.05,49
0.75,-0.9,50
0.75,-0.75,51
0.75,-0.6,51
0.75,-0.45,49
0.75,-0.3,48
0.75,-0.15,41
0.75,0.0,0
0.75,0.15,49
0.75,0.3,87
0.75,0.45,89
0.75,0.6,65
0.75,0.75,153
0.75,0.9,75
0.75,1.05,62
0.75,1.2,84
0.75,1.35,97
0.75,1.5,102
0.9,-1.5,47
0.9,-1.35,47
0.9,-1.2,46
0.9,-1.05,46
0.9,-0.9,45
0.9,-0.75,43
0.9,-0.6,43
0.9,-0.45,45
0.9,-0.3,44
0.9,-0.15,40
0.9,0.0,38
0.9,0.15,38
0.9,0.3,98
0.9,0.45,104
0.9,0.6,123
0.9,0.75,127
0.9,0.9,88
0.9,1.05,79
0.9,1.2,90
0.9,1.35,97
0.9,1.5,101
1.05,-1.5,46
1.05,-1.35,46
1.05,-1.2,45
1.05,-1.05,44
1.05,-0.9,41
1.05,-0.75,34
1.05,-0.6,27
1.05,-0.45,43
1.05,-0.3,42
1.05,-0.15,39
1.05,0.0,38
1.05,0.15,8
1.05,0.3,32
1.05,0.45,101
1.05,0.6,187
1.05,0.75,146
1.05,0.9,104
1.05,1.05,89
1.05,1.2,85
1.05,1.35,99
1.05,1.5,101
1.2,-1.5,46
1.2,-1.35,45
1.2,-1.2,42
1.2,-1.05,41
1.2,-0.9,40
1.2,-0.75,36
1.2,-0.6,11
1.2,-0.45,27
1.2,-0.3,40
1.2,-0.15,44
1.2,0.0,21
1.2,0.15,23
1.2,0.3,40
1.2,0.45,74
1.2,0.6,95
1.2,0.75,98
1.2,0.9,97
1.2,1.05,98
1.2,1.2,86
1.2,1.35,85
1.2,1.5,85
1.35,-1.5,43
1.35,-1.35,43
1.35,-1.2,43
1.35,-1.05,43
1.35,-0.9,43
1.35,-0.75,45
1.35,-0.6,43
1.35,-0.45,44
1.35,-0.3,45
1.35,-0.15,33
1.35,0.0,9
1.35,0.15,38
1.35,0.3,23
1.35,0.45,39
1.35,0.6,60
1.35,0.75,60
1.35,0.9,84
1.35,1.05,100
1.35,1.2,104
1.35,1.35,106
1.35,1.5,97
1.5,-1.5,43
1.5,-1.35,43
1.5,-1.2,43
1.5,-1.05,43
1.5,-0.9,43
1.5,-0.75,45
1.5,-0.6,45
1.5,-0.45,45
1.5,-0.3,45
1.5,-0.15,28
1.5,0.0,12
1.5,0.15,46
1.5,0.3,48
1.5,0.45,54
1.5,0.6,83
1.5,0.75,82
1.5,0.9,85
1.5,1.05,86
1.5,1.2,95
1.5,1.35,96
1.5,1.5,97
1.65,-1.5,43
1.65,-1.35,44
1.65,-1.2,44
1.65,-1.05,43
1.65,-0.9,43
1.65,-0.75,44
1.65,-0.6,45
1.65,-0.45,42
1.65,-0.3,35
1.65,-0.15,36
1.65,0.0,31
1.65,0.15,49
1.65,0.3,175
1.65,0.45,104
1.65,0.6,96
1.65,0.75,94
1.65,0.9,89
1.65,1.05,90
1.65,1.2,89
1.65,1.35,89
1.65,1.5,89
1.8,-1.5,48
1.8,-1.35,48
1.8,-1.2,48
1.8,-1.05,48
1.8,-0.9,45
1.8,-0.75,45
1.8,-0.6,43
1.8,-0.45,40
1.8,-0.3,25
1.8,-0.15,36
1.8,0.0,29
1.8,0.15,47
1.8,0.3,98
1.8,0.45,109
1.8,0.6,100
1.8,0.75,92
1.8,0.9,86
1.8,1.05,89
1.8,1.2,89
1.8,1.35,89
1.8,1.5,88
1.95,-1.5,48
1.95,-1.35,48
1.95,-1.2,55
1.95,-1.05,55
1.95,-0.9,55
1.95,-0.75,54
1.95,-0.6,51
1.95,-0.45,47
1.95,-0.3,10
1.95,-0.15,15
1.95,0.0,16
1.95,0.15,33
1.95,0.3,70
1.95,0.45,132
1.95,0.6,127
1.95,0.75,91
1.95,0.9,80
1.95,1.05,77
1.95,1.2,75
1.95,1.35,74
1.95,1.5,73
2.1,-1.5,47
2.1,-1.35,48
2.1,-1.2,51
2.1,-1.05,52
2.1,-0.9,54
2.1,-0.75,55
2.1,-0.6,59
2.1,-0.45,59
2.1,-0.3,61
2.1,-0.15,31
2.1,0.0,28
2.1,0.15,41
2.1,0.3,50
2.1,0.45,71
2.1,0.6,70
2.1,0.75,72
2.1,0.9,78
2.1,1.05,71
2.1,1.2,71
2.1,1.35,71
2.1,1.5,60
2.25,-1.5,43
2.25,-1.35,46
2.25,-1.2,47
2.25,-1.05,50
2.25,-0.9,51
2.25,-0.75,53
2.25,-0.6,55
2.25,-0.45,60
2.25,-0.3,53
2.25,-0.15,39
2.25,0.0,35
2.25,0.15,12
2.25,0.3,47
2.25,0.45,56
2.25,0.6,14
2.25,0.75,52
2.25,0.9,62
2.25,1.05,64
2.25,1.2,68
2.25,1.35,69
2.25,1.5,69
2.4,-1.5,36
2.4,-1.35,36
2.4,-1.2,37
2.4,-1.05,43
2.4,-0.9,47
2.4,-0.75,47
2.4,-0.6,48
2.4,-0.45,51
2.4,-0.3,43
2.4,-0.15,38
2.4,0.0,42
2.4,0.15,37
2.4,0.3,76
2.4,0.45,82
2.4,0.6,82
2.4,0.75,58
2.4,0.9,60
2.4,1.05,61
2.4,1.2,59
2.4,1.35,63
2.4,1.5,63
2.55,-1.5,40
2.55,-1.35,39
2.55,-1.2,36
2.55,-1.05,38
2.55,-0.9,41
2.55,-0.75,33
2.55,-0.6,32
2.55,-0.45,34
2.55,-0.3,42
2.55,-0.15,29
2.55,0.0,38
2.55,0.15,159
2.55,0.3,99
2.55,0.45,39
2.55,0.6,22
2.55,0.75,40
2.55,0.9,52
2.55,1.05,54
2.55,1.2,55
2.55,1.35,56
2.55,1.5,57
2.7,-1.5,39
2.7,-1.35,44
2.7,-1.2,34
2.7,-1.05,32
2.7,-0.9,27
2.7,-0.75,7
2.7,-0.6,38
2.7,-0.45,38
2.7,-0.3,41
2.7,-0.15,45
2.7,0.0,18
2.7,0.15,50
2.7,0.3,60
2.7,0.45,23
2.7,0.6,30
2.7,0.75,41
2.7,0.9,46
2.7,1.05,50
2.7,1.2,52
2.7,1.35,54
2.7,1.5,55
2.85,-1.5,48
2.85,-1.35,47
2.85,-1.2,44
2.85,-1.05,39
2.85,-0.9,31
2.85,-0.75,15
2.85,-0.6,13
2.85,-0.45,13
2.85,-0.3,92
2.85,-0.15,47
2.85,0.0,46
2.85,0.15,65
2.85,0.3,55
2.85,0.45,45
2.85,0.6,37
2.85,0.75,43
2.85,0.9,46
2.85,1.05,48
2.85,1.2,45
2.85,1.35,45
2.85,1.5,45
3.0,-1.5,47
3.0,-1.35,51
3.0,-1.2,50
3.0,-1.05,47
3.0,-0.9,39
3.0,-0.75,32
3.0,-0.6,24
3.0,-0.45,14
3.0,-0.3,184
3.0,-0.15,61
3.0,0.0,86
3.0,0.15,87
3.0,0.3,50
3.0,0.45,19
3.0,0.6,11
3.0,0.75,45
3.0,0.9,45
3.0,1.05,45
3.0,1.2,45
3.0,1.35,45
3.0,1.5,45
3.15,-1.5,47
3.15,-1.35,48
3.15,-1.2,62
3.15,-1.05,63
3.15,-0.9,60
3.15,-0.75,51
3.15,-0.6,68
3.15,-0.45,35
3.15,-0.3,79
3.15,-0.15,70
3.15,0.0,78
3.15,0.15,71
3.15,0.3,51
3.15,0.45,43
3.15,0.6,31
3.15,0.75,46
3.15,0.9,46
3.15,1.05,48
3.15,1.2,45
3.15,1.35,46
3.15,1.5,47
3.3,-1.5,66
3.3,-1.35,65
3.3,-1.2,71
3.3,-1.05,82
3.3,-0.9,89
3.3,-0.75,93
3.3,-0.6,66
3.3,-0.45,56
3.3,-0.3,70
3.3,-0.15,84
3.3,0.0,51
3.3,0.15,51
3.3,0.3,62
3.3,0.45,63
3.3,0.6,60
3.3,0.75,58
3.3,0.9,55
3.3,1.05,56
3.3,1.2,55
3.3,1.35,56
3.3,1.5,57
3.45,-1.5,84
3.45,-1.35,88
3.45,-1.2,94
3.45,-1.05,107
3.45,-0.9,136
3.45,-0.75,138
3.45,-0.6,64
3.45,-0.45,48
3.45,-0.3,40
3.45,-0.15,84
3.45,0.0,62
3.45,0.15,142
3.45,0.3,96
3.45,0.45,81
3.45,0.6,72
3.45,0.75,67
3.45,0.9,64
3.45,1.05,63
3.45,1.2,57
3.45,1.35,57
3.45,1.5,57
3.6,-1.5,85
3.6,-1.35,88
3.6,-1.2,92
3.6,-1.05,100
3.6,-0.9,111
3.6,-0.75,103
3.6,-0.6,72
3.6,-0.45,40
3.6,-0.3,0
3.6,-0.15,99
3.6,0.0,101
3.6,0.15,157
3.6,0.3,109
3.6,0.45,95
3.6,0.6,83
3.6,0.75,75
3.6,0.9,71
3.6,1.05,69
3.6,1.2,68
3.6,1.35,64
3.6,1.5,59
3.75,-1.5,82
3.75,-1.35,83
3.75,-1.2,83
3.75,-1.05,80
3.75,-0.9,82
3.75,-0.75,93
3.75,-0.6,104
3.75,-0.45,0
3.75,-0.3,34
3.75,-0.15,16
3.75,0.0,48
3.75,0.15,78
3.75,0.3,95
3.75,0.45,96
3.75,0.6,84
3.75,0.75,82
3.75,0.9,74
3.75,1.05,75
3.75,1.2,70
3.75,1.35,69
3.75,1.5,69
3.9,-1.5,76
3.9,-1.35,75
3.9,-1.2,73
3.9,-1.05,65
3.9,-0.9,56
3.9,-0.75,80
3.9,-0.6,204
3.9,-0.45,77
3.9,-0.3,38
3.9,-0.15,160
3.9,0.0,34
3.9,0.15,52
3.9,0.3,59
3.9,0.45,79
3.9,0.6,76
3.9,0.75,84
3.9,0.9,80
3.9,1.05,79
3.9,1.2,67
3.9,1.35,67
3.9,1.5,67
4.05,-1.5,76
4.05,-1.35,74
4.05,-1.2,70
4.05,-1.05,62
4.05,-0.9,44
4.05,-0.75,61
4.05,-0.6,100
4.05,-0.45,75
4.05,-0.3,66
4.05,-0.15,11
4.05,0.0,66
4.05,0.15,51
4.05,0.3,52
4.05,0.45,68
4.05,0.6,73
4.05,0.75,61
4.05,0.9,64
4.05,1.05,67
4.05,1.2,67
4.05,1.35,67
4.05,1.5,67
4.2,-1.5,84
4.2,-1.35,83
4.2,-1.2,84
4.2,-1.05,73
4.2,-0.9,56
4.2,-0.75,55
4.2,-0.6,100
4.2,-0.45,105
4.2,-0.3,93
4.2,-0.15,82
4.2,0.0,39
4.2,0.15,46
4.2,0.3,56
4.2,0.45,58
4.2,0.6,58
4.2,0.75,58
4.2,0.9,64
4.2,1.05,71
4.2,1.2,75
4.2,1.35,68
4.2,1.5,69
4.35,-1.5,79
4.35,-1.35,84
4.35,-1.2,84
4.35,-1.05,79
4.35,-0.9,74
4.35,-0.75,81
4.35,-0.6,100
4.35,-0.45,196
4.35,-0.3,87
4.35,-0.15,103
4.35,0.0,51
4.35,0.15,5
4.35,0.3,65
4.35,0.45,59
4.35,0.6,58
4.35,0.75,62
4.35,0.9,82
4.35,1.05,80
4.35,1.2,83
4.35,1.35,85
4.35,1.5,70
4.5,-1.5,79
4.5,-1.35,79
4.5,-1.2,79
4.5,-1.05,89
4.5,-0.9,89
4.5,-0.75,93
4.5,-0.6,88
4.5,-0.45,81
4.5,-0.3,58
4.5,-0.15,19
4.5,0.0,103
4.5,0.15,188
4.5,0.3,92
4.5,0.45,80
4.5,0.6,76
4.5,0.75,86
4.5,0.9,103
4.5,1.05,90
4.5,1.2,93
4.5,1.35,95
4.5,1.5,100
4.65,-1.5,79
4.65,-1.35,79
4.65,-1.2,79
4.65,-1.05,79
4.65,-0.9,89
4.65,-0.75,60
4.65,-0.6,120
4.65,-0.45,67
4.65,-0.3,39
4.65,-0.15,41
4.65,0.0,145
4.65,0.15,46
4.65,0.3,70
4.65,0.45,60
4.65,0.6,70
4.65,0.75,71
4.65,0.9,88
4.65,1.05,93
4.65,1.2,96
4.65,1.35,97
4.65,1.5,122
4.8,-1.5,79
4.8,-1.35,79
4.8,-1.2,80
4.8,-1.05,83
4.8,-0.9,87
4.8,-0.75,101
4.8,-0.6,119
4.8,-0.45,71
4.8,-0.3,92
4.8,-0.15,196
4.8,0.0,162
4.8,0.15,78
4.8,0.3,28
4.8,0.45,44
4.8,0.6,63
4.8,0.75,80
4.8,0.9,87
4.8,1.05,88
4.8,1.2,110
4.8,1.35,113
4.8,1.5,114
4.95,-1.5,96
4.95,-1.35,96
4.95,-1.2,84
4.95,-1.05,81
4.95,-0.9,87
4.95,-0.75,95
4.95,-0.6,103
4.95,-0.45,105
4.95,-0.3,117
4.95,-0.15,77
4.95,0.0,46
4.95,0.15,55
4.95,0.3,57
4.95,0.45,65
4.95,0.6,84
4.95,0.75,93
4.95,0.9,111
4.95,1.05,115
4.95,1.2,117
4.95,1.35,118
4.95,1.5,118
5.1,-1.5,107
5.1,-1.35,117
5.1,-1.2,115
5.1,-1.05,100
5.1,-0.9,87
5.1,-0.75,70
5.1,-0.6,59
5.1,-0.45,75
5.1,-0.3,62
5.1,-0.15,63
5.1,0.0,93
5.1,0.15,59
5.1,0.3,208
5.1,0.45,111
5.1,0.6,111
5.1,0.75,125
5.1,0.9,125
5.1,1.05,125
5.1,1.2,124
5.1,1.35,136
5.1,1.5,136
5.25,-1.5,97
5.25,-1.35,109
5.25,-1.2,109
5.25,-1.05,107
5.25,-0.9,88
5.25,-0.75,71
5.25,-0.6,25
5.25,-0.45,37
5.25,-0.3,43
5.25,-0.15,113
5.25,0.0,104
5.25,0.15,42
5.25,0.3,108
5.25,0.45,139
5.25,0.6,163
5.25,0.75,152
5.25,0.9,151
5.25,1.05,147
5.25,1.2,145
5.25,1.35,143
5.25,1.5,141
5.4,-1.5,81
5.4,-1.35,98
5.4,-1.2,96
5.4,-1.05,85
5.4,-0.9,87
5.4,-0.75,82
5.4,-0.6,58
5.4,-0.45,103
5.4,-0.3,66
5.4,-0.15,77
5.4,0.0,116
5.4,0.15,159
5.4,0.3,123
5.4,0.45,119
5.4,0.6,188
5.4,0.75,186
5.4,0.9,171
5.4,1.05,166
5.4,1.2,165
5.4,1.35,161
5.4,1.5,158
5.55,-1.5,67
5.55,-1.35,70
5.55,-1.2,74
5.55,-1.05,94
5.55,-0.9,101
5.55,-0.75,134
5.55,-0.6,140
5.55,-0.45,39
5.55,-0.3,113
5.55,-0.15,57
5.55,0.0,65
5.55,0.15,159
5.55,0.3,156
5.55,0.45,218
5.55,0.6,255
5.55,0.75,209
5.55,0.9,181
5.55,1.05,169
5.55,1.2,159
5.55,1.35,156
5.55,1.5,156
5.7,-1.5,53
5.7,-1.35,59
5.7,-1.2,58
5.7,-1.05,61
5.7,-0.9,77
5.7,-0.75,129
5.7,-0.6,151
5.7,-0.45,6
5.7,-0.3,0
5.7,-0.15,44
5.7,0.0,98
5.7,0.15,154
5.7,0.3,184
5.7,0.45,225
5.7,0.6,255
5.7,0.75,217
5.7,0.9,192
5.7,1.05,174
5.7,1.2,161
5.7,1.35,158
5.7,1.5,156
5.85,-1.5,49
5.85,-1.35,49
5.85,-1.2,50
5.85,-1.05,49
5.85,-0.9,49
5.85,-0.75,46
5.85,-0.6,37
5.85,-0.45,1
5.85,-0.3,13
5.85,-0.15,23
5.85,0.0,33
5.85,0.15,49
5.85,0.3,197
5.85,0.45,185
5.85,0.6,190
5.85,0.75,179
5.85,0.9,160
5.85,1.05,168
5.85,1.2,147
5.85,1.35,146
5.85,1.5,145
6.0,-1.5,60
6.0,-1.35,58
6.0,-1.2,39
6.0,-1.05,37
6.0,-0.9,32
6.0,-0.75,39
6.0,-0.6,22
6.0,-0.45,30
6.0,-0.3,42
6.0,-0.15,4
6.0,0.0,63
6.0,0.15,66
6.0,0.3,93
6.0,0.45,139
6.0,0.6,132
6.0,0.75,116
6.0,0.9,112
6.0,1.05,120
6.0,1.2,123
6.0,1.35,125
6.0,1.5,139
6.15,-1.5,39
6.15,-1.35,38
6.15,-1.2,36
6.15,-1.05,33
6.15,-0.9,27
6.15,-0.75,13
6.15,-0.6,26
6.15,-0.45,9
6.15,-0.3,176
6.15,-0.15,131
6.15,0.0,193
6.15,0.15,66
6.15,0.3,211
6.15,0.45,124
6.15,0.6,82
6.15,0.75,47
6.15,0.9,75
6.15,1.05,107
6.15,1.2,119
6.15,1.35,126
6.15,1.5,119
6.3,-1.5,43
6.3,-1.35,42
6.3,-1.2,41
6.3,-1.05,35
6.3,-0.9,29
6.3,-0.75,23
6.3,-0.6,28
6.3,-0.45,23
6.3,-0.3,214
6.3,-0.15,84
6.3,0.0,169
6.3,0.15,97
6.3,0.3,66
6.3,0.45,163
6.3,0.6,61
6.3,0.75,5
6.3,0.9,51
6.3,1.05,86
6.3,1.2,98
6.3,1.35,105
6.3,1.5,108
6.45,-1.5,32
6.45,-1.35,48
6.45,-1.2,48
6.45,-1.05,44
6.45,-0.9,23
6.45,-0.75,37
6.45,-0.6,251
6.45,-0.45,83
6.45,-0.3,57
6.45,-0.15,18
6.45,0.0,125
6.45,0.15,96
6.45,0.3,100
6.45,0.45,138
6.45,0.6,95
6.45,0.75,64
6.45,0.9,55
6.45,1.05,63
6.45,1.2,67
6.45,1.35,70
6.45,1.5,72
6.6,-1.5,43
6.6,-1.35,43
6.6,-1.2,45
6.6,-1.05,49
6.6,-0.9,69
6.6,-0.75,103
6.6,-0.6,57
6.6,-0.45,39
6.6,-0.3,42
6.6,-0.15,90
6.6,0.0,6
6.6,0.15,0
6.6,0.3,71
6.6,0.45,60
6.6,0.6,66
6.6,0.75,53
6.6,0.9,80
6.6,1.05,81
6.6,1.2,63
6.6,1.35,64
6.6,1.5,65
6.75,-1.5,57
6.75,-1.35,56
6.75,-1.2,45
6.75,-1.05,46
6.75,-0.9,52
6.75,-0.75,73
6.75,-0.6,157
6.75,-0.45,74
6.75,-0.3,17
6.75,-0.15,52
6.75,0.0,0
6.75,0.15,116
6.75,0.3,15
6.75,0.45,0
6.75,0.6,51
6.75,0.75,67
6.75,0.9,69
6.75,1.05,69
6.75,1.2,69
6.75,1.35,63
6.75,1.5,63
6.9,-1.5,46
6.9,-1.35,46
6.9,-1.2,47
6.9,-1.05,57
6.9,-0.9,57
6.9,-0.75,60
6.9,-0.6,0
6.9,-0.45,33
6.9,-0.3,50
6.9,-0.15,41
6.9,0.0,135
6.9,0.15,12
6.9,0.3,75
6.9,0.45,64
6.9,0.6,57
6.9,0.75,55
6.9,0.9,60
6.9,1.05,60
6.9,1.2,61
6.9,1.35,62
6.9,1.5,63
7.05,-1.5,67
7.05,-1.35,63
7.05,-1.2,64
7.05,-1.05,61
7.05,-0.9,63
7.05,-0.75,33
7.05,-0.6,76
7.05,-0.45,21
7.05,-0.3,6
7.05,-0.15,49
7.05,0.0,36
7.05,0.15,56
7.05,0.3,240
7.05,0.45,51
7.05,0.6,60
7.05,0.75,51
7.05,0.9,48
7.05,1.05,49
7.05,1.2,50
7.05,1.35,51
7.05,1.5,51
7.2,-1.5,86
7.2,-1.35,87
7.2,-1.2,84
7.2,-1.05,63
7.2,-0.9,90
7.2,-0.75,115
7.2,-0.6,68
7.2,-0.45,153
7.2,-0.3,46
7.2,-0.15,34
7.2,0.0,87
7.2,0.15,129
7.2,0.3,112
7.2,0.45,99
7.2,0.6,51
7.2,0.75,36
7.2,0.9,45
7.2,1.05,42
7.2,1.2,58
7.2,1.35,63
7.2,1.5,66
7.35,-1.5,71
7.35,-1.35,69
7.35,-1.2,69
7.35,-1.05,75
7.35,-0.9,87
7.35,-0.75,57
7.35,-0.6,13
7.35,-0.45,13
7.35,-0.3,111
7.35,-0.15,56
7.35,0.0,78
7.35,0.15,48
7.35,0.3,54
7.35,0.45,132
7.35,0.6,21
7.35,0.75,11
7.35,0.9,32
7.35,1.05,45
7.35,1.2,56
7.35,1.35,62
7.35,1.5,66
7.5,-1.5,80
7.5,-1.35,69
7.5,-1.2,72
7.5,-1.05,80
7.5,-0.9,91
7.5,-0.75,37
7.5,-0.6,13
7.5,-0.45,23
7.5,-0.3,34
7.5,-0.15,23
7.5,0.0,10
7.5,0.15,38
7.5,0.3,69
7.5,0.45,129
7.5,0.6,51
7.5,0.75,1
7.5,0.9,22
7.5,1.05,42
7.5,1.2,60
7.5,1.35,67
7.5,1.5,62
7.65,-1.5,83
7.65,-1.35,74
7.65,-1.2,78
7.65,-1.05,87
7.65,-0.9,125
7.65,-0.75,116
7.65,-0.6,16
7.65,-0.45,12
7.65,-0.3,18
7.65,-0.15,17
7.65,0.0,17
7.65,0.15,6
7.65,0.3,32
7.65,0.45,41
7.65,0.6,40
7.65,0.75,33
7.65,0.9,35
7.65,1.05,64
7.65,1.2,72
7.65,1.35,78
7.65,1.5,81
7.8,-1.5,68
7.8,-1.35,65
7.8,-1.2,55
7.8,-1.05,60
7.8,-0.9,66
7.8,-0.75,38
7.8,-0.6,12
7.8,-0.45,12
7.8,-0.3,43
7.8,-0.15,43
7.8,0.0,3
7.8,0.15,7
7.8,0.3,15
7.8,0.45,15
7.8,0.6,18
7.8,0.75,68
7.8,0.9,73
7.8,1.05,81
7.8,1.2,82
7.8,1.35,82
7.8,1.5,83
7.95,-1.5,46
7.95,-1.35,47
7.95,-1.2,49
7.95,-1.05,59
7.95,-0.9,45
7.95,-0.75,86
7.95,-0.6,42
7.95,-0.45,12
7.95,-0.3,43
7.95,-0.15,9
7.95,0.0,32
7.95,0.15,34
7.95,0.3,43
7.95,0.45,48
7.95,0.6,84
7.95,0.75,141
7.95,0.9,125
7.95,1.05,113
7.95,1.2,107
7.95,1.35,104
7.95,1.5,103
8.1,-1.5,42
8.1,-1.35,42
8.1,-1.2,41
8.1,-1.05,32
8.1,-0.9,37
8.1,-0.75,48
8.1,-0.6,21
8.1,-0.45,43
8.1,-0.3,9
8.1,-0.15,39
8.1,0.0,53
8.1,0.15,119
8.1,0.3,75
8.1,0.45,86
8.1,0.6,167
8.1,0.75,198
8.1,0.9,155
8.1,1.05,136
8.1,1.2,124
8.1,1.35,122
8.1,1.5,119
8.25,-1.5,21
8.25,-1.35,22
8.25,-1.2,22
8.25,-1.05,22
8.25,-0.9,22
8.25,-0.75,4
8.25,-0.6,8
8.25,-0.45,49
8.25,-0.3,9
8.25,-0.15,33
8.25,0.0,52
8.25,0.15,87
8.25,0.3,82
8.25,0.45,182
8.25,0.6,171
8.25,0.75,167
8.25,0.9,153
8.25,1.05,139
8.25,1.2,127
8.25,1.35,126
8.25,1.5,121
8.4,-1.5,19
8.4,-1.35,19
8.4,-1.2,17
8.4,-1.05,4
8.4,-0.9,38
8.4,-0.75,39
8.4,-0.6,42
8.4,-0.45,59
8.4,-0.3,97
8.4,-0.15,47
8.4,0.0,33
8.4,0.15,96
8.4,0.3,57
8.4,0.45,255
8.4,0.6,193
8.4,0.75,163
8.4,0.9,151
8.4,1.05,138
8.4,1.2,129
8.4,1.35,123
8.4,1.5,115
8.55,-1.5,35
8.55,-1.35,42
8.55,-1.2,45
8.55,-1.05,35
8.55,-0.9,48
8.55,-0.75,52
8.55,-0.6,52
8.55,-0.45,48
8.55,-0.3,14
8.55,-0.15,83
8.55,0.0,51
8.55,0.15,66
8.55,0.3,120
8.55,0.45,209
8.55,0.6,188
8.55,0.75,159
8.55,0.9,144
8.55,1.05,134
8.55,1.2,128
8.55,1.35,109
8.55,1.5,104
8.7,-1.5,62
8.7,-1.35,61
8.7,-1.2,63
8.7,-1.05,59
8.7,-0.9,44
8.7,-0.75,21
8.7,-0.6,34
8.7,-0.45,79
8.7,-0.3,32
8.7,-0.15,109
8.7,0.0,80
8.7,0.15,75
8.7,0.3,122
8.7,0.45,167
8.7,0.6,167
8.7,0.75,149
8.7,0.9,138
8.7,1.05,113
8.7,1.2,107
8.7,1.35,103
8.7,1.5,100
8.85,-1.5,85
8.85,-1.35,80
8.85,-1.2,79
8.85,-1.05,74
8.85,-0.9,76
8.85,-0.75,84
8.85,-0.6,189
8.85,-0.45,65
8.85,-0.3,15
8.85,-0.15,10
8.85,0.0,255
8.85,0.15,100
8.85,0.3,91
8.85,0.45,117
8.85,0.6,112
8.85,0.75,117
8.85,0.9,114
8.85,1.05,114
8.85,1.2,98
8.85,1.35,94
8.85,1.5,93
9.0,-1.5,94
9.0,-1.35,94
9.0,-1.2,94
9.0,-1.05,94
9.0,-0.9,94
9.0,-0.75,65
9.0,-0.6,47
9.0,-0.45,119
9.0,-0.3,71
9.0,-0.15,12
9.0,0.0,24
9.0,0.15,55
9.0,0.3,43
9.0,0.45,46
9.0,0.6,54
9.0,0.75,62
9.0,0.9,79
9.0,1.05,94
9.0,1.2,97
9.0,1.35,98
9.0,1.5,87
9.15,-1.5,57
9.15,-1.35,58
9.15,-1.2,71
9.15,-1.05,73
9.15,-0.9,78
9.15,-0.75,94
9.15,-0.6,56
9.15,-0.45,47
9.15,-0.3,52
9.15,-0.15,16
9.15,0.0,28
9.15,0.15,31
9.15,0.3,17
9.15,0.45,11
9.15,0.6,4
9.15,0.75,26
9.15,0.9,51
9.15,1.05,62
9.15,1.2,78
9.15,1.35,87
9.15,1.5,91
9.3,-1.5,96
9.3,-1.35,118
9.3,-1.2,98
9.3,-1.05,96
9.3,-0.9,84
9.3,-0.75,85
9.3,-0.6,109
9.3,-0.45,21
9.3,-0.3,58
9.3,-0.15,116
9.3,0.0,66
9.3,0.15,30
9.3,0.3,22
9.3,0.45,17
9.3,0.6,4
9.3,0.75,22
9.3,0.9,22
9.3,1.05,55
9.3,1.2,57
9.3,1.35,63
9.3,1.5,78
9.45,-1.5,139
9.45,-1.35,137
9.45,-1.2,134
9.45,-1.05,127
9.45,-0.9,98
9.45,-0.75,68
9.45,-0.6,87
9.45,-0.45,0
9.45,-0.3,68
9.45,-0.15,166
9.45,0.0,53
9.45,0.15,66
9.45,0.3,47
9.45,0.45,10
9.45,0.6,8
9.45,0.75,22
9.45,0.9,27
9.45,1.05,34
9.45,1.2,39
9.45,1.35,42
9.45,1.5,44
9.6,-1.5,126
9.6,-1.35,125
9.6,-1.2,124
9.6,-1.05,119
9.6,-0.9,119
9.6,-0.75,132
9.6,-0.6,214
9.6,-0.45,19
9.6,-0.3,42
9.6,-0.15,3
9.6,0.0,66
9.6,0.15,66
9.6,0.3,47
9.6,0.45,20
9.6,0.6,22
9.6,0.75,34
9.6,0.9,28
9.6,1.05,31
9.6,1.2,39
9.6,1.35,39
9.6,1.5,40
9.75,-1.5,61
9.75,-1.35,61
9.75,-1.2,62
9.75,-1.05,64
9.75,-0.9,68
9.75,-0.75,91
9.75,-0.6,9
9.75,-0.45,57
9.75,-0.3,94
9.75,-0.15,21
9.75,0.0,49
9.75,0.15,40
9.75,0.3,47
9.75,0.45,39
9.75,0.6,35
9.75,0.75,32
9.75,0.9,33
9.75,1.05,34
9.75,1.2,34
9.75,1.35,34
9.75,1.5,34
9.9,-1.5,51
9.9,-1.35,51
9.9,-1.2,38
9.9,-1.05,34
9.9,-0.9,33
9.9,-0.75,32
9.9,-0.6,36
9.9,-0.45,31
9.9,-0.3,51
9.9,-0.15,21
9.9,0.0,35
9.9,0.15,53
9.9,0.3,60
9.9,0.45,61
9.9,0.6,51
9.9,0.75,43
9.9,0.9,40
9.9,1.05,36
9.9,1.2,35
9.9,1.35,34
9.9,1.5,34
10.05,-1.5,33
10.05,-1.35,32
10.05,-1.2,31
10.05,-1.05,22
10.05,-0.9,22
10.05,-0.75,9
10.05,-0.6,19
10.05,-0.45,68
10.05,-0.3,47
10.05,-0.15,40
10.05,0.0,33
10.05,0.15,70
10.05,0.3,96
10.05,0.45,68
10.05,0.6,57
10.05,0.75,49
10.05,0.9,48
10.05,1.05,44
10.05,1.2,42
10.05,1.35,36
10.05,1.5,35
10.2,-1.5,29
10.2,-1.35,29
10.2,-1.2,29
10.2,-1.05,32
10.2,-0.9,26
10.2,-0.75,20
10.2,-0.6,27
10.2,-0.45,51
10.2,-0.3,0
10.2,-0.15,20
10.2,0.0,38
10.2,0.15,83
10.2,0.3,207
10.2,0.45,51
10.2,0.6,47
10.2,0.75,45
10.2,0.9,42
10.2,1.05,41
10.2,1.2,41
10.2,1.35,40
10.2,1.5,40
10.35,-1.5,44
10.35,-1.35,60
10.35,-1.2,63
10.35,-1.05,45
10.35,-0.9,47
10.35,-0.75,52
10.35,-0.6,32
10.35,-0.45,48
10.35,-0.3,109
10.35,-0.15,51
10.35,0.0,34
10.35,0.15,63
10.35,0.3,66
10.35,0.45,12
10.35,0.6,35
10.35,0.75,39
10.35,0.9,43
10.35,1.05,41
10.35,1.2,41
10.35,1.35,41
10.35,1.5,40
10.5,-1.5,51
10.5,-1.35,52
10.5,-1.2,63
10.5,-1.05,64
10.5,-0.9,62
10.5,-0.75,60
10.5,-0.6,18
10.5,-0.45,24
10.5,-0.3,52
10.5,-0.15,63
10.5,0.0,54
10.5,0.15,48
10.5,0.3,45
10.5,0.45,0
10.5,0.6,25
10.5,0.75,37
10.5,0.9,40
10.5,1.05,42
10.5,1.2,43
10.5,1.35,43
10.5,1.5,43
10.65,-1.5,56
10.65,-1.35,69
10.65,-1.2,77
10.65,-1.05,81
10.65,-0.9,92
10.65,-0.75,91
10.65,-0.6,82
10.65,-0.45,15
10.65,-0.3,104
10.65,-0.15,77
10.65,0.0,72
10.65,0.15,47
10.65,0.3,47
10.65,0.45,28
10.65,0.6,32
10.65,0.75,38
10.65,0.9,40
10.65,1.05,42
10.65,1.2,43
10.65,1.35,43
10.65,1.5,43
10.8,-1.5,75
10.8,-1.35,82
10.8,-1.2,83
10.8,-1.05,86
10.8,-0.9,104
10.8,-0.75,188
10.8,-0.6,59
10.8,-0.45,69
10.8,-0.3,61
10.8,-0.15,61
10.8,0.0,62
10.8,0.15,43
10.8,0.3,43
10.8,0.45,46
10.8,0.6,45
10.8,0.75,45
10.8,0.9,45
10.8,1.05,45
10.8,1.2,45
10.8,1.35,43
10.8,1.5,43
10.95,-1.5,81
10.95,-1.35,80
10.95,-1.2,78
10.95,-1.05,72
10.95,-0.9,56
10.95,-0.75,101
10.95,-0.6,154
10.95,-0.45,88
10.95,-0.3,76
10.95,-0.15,52
10.95,0.0,54
10.95,0.15,53
10.95,0.3,43
10.95,0.45,43
10.95,0.6,44
10.95,0.75,43
10.95,0.9,43
10.95,1.05,43
10.95,1.2,43
10.95,1.35,43
10.95,1.5,43
11.1,-1.5,71
11.1,-1.35,69
11.1,-1.2,67
11.1,-1.05,62
11.1,-0.9,59
11.1,-0.75,56
11.1,-0.6,47
11.1,-0.45,26
11.1,-0.3,16
11.1,-0.15,56
11.1,0.0,56
11.1,0.15,50
11.1,0.3,43
11.1,0.45,43
11.1,0.6,43
11.1,0.75,43
11.1,0.9,43
11.1,1.05,43
11.1,1.2,43
11.1,1.35,43
11.1,1.5,43
11.25,-1.5,71
11.25,-1.35,71
11.25,-1.2,57
11.25,-1.05,58
11.25,-0.9,43
11.25,-0.75,37
11.25,-0.6,36
11.25,-0.45,44
11.25,-0.3,36
11.25,-0.15,31
11.25,0.0,37
11.25,0.15,50
11.25,0.3,50
11.25,0.45,49
11.25,0.6,46
11.25,0.75,43
11.25,0.9,43
11.25,1.05,43
11.25,1.2,43
11.25,1.35,43
11.25,1.5,43
11.4,-1.5,59
11.4,-1.35,48
11.4,-1.2,48
11.4,-1.05,61
11.4,-0.9,56
11.4,-0.75,49
11.4,-0.6,34
11.4,-0.45,18
11.4,-0.3,18
11.4,-0.15,32
11.4,0.0,34
11.4,0.15,38
11.4,0.3,41
11.4,0.45,46
11.4,0.6,46
11.4,0.75,43
11.4,0.9,43
11.4,1.05,43
11.4,1.2,43
11.4,1.35,43
11.4,1.5,43
11.55,-1.5,48
11.55,-1.35,60
11.55,-1.2,65
11.55,-1.05,65
11.55,-0.9,74
11.55,-0.75,114
11.55,-0.6,168
11.55,-0.45,82
11.55,-0.3,60
11.55,-0.15,59
11.55,0.0,53
11.55,0.15,54
11.55,0.3,50
11.55,0.45,44
11.55,0.6,43
11.55,0.75,43
11.55,0.9,43
11.55,1.05,43
11.55,1.2,43
11.55,1.35,43
11.55,1.5,43
11.7,-1.5,59
11.7,-1.35,59
11.7,-1.2,59
11.7,-1.05,70
11.7,-0.9,72
11.7,-0.75,83
11.7,-0.6,80
11.7,-0.45,116
11.7,-0.3,97
11.7,-0.15,67
11.7,0.0,66
11.7,0.15,65
11.7,0.3,55
11.7,0.45,50
11.7,0.6,52
11.7,0.75,56
11.7,0.9,50
11.7,1.05,43
11.7,1.2,43
11.7,1.35,43
11.7,1.5,43
11.85,-1.5,66
11.85,-1.35,64
11.85,-1.2,68
11.85,-1.05,69
11.85,-0.9,49
11.85,-0.75,13
11.85,-0.6,43
11.85,-0.45,84
11.85,-0.3,54
11.85,-0.15,59
11.85,0.0,66
11.85,0.15,61
11.85,0.3,53
11.85,0.45,52
11.85,0.6,59
11.85,0.75,63
11.85,0.9,58
11.85,1.05,48
11.85,1.2,50
11.85,1.35,49
11.85,1.5,48
12.0,-1.5,76
12.0,-1.35,88
12.0,-1.2,83
12.0,-1.05,73
12.0,-0.9,55
12.0,-0.75,36
12.0,-0.6,33
12.0,-0.45,136
12.0,-0.3,155
12.0,-0.15,117
12.0,0.0,95
12.0,0.15,62
12.0,0.3,30
12.0,0.45,48
12.0,0.6,60
12.0,0.75,72
12.0,0.9,66
12.0,1.05,67
12.0,1.2,59
12.0,1.35,57
12.0,1.5,48
12.15,-1.5,83
12.15,-1.35,94
12.15,-1.2,95
12.15,-1.05,90
12.15,-0.9,86
12.15,-0.75,90
12.15,-0.6,87
12.15,-0.45,164
12.15,-0.3,183
12.15,-0.15,142
12.15,0.0,102
12.15,0.15,37
12.15,0.3,0
12.15,0.45,42
12.15,0.6,78
12.15,0.75,85
12.15,0.9,83
12.15,1.05,83
12.15,1.2,81
12.15,1.35,78
12.15,1.5,60
12.3,-1.5,93
12.3,-1.35,97
12.3,-1.2,102
12.3,-1.05,115
12.3,-0.9,116
12.3,-0.75,126
12.3,-0.6,133
12.3,-0.45,183
12.3,-0.3,179
12.3,-0.15,167
12.3,0.0,142
12.3,0.15,84
12.3,0.3,50
12.3,0.45,70
12.3,0.6,84
12.3,0.75,91
12.3,0.9,93
12.3,1.05,84
12.3,1.2,79
12.3,1.35,73
12.3,1.5,68
12.45,-1.5,89
12.45,-1.35,115
12.45,-1.2,125
12.45,-1.05,134
12.45,-0.9,142
12.45,-0.75,116
12.45,-0.6,177
12.45,-0.45,209
12.45,-0.3,207
12.45,-0.15,193
12.45,0.0,166
12.45,0.15,131
12.45,0.3,107
12.45,0.45,104
12.45,0.6,99
12.45,0.75,99
12.45,0.9,96
12.45,1.05,89
12.45,1.2,80
12.45,1.35,64
12.45,1.5,57
12.6,-1.5,88
12.6,-1.35,104
12.6,-1.2,125
12.6,-1.05,143
12.6,-0.9,158
12.6,-0.75,186
12.6,-0.6,255
12.6,-0.45,255
12.6,-0.3,255
12.6,-0.15,223
12.6,0.0,190
12.6,0.15,158
12.6,0.3,126
12.6,0.45,108
12.6,0.6,105
12.6,0.75,106
12.6,0.9,100
12.6,1.05,85
12.6,1.2,69
12.6,1.35,53
12.6,1.5,39
12.75,-1.5,51
12.75,-1.35,76
12.75,-1.2,113
12.75,-1.05,145
12.75,-0.9,180
12.75,-0.75,214
12.75,-0.6,255
12.75,-0.45,255
12.75,-0.3,255
12.75,-0.15,240
12.75,0.0,201
12.75,0.15,169
12.75,0.3,139
12.75,0.45,112
12.75,0.6,107
12.75,0.75,107
12.75,0.9,101
12.75,1.05,84
12.75,1.2,57
12.75,1.35,31
12.75,1.5,18
12.9,-1.5,4
12.9,-1.35,35
12.9,-1.2,93
12.9,-1.05,139
12.9,-0.9,179
12.9,-0.75,206
12.9,-0.6,231
12.9,-0.45,254
12.9,-0.3,255
12.9,-0.15,231
12.9,0.0,202
12.9,0.15,176
12.9,0.3,151
12.9,0.45,130
12.9,0.6,116
12.9,0.75,114
12.9,0.9,99
12.9,1.05,76
12.9,1.2,42
12.9,1.35,10
12.9,1.5,0
13.05,-1.5,0
13.05,-1.35,23
13.05,-1.2,82
13.05,-1.05,130
13.05,-0.9,172
13.05,-0.75,195
13.05,-0.6,213
13.05,-0.45,229
13.05,-0.3,229
13.05,-0.15,216
13.05,0.0,198
13.05,0.15,179
13.05,0.3,160
13.05,0.45,143
13.05,0.6,131
13.05,0.75,114
13.05,0.9,99
13.05,1.05,72
13.05,1.2,38
13.05,1.35,5
13.05,1.5,0
