-3.0,-1.5,0
-3.0,-1.35,0
-3.0,-1.2,1
-3.0,-1.05,7
-3.0,-0.9,14
-3.0,-0.75,21
-3.0,-0.6,28
-3.0,-0.45,33
-3.0,-0.3,38
-3.0,-0.15,40
-3.0,0.0,41
-3.0,0.15,41
-3.0,0.3,43
-3.0,0.45,38
-3.0,0.6,32
-3.0,0.75,24
-3.0,0.9,16
-3.0,1.05,8
-3.0,1.2,2
-3.0,1.35,0
-3.0,1.5,0
-2.85,-1.5,0
-2.85,-1.35,0
-2.85,-1.2,3
-2.85,-1.05,9
-2.85,-0.9,16
-2.85,-0.75,23
-2.85,-0.6,30
-2.85,-0.45,36
-2.85,-0.3,40
-2.85,-0.15,42
-2.85,0.0,43
-2.85,0.15,42
-2.85,0.3,46
-2.85,0.45,41
-2.85,0.6,34
-2.85,0.75,26
-2.85,0.9,18
-2.85,1.05,10
-2.85,1.2,4
-2.85,1.35,0
-2.85,1.5,0
-2.7,-1.5,2
-2.7,-1.35,3
-2.7,-1.2,7
-2.7,-1.05,13
-2.7,-0.9,20
-2.7,-0.75,27
-2.7,-0.6,34
-2.7,-0.45,39
-2.7,-0.3,43
-2.7,-0.15,46
-2.7,0.0,46
-2.7,0.15,45
-2.7,0.3,49
-2.7,0.45,45
-2.7,0.6,38
-2.7,0.75,31
-2.7,0.9,23
-2.7,1.05,15
-2.7,1.2,8
-2.7,1.35,4
-2.7,1.5,2
-2.55,-1.5,9
-2.55,-1.35,10
-2.55,-1.2,14
-2.55,-1.05,20
-2.55,-0.9,26
-2.55,-0.75,33
-2.55,-0.6,39
-2.55,-0.45,44
-2.55,-0.3,47
-2.55,-0.15,50
-2.55,0.0,50
-2.55,0.15,49
-2.55,0.3,54
-2.55,0.45,49
-2.55,0.6,44
-2.55,0.75,37
-2.55,0.9,29
-2.55,1.05,22
-2.55,1.2,16
-2.55,1.35,12
-2.55,1.5,10
-2.4,-1.5,18
-2.4,-1.35,20
-2.4,-1.2,23
-2.4,-1.05,28
-2.4,-0.9,34
-2.4,-0.75,39
-2.4,-0.6,45
-2.4,-0.45,49
-2.4,-0.3,52
-2.4,-0.15,54
-2.4,0.0,55
-2.4,0.15,54
-2.4,0.3,59
-2.4,0.45,55
-2.4,0.6,50
-2.4,0.75,44
-2.4,0.9,37
-2.4,1.05,31
-2.4,1.2,25
-2.4,1.35,21
-2.4,1.5,20
-2.25,-1.5,29
-2.25,-1.35,30
-2.25,-1.2,33
-2.25,-1.05,37
-2.25,-0.9,42
-2.25,-0.75,47
-2.25,-0.6,51
-2.25,-0.45,55
-2.25,-0.3,58
-2.25,-0.15,59
-2.25,0.0,60
-2.25,0.15,59
-2.25,0.3,65
-2.25,0.45,62
-2.25,0.6,57
-2.25,0.75,52
-2.25,0.9,46
-2.25,1.05,41
-2.25,1.2,36
-2.25,1.35,33
-2.25,1.5,31
-2.1,-1.5,40
-2.1,-1.35,41
-2.1,-1.2,44
-2.1,-1.05,47
-2.1,-0.9,51
-2.1,-0.75,55
-2.1,-0.6,58
-2.1,-0.45,61
-2.1,-0.3,64
-2.1,-0.15,65
-2.1,0.0,65
-2.1,0.15,64
-2.1,0.3,72
-2.1,0.45,69
-2.1,0.6,65
-2.1,0.75,61
-2.1,0.9,56
-2.1,1.05,51
-2.1,1.2,47
-2.1,1.35,44
-2.1,1.5,43
-1.95,-1.5,51
-1.95,-1.35,52
-1.95,-1.2,54
-1.95,-1.05,57
-1.95,-0.9,60
-1.95,-0.75,63
-1.95,-0.6,66
-1.95,-0.45,68
-1.95,-0.3,70
-1.95,-0.15,71
-1.95,0.0,71
-1.95,0.15,70
-1.95,0.3,78
-1.95,0.45,76
-1.95,0.6,73
-1.95,0.75,69
-1.95,0.9,65
-1.95,1.05,62
-1.95,1.2,58
-1.95,1.35,56
-1.95,1.5,54
-1.8,-1.5,61
-1.8,-1.35,62
-1.8,-1.2,64
-1.8,-1.05,66
-1.8,-0.9,69
-1.8,-0.75,71
-1.8,-0.6,73
-1.8,-0.45,75
-1.8,-0.3,76
-1.8,-0.15,77
-1.8,0.0,77
-1.8,0.15,76
-1.8,0.3,85
-1.8,0.45,83
-1.8,0.6,81
-1.8,0.75,78
-1.8,0.9,75
-1.8,1.05,71
-1.8,1.2,69
-1.8,1.35,66
-1.8,1.5,65
-1.65,-1.5,70
-1.65,-1.35,71
-1.65,-1.2,73
-1.65,-1.05,75
-1.65,-0.9,77
-1.65,-0.75,79
-1.65,-0.6,80
-1.65,-0.45,82
-1.65,-0.3,82
-1.65,-0.15,83
-1.65,0.0,83
-1.65,0.15,82
-1.65,0.3,92
-1.65,0.45,90
-1.65,0.6,88
-1.65,0.75,86
-1.65,0.9,83
-1.65,1.05,80
-1.65,1.2,78
-1.65,1.35,76
-1.65,1.5,75
-1.5,-1.5,79
-1.5,-1.35,80
-1.5,-1.2,81
-1.5,-1.05,83
-1.5,-0.9,84
-1.5,-0.75,86
-1.5,-0.6,87
-1.5,-0.45,88
-1.5,-0.3,88
-1.5,-0.15,89
-1.5,0.0,88
-1.5,0.15,88
-1.5,0.3,98
-1.5,0.45,97
-1.5,0.6,95
-1.5,0.75,93
-1.5,0.9,91
-1.5,1.05,89
-1.5,1.2,87
-1.5,1.35,85
-1.5,1.5,83
-1.35,-1.5,90
-1.35,-1.35,91
-1.35,-1.2,89
-1.35,-1.05,90
-1.35,-0.9,91
-1.35,-0.75,92
-1.35,-0.6,93
-1.35,-0.45,94
-1.35,-0.3,94
-1.35,-0.15,94
-1.35,0.0,94
-1.35,0.15,93
-1.35,0.3,104
-1.35,0.45,103
-1.35,0.6,101
-1.35,0.75,100
-1.35,0.9,98
-1.35,1.05,96
-1.35,1.2,94
-1.35,1.35,92
-1.35,1.5,91
-1.2,-1.5,96
-1.2,-1.35,97
-1.2,-1.2,99
-1.2,-1.05,100
-1.2,-0.9,102
-1.2,-0.75,99
-1.2,-0.6,99
-1.2,-0.45,100
-1.2,-0.3,100
-1.2,-0.15,100
-1.2,0.0,99
-1.2,0.15,98
-1.2,0.3,110
-1.2,0.45,109
-1.2,0.6,107
-1.2,0.75,105
-1.2,0.9,104
-1.2,1.05,102
-1.2,1.2,100
-1.2,1.35,103
-1.2,1.5,101
-1.05,-1.5,101
-1.05,-1.35,103
-1.05,-1.2,104
-1.05,-1.05,106
-1.05,-0.9,107
-1.05,-0.75,108
-1.05,-0.6,109
-1.05,-0.45,105
-1.05,-0.3,105
-1.05,-0.15,105
-1.05,0.0,104
-1.05,0.15,103
-1.05,0.3,115
-1.05,0.45,114
-1.05,0.6,112
-1.05,0.75,111
-1.05,0.9,113
-1.05,1.05,111
-1.05,1.2,109
-1.05,1.35,108
-1.05,1.5,106
-0.9,-1.5,110
-0.9,-1.35,107
-0.9,-1.2,109
-0.9,-1.05,110
-0.9,-0.9,111
-0.9,-0.75,112
-0.9,-0.6,113
-0.9,-0.45,114
-0.9,-0.3,114
-0.9,-0.15,114
-0.9,0.0,109
-0.9,0.15,108
-0.9,0.3,124
-0.9,0.45,122
-0.9,0.6,120
-0.9,0.75,119
-0.9,0.9,117
-0.9,1.05,115
-0.9,1.2,113
-0.9,1.35,111
-0.9,1.5,110
-0.75,-1.5,114
-0.75,-1.35,111
-0.75,-1.2,113
-0.75,-1.05,114
-0.75,-0.9,115
-0.75,-0.75,116
-0.75,-0.6,117
-0.75,-0.45,117
-0.75,-0.3,122
-0.75,-0.15,125
-0.75,0.0,125
-0.75,0.15,136
-0.75,0.3,127
-0.75,0.45,125
-0.75,0.6,123
-0.75,0.75,121
-0.75,0.9,120
-0.75,1.05,118
-0.75,1.2,116
-0.75,1.35,115
-0.75,1.5,113
-0.6,-1.5,118
-0.6,-1.35,119
-0.6,-1.2,116
-0.6,-1.05,118
-0.6,-0.9,123
-0.6,-0.75,124
-0.6,-0.6,124
-0.6,-0.45,124
-0.6,-0.3,124
-0.6,-0.15,127
-0.6,0.0,126
-0.6,0.15,137
-0.6,0.3,136
-0.6,0.45,135
-0.6,0.6,134
-0.6,0.75,124
-0.6,0.9,122
-0.6,1.05,120
-0.6,1.2,119
-0.6,1.35,117
-0.6,1.5,116
-0.45,-1.5,125
-0.45,-1.35,127
-0.45,-1.2,128
-0.45,-1.05,124
-0.45,-0.9,125
-0.45,-0.75,126
-0.45,-0.6,126
-0.45,-0.45,126
-0.45,-0.3,126
-0.45,-0.15,129
-0.45,0.0,128
-0.45,0.15,138
-0.45,0.3,137
-0.45,0.45,136
-0.45,0.6,134
-0.45,0.75,129
-0.45,0.9,127
-0.45,1.05,126
-0.45,1.2,121
-0.45,1.35,119
-0.45,1.5,118
-0.3,-1.5,126
-0.3,-1.35,128
-0.3,-1.2,129
-0.3,-1.05,131
-0.3,-0.9,128
-0.3,-0.75,129
-0.3,-0.6,129
-0.3,-0.45,129
-0.3,-0.3,129
-0.3,-0.15,132
-0.3,0.0,130
-0.3,0.15,140
-0.3,0.3,138
-0.3,0.45,136
-0.3,0.6,131
-0.3,0.75,129
-0.3,0.9,127
-0.3,1.05,126
-0.3,1.2,125
-0.3,1.35,124
-0.3,1.5,123
-0.15,-1.5,131
-0.15,-1.35,129
-0.15,-1.2,131
-0.15,-1.05,133
-0.15,-0.9,130
-0.15,-0.75,132
-0.15,-0.6,133
-0.15,-0.45,133
-0.15,-0.3,132
-0.15,-0.15,134
-0.15,0.0,132
-0.15,0.15,141
-0.15,0.3,139
-0.15,0.45,137
-0.15,0.6,131
-0.15,0.75,129
-0.15,0.9,127
-0.15,1.05,126
-0.15,1.2,125
-0.15,1.35,124
-0.15,1.5,123
0.0,-1.5,132
0.0,-1.35,135
0.0,-1.2,133
0.0,-1.05,135
0.0,-0.9,134
0.0,-0.75,136
0.0,-0.6,137
0.0,-0.45,137
0.0,-0.3,136
0.0,-0.15,138
0.0,0.0,136
0.0,0.15,143
0.0,0.3,141
0.0,0.45,138
0.0,0.6,131
0.0,0.75,129
0.0,0.9,127
0.0,1.05,125
0.0,1.2,124
0.0,1.35,123
0.0,1.5,122
0.15,-1.5,132
0.15,-1.35,135
0.15,-1.2,139
0.15,-1.05,138
0.15,-0.9,141
0.15,-0.75,140
0.15,-0.6,142
0.15,-0.45,143
0.15,-0.3,142
0.15,-0.15,143
0.15,0.0,139
0.15,0.15,146
0.15,0.3,142
0.15,0.45,138
0.15,0.6,132
0.15,0.75,129
0.15,0.9,127
0.15,1.05,125
0.15,1.2,123
0.15,1.35,122
0.15,1.5,122
0.3,-1.5,133
0.3,-1.35,136
0.3,-1.2,140
0.3,-1.05,141
0.3,-0.9,146
0.3,-0.75,146
0.3,-0.6,149
0.3,-0.45,150
0.3,-0.3,149
0.3,-0.15,149
0.3,0.0,144
0.3,0.15,148
0.3,0.3,143
0.3,0.45,135
0.3,0.6,131
0.3,0.75,128
0.3,0.9,126
0.3,1.05,124
0.3,1.2,123
0.3,1.35,122
0.3,1.5,121
0.45,-1.5,132
0.45,-1.35,136
0.45,-1.2,141
0.45,-1.05,147
0.45,-0.9,151
0.45,-0.75,158
0.45,-0.6,159
0.45,-0.45,161
0.45,-0.3,159
0.45,-0.15,157
0.45,0.0,151
0.45,0.15,152
0.45,0.3,145
0.45,0.45,136
0.45,0.6,130
0.45,0.75,127
0.45,0.9,124
0.45,1.05,123
0.45,1.2,122
0.45,1.35,121
0.45,1.5,120
0.6,-1.5,131
0.6,-1.35,135
0.6,-1.2,141
0.6,-1.05,149
0.6,-0.9,159
0.6,-0.75,167
0.6,-0.6,174
0.6,-0.45,178
0.6,-0.3,174
0.6,-0.15,168
0.6,0.0,159
0.6,0.15,157
0.6,0.3,147
0.6,0.45,135
0.6,0.6,129
0.6,0.75,125
0.6,0.9,123
0.6,1.05,121
0.6,1.2,120
0.6,1.35,120
0.6,1.5,119
0.75,-1.5,129
0.75,-1.35,134
0.75,-1.2,140
0.75,-1.05,149
0.75,-0.9,163
0.75,-0.75,182
0.75,-0.6,200
0.75,-0.45,208
0.75,-0.3,196
0.75,-0.15,183
0.75,0.0,174
0.75,0.15,165
0.75,0.3,148
0.75,0.45,133
0.75,0.6,126
0.75,0.75,122
0.75,0.9,120
0.75,1.05,120
0.75,1.2,119
0.75,1.35,119
0.75,1.5,118
0.9,-1.5,126
0.9,-1.35,130
0.9,-1.2,136
0.9,-1.05,146
0.9,-0.9,163
0.9,-0.75,191
0.9,-0.6,236
0.9,-0.45,255
0.9,-0.3,235
0.9,-0.15,199
0.9,0.0,208
0.9,0.15,178
0.9,0.3,143
0.9,0.45,127
0.9,0.6,120
0.9,0.75,118
0.9,0.9,118
0.9,1.05,118
0.9,1.2,118
0.9,1.35,118
0.9,1.5,111
1.05,-1.5,126
1.05,-1.35,129
1.05,-1.2,130
1.05,-1.05,139
1.05,-0.9,154
1.05,-0.75,184
1.05,-0.6,255
1.05,-0.45,255
1.05,-0.3,255
1.05,-0.15,193
1.05,0.0,255
1.05,0.15,176
1.05,0.3,128
1.05,0.45,115
1.05,0.6,113
1.05,0.75,114
1.05,0.9,116
1.05,1.05,100
1.05,1.2,111
1.05,1.35,111
1.05,1.5,111
1.2,-1.5,104
1.2,-1.35,107
1.2,-1.2,126
1.2,-1.05,127
1.2,-0.9,136
1.2,-0.75,153
1.2,-0.6,185
1.2,-0.45,217
1.2,-0.3,147
1.2,-0.15,106
1.2,0.0,115
1.2,0.15,112
1.2,0.3,95
1.2,0.45,98
1.2,0.6,94
1.2,0.75,99
1.2,0.9,111
1.2,1.05,112
1.2,1.2,113
1.2,1.35,112
1.2,1.5,112
1.35,-1.5,103
1.35,-1.35,104
1.35,-1.2,98
1.35,-1.05,104
1.35,-0.9,104
1.35,-0.75,110
1.35,-0.6,109
1.35,-0.45,85
1.35,-0.3,79
1.35,-0.15,71
1.35,0.0,67
1.35,0.15,46
1.35,0.3,56
1.35,0.45,79
1.35,0.6,97
1.35,0.75,114
1.35,0.9,116
1.35,1.05,116
1.35,1.2,115
1.35,1.35,111
1.35,1.5,110
1.5,-1.5,104
1.5,-1.35,103
1.5,-1.2,98
1.5,-1.05,89
1.5,-0.9,88
1.5,-0.75,86
1.5,-0.6,82
1.5,-0.45,79
1.5,-0.3,73
1.5,-0.15,40
1.5,0.0,15
1.5,0.15,25
1.5,0.3,55
1.5,0.45,90
1.5,0.6,126
1.5,0.75,131
1.5,0.9,124
1.5,1.05,119
1.5,1.2,115
1.5,1.35,112
1.5,1.5,110
1.65,-1.5,81
1.65,-1.35,98
1.65,-1.2,96
1.65,-1.05,85
1.65,-0.9,81
1.65,-0.75,66
1.65,-0.6,66
1.65,-0.45,68
1.65,-0.3,75
1.65,-0.15,59
1.65,0.0,50
1.65,0.15,55
1.65,0.3,79
1.65,0.45,150
1.65,0.6,188
1.65,0.75,151
1.65,0.9,127
1.65,1.05,117
1.65,1.2,110
1.65,1.35,102
1.65,1.5,99
1.8,-1.5,74
1.8,-1.35,77
1.8,-1.2,76
1.8,-1.05,70
1.8,-0.9,64
1.8,-0.75,64
1.8,-0.6,66
1.8,-0.45,68
1.8,-0.3,126
1.8,-0.15,63
1.8,0.0,68
1.8,0.15,74
1.8,0.3,91
1.8,0.45,191
1.8,0.6,240
1.8,0.75,165
1.8,0.9,134
1.8,1.05,116
1.8,1.2,108
1.8,1.35,102
1.8,1.5,98
1.95,-1.5,75
1.95,-1.35,74
1.95,-1.2,74
1.95,-1.05,72
1.95,-0.9,66
1.95,-0.75,67
1.95,-0.6,62
1.95,-0.45,58
1.95,-0.3,47
1.95,-0.15,62
1.95,0.0,76
1.95,0.15,70
1.95,0.3,72
1.95,0.45,97
1.95,0.6,149
1.95,0.75,140
1.95,0.9,125
1.95,1.05,116
1.95,1.2,105
1.95,1.35,100
1.95,1.5,96
2.1,-1.5,76
2.1,-1.35,77
2.1,-1.2,77
2.1,-1.05,77
2.1,-0.9,75
2.1,-0.75,67
2.1,-0.6,56
2.1,-0.45,29
2.1,-0.3,48
2.1,-0.15,67
2.1,0.0,112
2.1,0.15,98
2.1,0.3,84
2.1,0.45,89
2.1,0.6,104
2.1,0.75,110
2.1,0.9,112
2.1,1.05,108
2.1,1.2,104
2.1,1.35,86
2.1,1.5,103
2.25,-1.5,78
2.25,-1.35,79
2.25,-1.2,81
2.25,-1.05,83
2.25,-0.9,85
2.25,-0.75,87
2.25,-0.6,91
2.25,-0.45,16
2.25,-0.3,21
2.25,-0.15,51
2.25,0.0,63
2.25,0.15,43
2.25,0.3,67
2.25,0.45,80
2.25,0.6,88
2.25,0.75,93
2.25,0.9,94
2.25,1.05,111
2.25,1.2,97
2.25,1.35,96
2.25,1.5,124
2.4,-1.5,78
2.4,-1.35,78
2.4,-1.2,79
2.4,-1.05,91
2.4,-0.9,99
2.4,-0.75,116
2.4,-0.6,83
2.4,-0.45,68
2.4,-0.3,47
2.4,-0.15,38
2.4,0.0,22
2.4,0.15,42
2.4,0.3,76
2.4,0.45,68
2.4,0.6,68
2.4,0.75,77
2.4,0.9,85
2.4,1.05,96
2.4,1.2,120
2.4,1.35,120
2.4,1.5,121
2.55,-1.5,87
2.55,-1.35,93
2.55,-1.2,94
2.55,-1.05,97
2.55,-0.9,105
2.55,-0.75,128
2.55,-0.6,85
2.55,-0.45,70
2.55,-0.3,76
2.55,-0.15,64
2.55,0.0,42
2.55,0.15,56
2.55,0.3,70
2.55,0.45,68
2.55,0.6,74
2.55,0.75,86
2.55,0.9,108
2.55,1.05,113
2.55,1.2,115
2.55,1.35,117
2.55,1.5,118
2.7,-1.5,82
2.7,-1.35,82
2.7,-1.2,83
2.7,-1.05,82
2.7,-0.9,85
2.7,-0.75,97
2.7,-0.6,82
2.7,-0.45,118
2.7,-0.3,217
2.7,-0.15,44
2.7,0.0,56
2.7,0.15,65
2.7,0.3,71
2.7,0.45,90
2.7,0.6,107
2.7,0.75,105
2.7,0.9,103
2.7,1.05,105
2.7,1.2,108
2.7,1.35,114
2.7,1.5,109
2.85,-1.5,76
2.85,-1.35,76
2.85,-1.2,76
2.85,-1.05,71
2.85,-0.9,69
2.85,-0.75,66
2.85,-0.6,64
2.85,-0.45,64
2.85,-0.3,67
2.85,-0.15,88
2.85,0.0,58
2.85,0.15,94
2.85,0.3,105
2.85,0.45,134
2.85,0.6,117
2.85,0.75,89
2.85,0.9,98
2.85,1.05,104
2.85,1.2,106
2.85,1.35,109
2.85,1.5,111
3.0,-1.5,83
3.0,-1.35,77
3.0,-1.2,63
3.0,-1.05,74
3.0,-0.9,74
3.0,-0.75,73
3.0,-0.6,69
3.0,-0.45,94
3.0,-0.3,59
3.0,-0.15,56
3.0,0.0,37
3.0,0.15,83
3.0,0.3,125
3.0,0.45,216
3.0,0.6,97
3.0,0.75,24
3.0,0.9,82
3.0,1.05,100
3.0,1.2,108
3.0,1.35,111
3.0,1.5,111
3.15,-1.5,89
3.15,-1.35,77
3.15,-1.2,67
3.15,-1.05,61
3.15,-0.9,73
3.15,-0.75,69
3.15,-0.6,87
3.15,-0.45,100
3.15,-0.3,91
3.15,-0.15,97
3.15,0.0,11
3.15,0.15,103
3.15,0.3,80
3.15,0.45,208
3.15,0.6,139
3.15,0.75,77
3.15,0.9,88
3.15,1.05,101
3.15,1.2,108
3.15,1.35,111
3.15,1.5,110
3.3,-1.5,89
3.3,-1.35,89
3.3,-1.2,89
3.3,-1.05,84
3.3,-0.9,96
3.3,-0.75,99
3.3,-0.6,117
3.3,-0.45,175
3.3,-0.3,48
3.3,-0.15,154
3.3,0.0,60
3.3,0.15,226
3.3,0.3,11
3.3,0.45,143
3.3,0.6,127
3.3,0.75,77
3.3,0.9,94
3.3,1.05,105
3.3,1.2,101
3.3,1.35,101
3.3,1.5,101
3.45,-1.5,85
3.45,-1.35,85
3.45,-1.2,103
3.45,-1.05,116
3.45,-0.9,116
3.45,-0.75,116
3.45,-0.6,99
3.45,-0.45,135
3.45,-0.3,200
3.45,-0.15,73
3.45,0.0,78
3.45,0.15,52
3.45,0.3,117
3.45,0.45,74
3.45,0.6,102
3.45,0.75,109
3.45,0.9,96
3.45,1.05,101
3.45,1.2,102
3.45,1.35,106
3.45,1.5,106
3.6,-1.5,85
3.6,-1.35,85
3.6,-1.2,85
3.6,-1.05,88
3.6,-0.9,77
3.6,-0.75,115
3.6,-0.6,207
3.6,-0.45,255
3.6,-0.3,96
3.6,-0.15,55
3.6,0.0,7
3.6,0.15,99
3.6,0.3,74
3.6,0.45,83
3.6,0.6,81
3.6,0.75,104
3.6,0.9,96
3.6,1.05,98
3.6,1.2,99
3.6,1.35,99
3.6,1.5,113
3.75,-1.5,62
3.75,-1.35,75
3.75,-1.2,74
3.75,-1.05,71
3.75,-0.9,71
3.75,-0.75,68
3.75,-0.6,3
3.75,-0.45,214
3.75,-0.3,134
3.75,-0.15,150
3.75,0.0,75
3.75,0.15,137
3.75,0.3,19
3.75,0.45,73
3.75,0.6,87
3.75,0.75,123
3.75,0.9,121
3.75,1.05,123
3.75,1.2,101
3.75,1.35,99
3.75,1.5,99
3.9,-1.5,44
3.9,-1.35,43
3.9,-1.2,41
3.9,-1.05,36
3.9,-0.9,21
3.9,-0.75,0
3.9,-0.6,73
3.9,-0.45,125
3.9,-0.3,71
3.9,-0.15,76
3.9,0.0,58
3.9,0.15,68
3.9,0.3,255
3.9,0.45,113
3.9,0.6,74
3.9,0.75,123
3.9,0.9,123
3.9,1.05,111
3.9,1.2,100
3.9,1.35,99
3.9,1.5,99
4.05,-1.5,60
4.05,-1.35,64
4.05,-1.2,63
4.05,-1.05,77
4.05,-0.9,69
4.05,-0.75,45
4.05,-0.6,60
4.05,-0.45,125
4.05,-0.3,255
4.05,-0.15,34
4.05,0.0,51
4.05,0.15,51
4.05,0.3,115
4.05,0.45,119
4.05,0.6,103
4.05,0.75,123
4.05,0.9,113
4.05,1.05,112
4.05,1.2,107
4.05,1.35,105
4.05,1.5,105
4.2,-1.5,35
4.2,-1.35,46
4.2,-1.2,67
4.2,-1.05,69
4.2,-0.9,80
4.2,-0.75,130
4.2,-0.6,255
4.2,-0.45,149
4.2,-0.3,248
4.2,-0.15,69
4.2,0.0,58
4.2,0.15,146
4.2,0.3,134
4.2,0.45,127
4.2,0.6,145
4.2,0.75,134
4.2,0.9,135
4.2,1.05,123
4.2,1.2,109
4.2,1.35,101
4.2,1.5,99
4.35,-1.5,41
4.35,-1.35,41
4.35,-1.2,46
4.35,-1.05,71
4.35,-0.9,66
4.35,-0.75,62
4.35,-0.6,96
4.35,-0.45,66
4.35,-0.3,59
4.35,-0.15,218
4.35,0.0,44
4.35,0.15,93
4.35,0.3,54
4.35,0.45,100
4.35,0.6,255
4.35,0.75,173
4.35,0.9,152
4.35,1.05,133
4.35,1.2,91
4.35,1.35,79
4.35,1.5,89
4.5,-1.5,44
4.5,-1.35,44
4.5,-1.2,43
4.5,-1.05,32
4.5,-0.9,45
4.5,-0.75,19
4.5,-0.6,78
4.5,-0.45,127
4.5,-0.3,58
4.5,-0.15,119
4.5,0.0,179
4.5,0.15,138
4.5,0.3,4
4.5,0.45,112
4.5,0.6,149
4.5,0.75,144
4.5,0.9,129
4.5,1.05,111
4.5,1.2,79
4.5,1.35,67
4.5,1.5,88
4.65,-1.5,27
4.65,-1.35,27
4.65,-1.2,28
4.65,-1.05,35
4.65,-0.9,64
4.65,-0.75,106
4.65,-0.6,26
4.65,-0.45,32
4.65,-0.3,74
4.65,-0.15,52
4.65,0.0,47
4.65,0.15,9
4.65,0.3,5
4.65,0.45,149
4.65,0.6,133
4.65,0.75,124
4.65,0.9,123
4.65,1.05,120
4.65,1.2,99
4.65,1.35,88
4.65,1.5,91
4.8,-1.5,48
4.8,-1.35,46
4.8,-1.2,27
4.8,-1.05,27
4.8,-0.9,26
4.8,-0.75,70
4.8,-0.6,144
4.8,-0.45,43
4.8,-0.3,69
4.8,-0.15,42
4.8,0.0,107
4.8,0.15,62
4.8,0.3,75
4.8,0.45,124
4.8,0.6,93
4.8,0.75,108
4.8,0.9,124
4.8,1.05,122
4.8,1.2,95
4.8,1.35,91
4.8,1.5,91
4.95,-1.5,62
4.95,-1.35,56
4.95,-1.2,52
4.95,-1.05,39
4.95,-0.9,28
4.95,-0.75,26
4.95,-0.6,46
4.95,-0.45,132
4.95,-0.3,47
4.95,-0.15,6
4.95,0.0,51
4.95,0.15,51
4.95,0.3,51
4.95,0.45,99
4.95,0.6,10
4.95,0.75,83
4.95,0.9,94
4.95,1.05,100
4.95,1.2,111
4.95,1.35,110
4.95,1.5,94
5.1,-1.5,81
5.1,-1.35,81
5.1,-1.2,79
5.1,-1.05,44
5.1,-0.9,28
5.1,-0.75,3
5.1,-0.6,2
5.1,-0.45,74
5.1,-0.3,66
5.1,-0.15,31
5.1,0.0,52
5.1,0.15,255
5.1,0.3,123
5.1,0.45,79
5.1,0.6,116
5.1,0.75,90
5.1,0.9,90
5.1,1.05,73
5.1,1.2,84
5.1,1.35,84
5.1,1.5,80
5.25,-1.5,82
5.25,-1.35,87
5.25,-1.2,96
5.25,-1.05,113
5.25,-0.9,125
5.25,-0.75,54
5.25,-0.6,12
5.25,-0.45,40
5.25,-0.3,15
5.25,-0.15,28
5.25,0.0,47
5.25,0.15,0
5.25,0.3,70
5.25,0.45,120
5.25,0.6,73
5.25,0.75,101
5.25,0.9,90
5.25,1.05,92
5.25,1.2,76
5.25,1.35,76
5.25,1.5,76
5.4,-1.5,89
5.4,-1.35,97
5.4,-1.2,114
5.4,-1.05,140
5.4,-0.9,217
5.4,-0.75,120
5.4,-0.6,30
5.4,-0.45,4
5.4,-0.3,35
5.4,-0.15,35
5.4,0.0,76
5.4,0.15,44
5.4,0.3,71
5.4,0.45,140
5.4,0.6,86
5.4,0.75,68
5.4,0.9,81
5.4,1.05,91
5.4,1.2,93
5.4,1.35,94
5.4,1.5,94
5.55,-1.5,100
5.55,-1.35,106
5.55,-1.2,114
5.55,-1.05,123
5.55,-0.9,125
5.55,-0.75,199
5.55,-0.6,57
5.55,-0.45,18
5.55,-0.3,184
5.55,-0.15,53
5.55,0.0,64
5.55,0.15,76
5.55,0.3,74
5.55,0.45,100
5.55,0.6,95
5.55,0.75,92
5.55,0.9,104
5.55,1.05,91
5.55,1.2,93
5.55,1.35,94
5.55,1.5,95
5.7,-1.5,132
5.7,-1.35,133
5.7,-1.2,126
5.7,-1.05,125
5.7,-0.9,118
5.7,-0.75,86
5.7,-0.6,64
5.7,-0.45,41
5.7,-0.3,27
5.7,-0.15,80
5.7,0.0,68
5.7,0.15,47
5.7,0.3,143
5.7,0.45,96
5.7,0.6,71
5.7,0.75,107
5.7,0.9,127
5.7,1.05,136
5.7,1.2,136
5.7,1.35,122
5.7,1.5,124
5.85,-1.5,145
5.85,-1.35,144
5.85,-1.2,131
5.85,-1.05,124
5.85,-0.9,82
5.85,-0.75,58
5.85,-0.6,36
5.85,-0.45,112
5.85,-0.3,63
5.85,-0.15,100
5.85,0.0,86
5.85,0.15,60
5.85,0.3,225
5.85,0.45,162
5.85,0.6,130
5.85,0.75,136
5.85,0.9,136
5.85,1.05,136
5.85,1.2,128
5.85,1.35,128
5.85,1.5,122
6.0,-1.5,140
6.0,-1.35,139
6.0,-1.2,108
6.0,-1.05,90
6.0,-0.9,88
6.0,-0.75,81
6.0,-0.6,63
6.0,-0.45,36
6.0,-0.3,32
6.0,-0.15,43
6.0,0.0,59
6.0,0.15,50
6.0,0.3,255
6.0,0.45,152
6.0,0.6,136
6.0,0.75,136
6.0,0.9,134
6.0,1.05,132
6.0,1.2,131
6.0,1.35,130
6.0,1.5,130
6.15,-1.5,114
6.15,-1.35,93
6.15,-1.2,98
6.15,-1.05,106
6.15,-0.9,129
6.15,-0.75,125
6.15,-0.6,137
6.15,-0.45,67
6.15,-0.3,66
6.15,-0.15,32
6.15,0.0,105
6.15,0.15,183
6.15,0.3,181
6.15,0.45,171
6.15,0.6,135
6.15,0.75,135
6.15,0.9,131
6.15,1.05,117
6.15,1.2,116
6.15,1.35,128
6.15,1.5,129
6.3,-1.5,91
6.3,-1.35,113
6.3,-1.2,118
6.3,-1.05,130
6.3,-0.9,169
6.3,-0.75,255
6.3,-0.6,38
6.3,-0.45,94
6.3,-0.3,81
6.3,-0.15,48
6.3,0.0,72
6.3,0.15,86
6.3,0.3,17
6.3,0.45,107
6.3,0.6,125
6.3,0.75,122
6.3,0.9,112
6.3,1.05,110
6.3,1.2,103
6.3,1.35,99
6.3,1.5,100
6.45,-1.5,90
6.45,-1.35,92
6.45,-1.2,97
6.45,-1.05,104
6.45,-0.9,117
6.45,-0.75,99
6.45,-0.6,42
6.45,-0.45,32
6.45,-0.3,5
6.45,-0.15,132
6.45,0.0,111
6.45,0.15,110
6.45,0.3,70
6.45,0.45,65
6.45,0.6,47
6.45,0.75,55
6.45,0.9,67
6.45,1.05,73
6.45,1.2,76
6.45,1.35,83
6.45,1.5,90
6.6,-1.5,71
6.6,-1.35,73
6.6,-1.2,76
6.6,-1.05,82
6.6,-0.9,78
6.6,-0.75,67
6.6,-0.6,56
6.6,-0.45,56
6.6,-0.3,21
6.6,-0.15,126
6.6,0.0,132
6.6,0.15,119
6.6,0.3,76
6.6,0.45,58
6.6,0.6,0
6.6,0.75,25
6.6,0.9,50
6.6,1.05,60
6.6,1.2,64
6.6,1.35,67
6.6,1.5,68
6.75,-1.5,67
6.75,-1.35,62
6.75,-1.2,62
6.75,-1.05,60
6.75,-0.9,60
6.75,-0.75,44
6.75,-0.6,53
6.75,-0.45,47
6.75,-0.3,137
6.75,-0.15,253
6.75,0.0,64
6.75,0.15,81
6.75,0.3,62
6.75,0.45,51
6.75,0.6,38
6.75,0.75,50
6.75,0.9,58
6.75,1.05,65
6.75,1.2,68
6.75,1.35,70
6.75,1.5,71
6.9,-1.5,67
6.9,-1.35,67
6.9,-1.2,53
6.9,-1.05,40
6.9,-0.9,40
6.9,-0.75,40
6.9,-0.6,47
6.9,-0.45,20
6.9,-0.3,60
6.9,-0.15,28
6.9,0.0,117
6.9,0.15,57
6.9,0.3,31
6.9,0.45,45
6.9,0.6,66
6.9,0.75,74
6.9,0.9,76
6.9,1.05,80
6.9,1.2,80
6.9,1.35,75
6.9,1.5,74
7.05,-1.5,67
7.05,-1.35,53
7.05,-1.2,52
7.05,-1.05,52
7.05,-0.9,53
7.05,-0.75,47
7.05,-0.6,15
7.05,-0.45,47
7.05,-0.3,102
7.05,-0.15,70
7.05,0.0,102
7.05,0.15,94
7.05,0.3,67
7.05,0.45,82
7.05,0.6,116
7.05,0.75,112
7.05,0.9,95
7.05,1.05,82
7.05,1.2,75
7.05,1.35,80
7.05,1.5,78
7.2,-1.5,64
7.2,-1.35,64
7.2,-1.2,64
7.2,-1.05,64
7.2,-0.9,64
7.2,-0.75,77
7.2,-0.6,98
7.2,-0.45,123
7.2,-0.3,75
7.2,-0.15,123
7.2,0.0,192
7.2,0.15,171
7.2,0.3,101
7.2,0.45,123
7.2,0.6,248
7.2,0.75,174
7.2,0.9,117
7.2,1.05,89
7.2,1.2,77
7.2,1.35,70
7.2,1.5,65
7.35,-1.5,64
7.35,-1.35,64
7.35,-1.2,75
7.35,-1.05,76
7.35,-0.9,78
7.35,-0.75,84
7.35,-0.6,101
7.35,-0.45,91
7.35,-0.3,110
7.35,-0.15,102
7.35,0.0,142
7.35,0.15,8
7.35,0.3,32
7.35,0.45,104
7.35,0.6,204
7.35,0.75,178
7.35,0.9,139
7.35,1.05,118
7.35,1.2,87
7.35,1.35,80
7.35,1.5,76
7.5,-1.5,64
7.5,-1.35,64
7.5,-1.2,64
7.5,-1.05,77
7.5,-0.9,95
7.5,-0.75,104
7.5,-0.6,91
7.5,-0.45,43
7.5,-0.3,105
7.5,-0.15,93
7.5,0.0,214
7.5,0.15,129
7.5,0.3,75
7.5,0.45,102
7.5,0.6,134
7.5,0.75,158
7.5,0.9,158
7.5,1.05,144
7.5,1.2,137
7.5,1.35,108
7.5,1.5,105
7.65,-1.5,78
7.65,-1.35,93
7.65,-1.2,99
7.65,-1.05,98
7.65,-0.9,101
7.65,-0.75,111
7.65,-0.6,83
7.65,-0.45,84
7.65,-0.3,108
7.65,-0.15,162
7.65,0.0,217
7.65,0.15,241
7.65,0.3,109
7.65,0.45,122
7.65,0.6,146
7.65,0.75,159
7.65,0.9,142
7.65,1.05,142
7.65,1.2,141
7.65,1.35,140
7.65,1.5,110
7.8,-1.5,99
7.8,-1.35,100
7.8,-1.2,100
7.8,-1.05,101
7.8,-0.9,92
7.8,-0.75,92
7.8,-0.6,92
7.8,-0.45,98
7.8,-0.3,106
7.8,-0.15,145
7.8,0.0,221
7.8,0.15,241
7.8,0.3,190
7.8,0.45,158
7.8,0.6,162
7.8,0.75,162
7.8,0.9,149
7.8,1.05,149
7.8,1.2,149
7.8,1.35,149
7.8,1.5,134
7.95,-1.5,98
7.95,-1.35,92
7.95,-1.2,92
7.95,-1.05,92
7.95,-0.9,92
7.95,-0.75,113
7.95,-0.6,135
7.95,-0.45,111
7.95,-0.3,134
7.95,-0.15,216
7.95,0.0,177
7.95,0.15,229
7.95,0.3,204
7.95,0.45,172
7.95,0.6,158
7.95,0.75,154
7.95,0.9,154
7.95,1.05,154
7.95,1.2,150
7.95,1.35,149
7.95,1.5,149
8.1,-1.5,124
8.1,-1.35,124
8.1,-1.2,123
8.1,-1.05,109
8.1,-0.9,105
8.1,-0.75,100
8.1,-0.6,153
8.1,-0.45,193
8.1,-0.3,85
8.1,-0.15,70
8.1,0.0,121
8.1,0.15,66
8.1,0.3,130
8.1,0.45,153
8.1,0.6,172
8.1,0.75,172
8.1,0.9,158
8.1,1.05,154
8.1,1.2,154
8.1,1.35,154
8.1,1.5,154
8.25,-1.5,124
8.25,-1.35,122
8.25,-1.2,119
8.25,-1.05,104
8.25,-0.9,96
8.25,-0.75,64
8.25,-0.6,8
8.25,-0.45,78
8.25,-0.3,36
8.25,-0.15,78
8.25,0.0,85
8.25,0.15,75
8.25,0.3,103
8.25,0.45,128
8.25,0.6,149
8.25,0.75,153
8.25,0.9,155
8.25,1.05,171
8.25,1.2,177
8.25,1.35,148
8.25,1.5,148
8.4,-1.5,127
8.4,-1.35,126
8.4,-1.2,124
8.4,-1.05,120
8.4,-0.9,112
8.4,-0.75,101
8.4,-0.6,104
8.4,-0.45,143
8.4,-0.3,152
8.4,-0.15,124
8.4,0.0,152
8.4,0.15,109
8.4,0.3,119
8.4,0.45,147
8.4,0.6,153
8.4,0.75,131
8.4,0.9,133
8.4,1.05,129
8.4,1.2,144
8.4,1.35,166
8.4,1.5,166
8.55,-1.5,129
8.55,-1.35,129
8.55,-1.2,128
8.55,-1.05,127
8.55,-0.9,123
8.55,-0.75,123
8.55,-0.6,84
8.55,-0.45,165
8.55,-0.3,150
8.55,-0.15,216
8.55,0.0,166
8.55,0.15,118
8.55,0.3,101
8.55,0.45,94
8.55,0.6,105
8.55,0.75,120
8.55,0.9,121
8.55,1.05,123
8.55,1.2,124
8.55,1.35,125
8.55,1.5,142
8.7,-1.5,131
8.7,-1.35,131
8.7,-1.2,132
8.7,-1.05,134
8.7,-0.9,137
8.7,-0.75,141
8.7,-0.6,123
8.7,-0.45,55
8.7,-0.3,132
8.7,-0.15,113
8.7,0.0,130
8.7,0.15,96
8.7,0.3,86
8.7,0.45,84
8.7,0.6,83
8.7,0.75,83
8.7,0.9,103
8.7,1.05,104
8.7,1.2,105
8.7,1.35,142
8.7,1.5,142
8.85,-1.5,132
8.85,-1.35,133
8.85,-1.2,134
8.85,-1.05,130
8.85,-0.9,143
8.85,-0.75,177
8.85,-0.6,253
8.85,-0.45,178
8.85,-0.3,165
8.85,-0.15,80
8.85,0.0,38
8.85,0.15,47
8.85,0.3,61
8.85,0.45,67
8.85,0.6,72
8.85,0.75,74
8.85,0.9,75
8.85,1.05,76
8.85,1.2,77
8.85,1.35,93
8.85,1.5,94
9.0,-1.5,123
9.0,-1.35,125
9.0,-1.2,128
9.0,-1.05,133
9.0,-0.9,145
9.0,-0.75,168
9.0,-0.6,197
9.0,-0.45,132
9.0,-0.3,68
9.0,-0.15,24
9.0,0.0,12
9.0,0.15,19
9.0,0.3,51
9.0,0.45,66
9.0,0.6,76
9.0,0.75,73
9.0,0.9,73
9.0,1.05,74
9.0,1.2,75
9.0,1.35,76
9.0,1.5,77
9.15,-1.5,121
9.15,-1.35,123
9.15,-1.2,124
9.15,-1.05,125
9.15,-0.9,123
9.15,-0.75,105
9.15,-0.6,92
9.15,-0.45,96
9.15,-0.3,73
9.15,-0.15,34
9.15,0.0,31
9.15,0.15,39
9.15,0.3,54
9.15,0.45,65
9.15,0.6,79
9.15,0.75,79
9.15,0.9,79
9.15,1.05,73
9.15,1.2,73
9.15,1.35,73
9.15,1.5,77
9.3,-1.5,102
9.3,-1.35,103
9.3,-1.2,104
9.3,-1.05,103
9.3,-0.9,99
9.3,-0.75,85
9.3,-0.6,70
9.3,-0.45,91
9.3,-0.3,118
9.3,-0.15,54
9.3,0.0,33
9.3,0.15,54
9.3,0.3,60
9.3,0.45,69
9.3,0.6,74
9.3,0.75,79
9.3,0.9,82
9.3,1.05,81
9.3,1.2,73
9.3,1.35,73
9.3,1.5,73
9.45,-1.5,100
9.45,-1.35,100
9.45,-1.2,99
9.45,-1.05,97
9.45,-0.9,94
9.45,-0.75,89
9.45,-0.6,86
9.45,-0.45,95
9.45,-0.3,110
9.45,-0.15,102
9.45,0.0,75
9.45,0.15,63
9.45,0.3,59
9.45,0.45,74
9.45,0.6,77
9.45,0.75,80
9.45,0.9,83
9.45,1.05,85
9.45,1.2,83
9.45,1.35,73
9.45,1.5,73
9.6,-1.5,97
9.6,-1.35,96
9.6,-1.2,95
9.6,-1.05,93
9.6,-0.9,90
9.6,-0.75,86
9.6,-0.6,85
9.6,-0.45,92
9.6,-0.3,104
9.6,-0.15,134
9.6,0.0,101
9.6,0.15,77
9.6,0.3,60
9.6,0.45,55
9.6,0.6,53
9.6,0.75,71
9.6,0.9,72
9.6,1.05,73
9.6,1.2,74
9.6,1.35,75
9.6,1.5,75
9.75,-1.5,94
9.75,-1.35,93
9.75,-1.2,88
9.75,-1.05,88
9.75,-0.9,84
9.75,-0.75,77
9.75,-0.6,71
9.75,-0.45,75
9.75,-0.3,83
9.75,-0.15,97
9.75,0.0,87
9.75,0.15,72
9.75,0.3,62
9.75,0.45,56
9.75,0.6,53
9.75,0.75,51
9.75,0.9,49
9.75,1.05,49
9.75,1.2,49
9.75,1.35,71
9.75,1.5,75
9.9,-1.5,91
9.9,-1.35,86
9.9,-1.2,87
9.9,-1.05,83
9.9,-0.9,79
9.9,-0.75,73
9.9,-0.6,67
9.9,-0.45,68
9.9,-0.3,69
9.9,-0.15,74
9.9,0.0,73
9.9,0.15,67
9.9,0.3,62
9.9,0.45,57
9.9,0.6,54
9.9,0.75,52
9.9,0.9,51
9.9,1.05,50
9.9,1.2,49
9.9,1.35,49
9.9,1.5,49
10.05,-1.5,88
10.05,-1.35,86
10.05,-1.2,83
10.05,-1.05,80
10.05,-0.9,76
10.05,-0.75,73
10.05,-0.6,67
10.05,-0.45,66
10.05,-0.3,65
10.05,-0.15,65
10.05,0.0,64
10.05,0.15,62
10.05,0.3,59
10.05,0.45,57
10.05,0.6,54
10.05,0.75,53
10.05,0.9,51
10.05,1.05,50
10.05,1.2,50
10.05,1.35,49
10.05,1.5,49
10.2,-1.5,85
10.2,-1.35,82
10.2,-1.2,80
10.2,-1.05,76
10.2,-0.9,73
10.2,-0.75,70
10.2,-0.6,63
10.2,-0.45,63
10.2,-0.3,61
10.2,-0.15,60
10.2,0.0,59
10.2,0.15,57
10.2,0.3,56
10.2,0.45,55
10.2,0.6,50
10.2,0.75,49
10.2,0.9,47
10.2,1.05,46
10.2,1.2,45
10.2,1.35,45
10.2,1.5,44
10.35,-1.5,79
10.35,-1.35,68
10.35,-1.2,66
10.35,-1.05,64
10.35,-0.9,61
10.35,-0.75,58
10.35,-0.6,54
10.35,-0.45,51
10.35,-0.3,63
10.35,-0.15,59
10.35,0.0,53
10.35,0.15,52
10.35,0.3,50
10.35,0.45,49
10.35,0.6,48
10.35,0.75,47
10.35,0.9,46
10.35,1.05,45
10.35,1.2,45
10.35,1.35,44
10.35,1.5,44
10.5,-1.5,67
10.5,-1.35,65
10.5,-1.2,63
10.5,-1.05,60
10.5,-0.9,56
10.5,-0.75,51
10.5,-0.6,42
10.5,-0.45,28
10.5,-0.3,23
10.5,-0.15,39
10.5,0.0,44
10.5,0.15,46
10.5,0.3,48
10.5,0.45,46
10.5,0.6,46
10.5,0.75,45
10.5,0.9,45
10.5,1.05,44
10.5,1.2,44
10.5,1.35,43
10.5,1.5,43
10.65,-1.5,64
10.65,-1.35,62
10.65,-1.2,60
10.65,-1.05,57
10.65,-0.9,52
10.65,-0.75,45
10.65,-0.6,34
10.65,-0.45,13
10.65,-0.3,0
10.65,-0.15,19
10.65,0.0,34
10.65,0.15,40
10.65,0.3,43
10.65,0.45,42
10.65,0.6,43
10.65,0.75,43
10.65,0.9,43
10.65,1.05,43
10.65,1.2,43
10.65,1.35,43
10.65,1.5,42
10.8,-1.5,59
10.8,-1.35,60
10.8,-1.2,57
10.8,-1.05,54
10.8,-0.9,49
10.8,-0.75,43
10.8,-0.6,34
10.8,-0.45,20
10.8,-0.3,16
10.8,-0.15,22
10.8,0.0,31
10.8,0.15,36
10.8,0.3,39
10.8,0.45,38
10.8,0.6,39
10.8,0.75,40
10.8,0.9,41
10.8,1.05,41
10.8,1.2,41
10.8,1.35,41
10.8,1.5,41
10.95,-1.5,56
10.95,-1.35,54
10.95,-1.2,52
10.95,-1.05,49
10.95,-0.9,47
10.95,-0.75,42
10.95,-0.6,36
10.95,-0.45,26
10.95,-0.3,24
10.95,-0.15,26
10.95,0.0,29
10.95,0.15,32
10.95,0.3,34
10.95,0.45,34
10.95,0.6,36
10.95,0.75,37
10.95,0.9,35
10.95,1.05,35
10.95,1.2,39
10.95,1.35,39
10.95,1.5,39
11.1,-1.5,54
11.1,-1.35,52
11.1,-1.2,50
11.1,-1.05,47
11.1,-0.9,44
11.1,-0.75,39
11.1,-0.6,31
11.1,-0.45,27
11.1,-0.3,25
11.1,-0.15,23
11.1,0.0,23
11.1,0.15,25
11.1,0.3,28
11.1,0.45,29
11.1,0.6,32
11.1,0.75,34
11.1,0.9,32
11.1,1.05,33
11.1,1.2,37
11.1,1.35,37
11.1,1.5,37
11.25,-1.5,51
11.25,-1.35,49
11.25,-1.2,47
11.25,-1.05,45
11.25,-0.9,41
11.25,-0.75,32
11.25,-0.6,28
11.25,-0.45,24
11.25,-0.3,19
11.25,-0.15,14
11.25,0.0,13
11.25,0.15,15
11.25,0.3,19
11.25,0.45,24
11.25,0.6,28
11.25,0.75,31
11.25,0.9,30
11.25,1.05,31
11.25,1.2,31
11.25,1.35,35
11.25,1.5,35
11.4,-1.5,48
11.4,-1.35,47
11.4,-1.2,45
11.4,-1.05,42
11.4,-0.9,39
11.4,-0.75,30
11.4,-0.6,25
11.4,-0.45,19
11.4,-0.3,10
11.4,-0.15,3
11.4,0.0,1
11.4,0.15,6
11.4,0.3,13
11.4,0.45,19
11.4,0.6,24
11.4,0.75,28
11.4,0.9,30
11.4,1.05,29
11.4,1.2,29
11.4,1.35,33
11.4,1.5,33
11.55,-1.5,45
11.55,-1.35,44
11.55,-1.2,42
11.55,-1.05,40
11.55,-0.9,37
11.55,-0.75,27
11.55,-0.6,21
11.55,-0.45,14
11.55,-0.3,6
11.55,-0.15,0
11.55,0.0,0
11.55,0.15,1
11.55,0.3,9
11.55,0.45,16
11.55,0.6,21
11.55,0.75,25
11.55,0.9,28
11.55,1.05,26
11.55,1.2,27
11.55,1.35,27
11.55,1.5,31
11.7,-1.5,42
11.7,-1.35,41
11.7,-1.2,39
11.7,-1.05,38
11.7,-0.9,27
11.7,-0.75,24
11.7,-0.6,19
11.7,-0.45,14
11.7,-0.3,7
11.7,-0.15,1
11.7,0.0,0
11.7,0.15,3
11.7,0.3,9
11.7,0.45,15
11.7,0.6,20
11.7,0.75,23
11.7,0.9,25
11.7,1.05,24
11.7,1.2,25
11.7,1.35,25
11.7,1.5,25
11.85,-1.5,38
11.85,-1.35,37
11.85,-1.2,36
11.85,-1.05,35
11.85,-0.9,25
11.85,-0.75,23
11.85,-0.6,19
11.85,-0.45,15
11.85,-0.3,10
11.85,-0.15,6
11.85,0.0,5
11.85,0.15,7
11.85,0.3,11
11.85,0.45,16
11.85,0.6,19
11.85,0.75,22
11.85,0.9,24
11.85,1.05,24
11.85,1.2,22
11.85,1.35,22
11.85,1.5,22
12.0,-1.5,33
12.0,-1.35,33
12.0,-1.2,33
12.0,-1.05,32
12.0,-0.9,23
12.0,-0.75,22
12.0,-0.6,20
12.0,-0.45,17
12.0,-0.3,13
12.0,-0.15,11
12.0,0.0,10
12.0,0.15,12
12.0,0.3,14
12.0,0.45,17
12.0,0.6,19
12.0,0.75,21
12.0,0.9,22
12.0,1.05,22
12.0,1.2,20
12.0,1.35,19
12.0,1.5,19
12.15,-1.5,28
12.15,-1.35,28
12.15,-1.2,28
12.15,-1.05,21
12.15,-0.9,21
12.15,-0.75,21
12.15,-0.6,20
12.15,-0.45,18
12.15,-0.3,16
12.15,-0.15,15
12.15,0.0,14
12.15,0.15,15
12.15,0.3,16
12.15,0.45,18
12.15,0.6,19
12.15,0.75,20
12.15,0.9,20
12.15,1.05,19
12.15,1.2,18
12.15,1.35,16
12.15,1.5,15
12.3,-1.5,21
12.3,-1.35,22
12.3,-1.2,23
12.3,-1.05,18
12.3,-0.9,19
12.3,-0.75,20
12.3,-0.6,19
12.3,-0.45,19
12.3,-0.3,18
12.3,-0.15,17
12.3,0.0,17
12.3,0.15,17
12.3,0.3,18
12.3,0.45,18
12.3,0.6,19
12.3,0.75,18
12.3,0.9,18
12.3,1.05,16
12.3,1.2,14
12.3,1.35,12
12.3,1.5,11
12.45,-1.5,14
12.45,-1.35,15
12.45,-1.2,17
12.45,-1.05,14
12.45,-0.9,16
12.45,-0.75,18
12.45,-0.6,19
12.45,-0.45,19
12.45,-0.3,19
12.45,-0.15,19
12.45,0.0,19
12.45,0.15,19
12.45,0.3,19
12.45,0.45,18
12.45,0.6,18
12.45,0.75,17
12.45,0.9,15
12.45,1.05,13
12.45,1.2,10
12.45,1.35,8
12.45,1.5,6
12.6,-1.5,6
12.6,-1.35,8
12.6,-1.2,11
12.6,-1.05,10
12.6,-0.9,14
12.6,-0.75,16
12.6,-0.6,18
12.6,-0.45,19
12.6,-0.3,19
12.6,-0.15,19
12.6,0.0,19
12.6,0.15,19
12.6,0.3,19
12.6,0.45,18
12.6,0.6,17
12.6,0.75,15
12.6,0.9,12
12.6,1.05,9
12.6,1.2,6
12.6,1.35,4
12.6,1.5,2
12.75,-1.5,0
12.75,-1.35,2
12.75,-1.2,3
12.75,-1.05,7
12.75,-0.9,11
12.75,-0.75,14
12.75,-0.6,16
12.75,-0.45,18
12.75,-0.3,19
12.75,-0.15,19
12.75,0.0,19
12.75,0.15,19
12.75,0.3,18
12.75,0.45,17
12.75,0.6,16
12.75,0.75,13
12.75,0.9,10
12.75,1.05,6
12.75,1.2,2
12.75,1.35,0
12.75,1.5,0
12.9,-1.5,0
12.9,-1.35,0
12.9,-1.2,1
12.9,-1.05,5
12.9,-0.9,9
12.9,-0.75,13
12.9,-0.6,15
12.9,-0.45,17
12.9,-0.3,18
12.9,-0.15,19
12.9,0.0,19
12.9,0.15,19
12.9,0.3,18
12.9,0.45,17
12.9,0.6,15
12.9,0.75,12
12.9,0.9,8
12.9,1.05,4
12.9,1.2,0
12.9,1.35,0
12.9,1.5,0
13.05,-1.5,0
13.05,-1.35,0
13.05,-1.2,0
13.05,-1.05,4
13.05,-0.9,8
13.05,-0.75,12
13.05,-0.6,15
13.05,-0.45,17
13.05,-0.3,18
13.05,-0.15,19
13.05,0.0,19
13.05,0.15,19
13.05,0.3,18
13.05,0.45,16
13.05,0.6,14
13.05,0.75,11
13.05,0.9,7
13.05,1.05,3
13.05,1.2,0
13.05,1.35,0
13.05,1.5,0
