-3.0,-1.5,0
-3.0,-1.35,3
-3.0,-1.2,26
-3.0,-1.05,55
-3.0,-0.9,81
-3.0,-0.75,102
-3.0,-0.6,119
-3.0,-0.45,130
-3.0,-0.3,142
-3.0,-0.15,153
-3.0,0.0,163
-3.0,0.15,171
-3.0,0.3,175
-3.0,0.45,173
-3.0,0.6,160
-3.0,0.75,138
-3.0,0.9,109
-3.0,1.05,74
-3.0,1.2,36
-3.0,1.35,5
-3.0,1.5,0
-2.85,-1.5,3
-2.85,-1.35,12
-2.85,-1.2,35
-2.85,-1.05,63
-2.85,-0.9,88
-2.85,-0.75,108
-2.85,-0.6,124
-2.85,-0.45,138
-2.85,-0.3,152
-2.85,-0.15,162
-2.85,0.0,175
-2.85,0.15,186
-2.85,0.3,194
-2.85,0.45,192
-2.85,0.6,176
-2.85,0.75,151
-2.85,0.9,120
-2.85,1.05,85
-2.85,1.2,45
-2.85,1.35,15
-2.85,1.5,4
-2.7,-1.5,25
-2.7,-1.35,35
-2.7,-1.2,55
-2.7,-1.05,78
-2.7,-0.9,99
-2.7,-0.75,116
-2.7,-0.6,130
-2.7,-0.45,143
-2.7,-0.3,157
-2.7,-0.15,172
-2.7,0.0,185
-2.7,0.15,198
-2.7,0.3,208
-2.7,0.45,208
-2.7,0.6,189
-2.7,0.75,160
-2.7,0.9,126
-2.7,1.05,94
-2.7,1.2,64
-2.7,1.35,39
-2.7,1.5,27
-2.55,-1.5,52
-2.55,-1.35,62
-2.55,-1.2,78
-2.55,-1.05,95
-2.55,-0.9,111
-2.55,-0.75,124
-2.55,-0.6,135
-2.55,-0.45,146
-2.55,-0.3,161
-2.55,-0.15,180
-2.55,0.0,199
-2.55,0.15,208
-2.55,0.3,210
-2.55,0.45,208
-2.55,0.6,189
-2.55,0.75,158
-2.55,0.9,130
-2.55,1.05,104
-2.55,1.2,81
-2.55,1.35,62
-2.55,1.5,51
-2.4,-1.5,76
-2.4,-1.35,86
-2.4,-1.2,98
-2.4,-1.05,111
-2.4,-0.9,123
-2.4,-0.75,131
-2.4,-0.6,138
-2.4,-0.45,148
-2.4,-0.3,163
-2.4,-0.15,188
-2.4,0.0,219
-2.4,0.15,241
-2.4,0.3,228
-2.4,0.45,205
-2.4,0.6,178
-2.4,0.75,152
-2.4,0.9,128
-2.4,1.05,108
-2.4,1.2,91
-2.4,1.35,77
-2.4,1.5,67
-2.25,-1.5,94
-2.25,-1.35,104
-2.25,-1.2,115
-2.25,-1.05,126
-2.25,-0.9,135
-2.25,-0.75,140
-2.25,-0.6,142
-2.25,-0.45,146
-2.25,-0.3,160
-2.25,-0.15,187
-2.25,0.0,241
-2.25,0.15,255
-2.25,0.3,255
-2.25,0.45,207
-2.25,0.6,166
-2.25,0.75,140
-2.25,0.9,121
-2.25,1.05,106
-2.25,1.2,94
-2.25,1.35,84
-2.25,1.5,78
-2.1,-1.5,107
-2.1,-1.35,117
-2.1,-1.2,128
-2.1,-1.05,141
-2.1,-0.9,150
-2.1,-0.75,153
-2.1,-0.6,147
-2.1,-0.45,144
-2.1,-0.3,148
-2.1,-0.15,168
-2.1,0.0,218
-2.1,0.15,255
-2.1,0.3,255
-2.1,0.45,189
-2.1,0.6,144
-2.1,0.75,122
-2.1,0.9,108
-2.1,1.05,99
-2.1,1.2,91
-2.1,1.35,87
-2.1,1.5,82
-1.95,-1.5,107
-1.95,-1.35,125
-1.95,-1.2,139
-1.95,-1.05,156
-1.95,-0.9,172
-1.95,-0.75,175
-1.95,-0.6,160
-1.95,-0.45,140
-1.95,-0.3,131
-1.95,-0.15,135
-1.95,0.0,150
-1.95,0.15,168
-1.95,0.3,159
-1.95,0.45,134
-1.95,0.6,119
-1.95,0.75,101
-1.95,0.9,94
-1.95,1.05,89
-1.95,1.2,88
-1.95,1.35,85
-1.95,1.5,82
-1.8,-1.5,109
-1.8,-1.35,121
-1.8,-1.2,139
-1.8,-1.05,168
-1.8,-0.9,195
-1.8,-0.75,206
-1.8,-0.6,176
-1.8,-0.45,141
-1.8,-0.3,117
-1.8,-0.15,108
-1.8,0.0,98
-1.8,0.15,89
-1.8,0.3,85
-1.8,0.45,89
-1.8,0.6,89
-1.8,0.75,89
-1.8,0.9,80
-1.8,1.05,81
-1.8,1.2,81
-1.8,1.35,81
-1.8,1.5,80
-1.65,-1.5,108
-1.65,-1.35,119
-1.65,-1.2,135
-1.65,-1.05,159
-1.65,-0.9,191
-1.65,-0.75,202
-1.65,-0.6,165
-1.65,-0.45,127
-1.65,-0.3,113
-1.65,-0.15,104
-1.65,0.0,78
-1.65,0.15,50
-1.65,0.3,48
-1.65,0.45,62
-1.65,0.6,69
-1.65,0.75,72
-1.65,0.9,78
-1.65,1.05,81
-1.65,1.2,76
-1.65,1.35,77
-1.65,1.5,76
-1.5,-1.5,89
-1.5,-1.35,112
-1.5,-1.2,126
-1.5,-1.05,139
-1.5,-0.9,159
-1.5,-0.75,157
-1.5,-0.6,133
-1.5,-0.45,112
-1.5,-0.3,116
-1.5,-0.15,141
-1.5,0.0,83
-1.5,0.15,35
-1.5,0.3,26
-1.5,0.45,51
-1.5,0.6,57
-1.5,0.75,58
-1.5,0.9,64
-1.5,1.05,76
-1.5,1.2,81
-1.5,1.35,81
-1.5,1.5,76
-1.35,-1.5,114
-1.35,-1.35,104
-1.35,-1.2,109
-1.35,-1.05,117
-1.35,-0.9,119
-1.35,-0.75,113
-1.35,-0.6,100
-1.35,-0.45,89
-1.35,-0.3,91
-1.35,-0.15,104
-1.35,0.0,77
-1.35,0.15,51
-1.35,0.3,49
-1.35,0.45,53
-1.35,0.6,53
-1.35,0.75,53
-1.35,0.9,61
-1.35,1.05,69
-1.35,1.2,71
-1.35,1.35,76
-1.35,1.5,79
-1.2,-1.5,120
-1.2,-1.35,120
-1.2,-1.2,112
-1.2,-1.05,112
-1.2,-0.9,110
-1.2,-0.75,94
-1.2,-0.6,86
-1.2,-0.45,80
-1.2,-0.3,55
-1.2,-0.15,50
-1.2,0.0,60
-1.2,0.15,56
-1.2,0.3,57
-1.2,0.45,54
-1.2,0.6,53
-1.2,0.75,55
-1.2,0.9,59
-1.2,1.05,65
-1.2,1.2,69
-1.2,1.35,69
-1.2,1.5,72
-1.05,-1.5,120
-1.05,-1.35,120
-1.05,-1.2,116
-1.05,-1.05,112
-1.05,-0.9,109
-1.05,-0.75,105
-1.05,-0.6,101
-1.05,-0.45,72
-1.05,-0.3,66
-1.05,-0.15,71
-1.05,0.0,73
-1.05,0.15,66
-1.05,0.3,75
-1.05,0.45,68
-1.05,0.6,62
-1.05,0.75,69
-1.05,0.9,68
-1.05,1.05,73
-1.05,1.2,71
-1.05,1.35,73
-1.05,1.5,74
-0.9,-1.5,120
-0.9,-1.35,116
-0.9,-1.2,111
-0.9,-1.05,104
-0.9,-0.9,98
-0.9,-0.75,95
-0.9,-0.6,96
-0.9,-0.45,95
-0.9,-0.3,99
-0.9,-0.15,116
-0.9,0.0,140
-0.9,0.15,154
-0.9,0.3,125
-0.9,0.45,100
-0.9,0.6,93
-0.9,0.75,90
-0.9,0.9,80
-0.9,1.05,75
-0.9,1.2,76
-0.9,1.35,76
-0.9,1.5,77
-0.75,-1.5,133
-0.75,-1.35,127
-0.75,-1.2,120
-0.75,-1.05,110
-0.75,-0.9,96
-0.75,-0.75,78
-0.75,-0.6,82
-0.75,-0.45,104
-0.75,-0.3,123
-0.75,-0.15,148
-0.75,0.0,237
-0.75,0.15,255
-0.75,0.3,192
-0.75,0.45,142
-0.75,0.6,117
-0.75,0.75,110
-0.75,0.9,94
-0.75,1.05,91
-0.75,1.2,90
-0.75,1.35,89
-0.75,1.5,76
-0.6,-1.5,120
-0.6,-1.35,119
-0.6,-1.2,119
-0.6,-1.05,107
-0.6,-0.9,83
-0.6,-0.75,57
-0.6,-0.6,61
-0.6,-0.45,97
-0.6,-0.3,127
-0.6,-0.15,105
-0.6,0.0,158
-0.6,0.15,237
-0.6,0.3,176
-0.6,0.45,126
-0.6,0.6,117
-0.6,0.75,112
-0.6,0.9,92
-0.6,1.05,88
-0.6,1.2,86
-0.6,1.35,86
-0.6,1.5,76
-0.45,-1.5,133
-0.45,-1.35,129
-0.45,-1.2,122
-0.45,-1.05,114
-0.45,-0.9,95
-0.45,-0.75,76
-0.45,-0.6,78
-0.45,-0.45,111
-0.45,-0.3,139
-0.45,-0.15,122
-0.45,0.0,209
-0.45,0.15,212
-0.45,0.3,153
-0.45,0.45,110
-0.45,0.6,110
-0.45,0.75,111
-0.45,0.9,87
-0.45,1.05,74
-0.45,1.2,75
-0.45,1.35,76
-0.45,1.5,76
-0.3,-1.5,130
-0.3,-1.35,136
-0.3,-1.2,132
-0.3,-1.05,123
-0.3,-0.9,115
-0.3,-0.75,89
-0.3,-0.6,47
-0.3,-0.45,87
-0.3,-0.3,198
-0.3,-0.15,192
-0.3,0.0,242
-0.3,0.15,192
-0.3,0.3,147
-0.3,0.45,115
-0.3,0.6,95
-0.3,0.75,75
-0.3,0.9,71
-0.3,1.05,70
-0.3,1.2,76
-0.3,1.35,79
-0.3,1.5,78
-0.15,-1.5,129
-0.15,-1.35,133
-0.15,-1.2,139
-0.15,-1.05,148
-0.15,-0.9,134
-0.15,-0.75,105
-0.15,-0.6,42
-0.15,-0.45,83
-0.15,-0.3,255
-0.15,-0.15,186
-0.15,0.0,150
-0.15,0.15,142
-0.15,0.3,150
-0.15,0.45,86
-0.15,0.6,64
-0.15,0.75,69
-0.15,0.9,65
-0.15,1.05,57
-0.15,1.2,88
-0.15,1.35,84
-0.15,1.5,80
0.0,-1.5,129
0.0,-1.35,135
0.0,-1.2,148
0.0,-1.05,168
0.0,-0.9,187
0.0,-0.75,170
0.0,-0.6,72
0.0,-0.45,58
0.0,-0.3,178
0.0,-0.15,173
0.0,0.0,140
0.0,0.15,105
0.0,0.3,47
0.0,0.45,48
0.0,0.6,58
0.0,0.75,70
0.0,0.9,70
0.0,1.05,71
0.0,1.2,98
0.0,1.35,87
0.0,1.5,81
0.15,-1.5,129
0.15,-1.35,138
0.15,-1.2,153
0.15,-1.05,186
0.15,-0.9,250
0.15,-0.75,255
0.15,-0.6,174
0.15,-0.45,139
0.15,-0.3,159
0.15,-0.15,182
0.15,0.0,157
0.15,0.15,111
0.15,0.3,53
0.15,0.45,55
0.15,0.6,61
0.15,0.75,94
0.15,0.9,91
0.15,1.05,80
0.15,1.2,83
0.15,1.35,81
0.15,1.5,78
0.3,-1.5,111
0.3,-1.35,119
0.3,-1.2,146
0.3,-1.05,171
0.3,-0.9,223
0.3,-0.75,244
0.3,-0.6,185
0.3,-0.45,168
0.3,-0.3,176
0.3,-0.15,199
0.3,0.0,255
0.3,0.15,102
0.3,0.3,171
0.3,0.45,62
0.3,0.6,62
0.3,0.75,79
0.3,0.9,83
0.3,1.05,82
0.3,1.2,78
0.3,1.35,77
0.3,1.5,75
0.45,-1.5,105
0.45,-1.35,109
0.45,-1.2,123
0.45,-1.05,131
0.45,-0.9,138
0.45,-0.75,143
0.45,-0.6,140
0.45,-0.45,161
0.45,-0.3,195
0.45,-0.15,104
0.45,0.0,170
0.45,0.15,178
0.45,0.3,111
0.45,0.45,74
0.45,0.6,53
0.45,0.75,91
0.45,0.9,90
0.45,1.05,80
0.45,1.2,75
0.45,1.35,72
0.45,1.5,71
0.6,-1.5,102
0.6,-1.35,109
0.6,-1.2,117
0.6,-1.05,107
0.6,-0.9,97
0.6,-0.75,100
0.6,-0.6,119
0.6,-0.45,119
0.6,-0.3,123
0.6,-0.15,76
0.6,0.0,103
0.6,0.15,89
0.6,0.3,44
0.6,0.45,69
0.6,0.6,132
0.6,0.75,171
0.6,0.9,98
0.6,1.05,82
0.6,1.2,76
0.6,1.35,66
0.6,1.5,66
0.75,-1.5,105
0.75,-1.35,102
0.75,-1.2,97
0.75,-1.05,85
0.75,-0.9,58
0.75,-0.75,73
0.75,-0.6,87
0.75,-0.45,85
0.75,-0.3,74
0.75,-0.15,68
0.75,0.0,86
0.75,0.15,112
0.75,0.3,181
0.75,0.45,105
0.75,0.6,108
0.75,0.75,93
0.75,0.9,67
0.75,1.05,64
0.75,1.2,62
0.75,1.35,66
0.75,1.5,66
0.9,-1.5,92
0.9,-1.35,89
0.9,-1.2,85
0.9,-1.05,80
0.9,-0.9,73
0.9,-0.75,87
0.9,-0.6,56
0.9,-0.45,89
0.9,-0.3,84
0.9,-0.15,68
0.9,0.0,144
0.9,0.15,191
0.9,0.3,128
0.9,0.45,92
0.9,0.6,109
0.9,0.75,53
0.9,0.9,50
0.9,1.05,41
0.9,1.2,48
0.9,1.35,58
0.9,1.5,63
1.05,-1.5,90
1.05,-1.35,75
1.05,-1.2,75
1.05,-1.05,75
1.05,-0.9,69
1.05,-0.75,46
1.05,-0.6,69
1.05,-0.45,115
1.05,-0.3,85
1.05,-0.15,29
1.05,0.0,96
1.05,0.15,191
1.05,0.3,84
1.05,0.45,92
1.05,0.6,180
1.05,0.75,73
1.05,0.9,42
1.05,1.05,1
1.05,1.2,38
1.05,1.35,51
1.05,1.5,59
1.2,-1.5,74
1.2,-1.35,73
1.2,-1.2,71
1.2,-1.05,72
1.2,-0.9,71
1.2,-0.75,65
1.2,-0.6,150
1.2,-0.45,107
1.2,-0.3,29
1.2,-0.15,44
1.2,0.0,78
1.2,0.15,91
1.2,0.3,54
1.2,0.45,64
1.2,0.6,84
1.2,0.75,61
1.2,0.9,49
1.2,1.05,41
1.2,1.2,44
1.2,1.35,52
1.2,1.5,53
1.35,-1.5,63
1.35,-1.35,63
1.35,-1.2,59
1.35,-1.05,57
1.35,-0.9,64
1.35,-0.75,70
1.35,-0.6,86
1.35,-0.45,65
1.35,-0.3,13
1.35,-0.15,96
1.35,0.0,103
1.35,0.15,51
1.35,0.3,0
1.35,0.45,30
1.35,0.6,50
1.35,0.75,51
1.35,0.9,50
1.35,1.05,48
1.35,1.2,47
1.35,1.35,52
1.35,1.5,53
1.5,-1.5,62
1.5,-1.35,59
1.5,-1.2,54
1.5,-1.05,52
1.5,-0.9,60
1.5,-0.75,52
1.5,-0.6,58
1.5,-0.45,75
1.5,-0.3,55
1.5,-0.15,89
1.5,0.0,70
1.5,0.15,52
1.5,0.3,30
1.5,0.45,33
1.5,0.6,36
1.5,0.75,51
1.5,0.9,51
1.5,1.05,50
1.5,1.2,49
1.5,1.35,49
1.5,1.5,49
1.65,-1.5,60
1.65,-1.35,61
1.65,-1.2,58
1.65,-1.05,52
1.65,-0.9,53
1.65,-0.75,52
1.65,-0.6,48
1.65,-0.45,51
1.65,-0.3,64
1.65,-0.15,97
1.65,0.0,65
1.65,0.15,47
1.65,0.3,46
1.65,0.45,47
1.65,0.6,48
1.65,0.75,49
1.65,0.9,44
1.65,1.05,45
1.65,1.2,43
1.65,1.35,49
1.65,1.5,49
1.8,-1.5,59
1.8,-1.35,53
1.8,-1.2,45
1.8,-1.05,47
1.8,-0.9,46
1.8,-0.75,45
1.8,-0.6,48
1.8,-0.45,44
1.8,-0.3,61
1.8,-0.15,58
1.8,0.0,33
1.8,0.15,10
1.8,0.3,46
1.8,0.45,53
1.8,0.6,56
1.8,0.75,52
1.8,0.9,45
1.8,1.05,44
1.8,1.2,41
1.8,1.35,45
1.8,1.5,45
1.95,-1.5,39
1.95,-1.35,45
1.95,-1.2,44
1.95,-1.05,44
1.95,-0.9,43
1.95,-0.75,41
1.95,-0.6,24
1.95,-0.45,34
1.95,-0.3,55
1.95,-0.15,61
1.95,0.0,20
1.95,0.15,43
1.95,0.3,53
1.95,0.45,62
1.95,0.6,62
1.95,0.75,43
1.95,0.9,31
1.95,1.05,40
1.95,1.2,45
1.95,1.35,45
1.95,1.5,46
2.1,-1.5,37
2.1,-1.35,38
2.1,-1.2,38
2.1,-1.05,41
2.1,-0.9,42
2.1,-0.75,41
2.1,-0.6,38
2.1,-0.45,43
2.1,-0.3,1
2.1,-0.15,115
2.1,0.0,50
2.1,0.15,60
2.1,0.3,62
2.1,0.45,58
2.1,0.6,56
2.1,0.75,14
2.1,0.9,13
2.1,1.05,38
2.1,1.2,48
2.1,1.35,52
2.1,1.5,52
2.25,-1.5,33
2.25,-1.35,37
2.25,-1.2,38
2.25,-1.05,39
2.25,-0.9,42
2.25,-0.75,45
2.25,-0.6,45
2.25,-0.45,48
2.25,-0.3,43
2.25,-0.15,41
2.25,0.0,57
2.25,0.15,35
2.25,0.3,86
2.25,0.45,53
2.25,0.6,52
2.25,0.75,43
2.25,0.9,36
2.25,1.05,44
2.25,1.2,49
2.25,1.35,51
2.25,1.5,52
2.4,-1.5,32
2.4,-1.35,32
2.4,-1.2,34
2.4,-1.05,40
2.4,-0.9,45
2.4,-0.75,43
2.4,-0.6,42
2.4,-0.45,48
2.4,-0.3,33
2.4,-0.15,43
2.4,0.0,51
2.4,0.15,58
2.4,0.3,91
2.4,0.45,77
2.4,0.6,59
2.4,0.75,54
2.4,0.9,55
2.4,1.05,56
2.4,1.2,54
2.4,1.35,54
2.4,1.5,54
2.55,-1.5,30
2.55,-1.35,30
2.55,-1.2,31
2.55,-1.05,32
2.55,-0.9,40
2.55,-0.75,35
2.55,-0.6,1
2.55,-0.45,49
2.55,-0.3,66
2.55,-0.15,59
2.55,0.0,49
2.55,0.15,84
2.55,0.3,64
2.55,0.45,20
2.55,0.6,56
2.55,0.75,65
2.55,0.9,71
2.55,1.05,61
2.55,1.2,54
2.55,1.35,51
2.55,1.5,49
2.7,-1.5,27
2.7,-1.35,27
2.7,-1.2,27
2.7,-1.05,25
2.7,-0.9,23
2.7,-0.75,8
2.7,-0.6,38
2.7,-0.45,50
2.7,-0.3,102
2.7,-0.15,90
2.7,0.0,17
2.7,0.15,84
2.7,0.3,55
2.7,0.45,42
2.7,0.6,49
2.7,0.75,67
2.7,0.9,75
2.7,1.05,60
2.7,1.2,52
2.7,1.35,48
2.7,1.5,46
2.85,-1.5,28
2.85,-1.35,28
2.85,-1.2,28
2.85,-1.05,23
2.85,-0.9,15
2.85,-0.75,17
2.85,-0.6,36
2.85,-0.45,62
2.85,-0.3,72
2.85,-0.15,48
2.85,0.0,82
2.85,0.15,44
2.85,0.3,43
2.85,0.45,45
2.85,0.6,43
2.85,0.75,45
2.85,0.9,49
2.85,1.05,53
2.85,1.2,51
2.85,1.35,46
2.85,1.5,46
3.0,-1.5,28
3.0,-1.35,28
3.0,-1.2,28
3.0,-1.05,25
3.0,-0.9,18
3.0,-0.75,7
3.0,-0.6,57
3.0,-0.45,117
3.0,-0.3,74
3.0,-0.15,132
3.0,0.0,107
3.0,0.15,8
3.0,0.3,8
3.0,0.45,34
3.0,0.6,41
3.0,0.75,38
3.0,0.9,41
3.0,1.05,43
3.0,1.2,44
3.0,1.35,47
3.0,1.5,46
3.15,-1.5,28
3.15,-1.35,31
3.15,-1.2,37
3.15,-1.05,37
3.15,-0.9,40
3.15,-0.75,42
3.15,-0.6,74
3.15,-0.45,104
3.15,-0.3,165
3.15,-0.15,91
3.15,0.0,193
3.15,0.15,55
3.15,0.3,20
3.15,0.45,17
3.15,0.6,11
3.15,0.75,29
3.15,0.9,36
3.15,1.05,38
3.15,1.2,46
3.15,1.35,47
3.15,1.5,45
3.3,-1.5,29
3.3,-1.35,26
3.3,-1.2,26
3.3,-1.05,27
3.3,-0.9,34
3.3,-0.75,42
3.3,-0.6,47
3.3,-0.45,54
3.3,-0.3,183
3.3,-0.15,30
3.3,0.0,38
3.3,0.15,57
3.3,0.3,44
3.3,0.45,22
3.3,0.6,7
3.3,0.75,49
3.3,0.9,35
3.3,1.05,38
3.3,1.2,39
3.3,1.35,40
3.3,1.5,44
3.45,-1.5,26
3.45,-1.35,26
3.45,-1.2,27
3.45,-1.05,27
3.45,-0.9,27
3.45,-0.75,22
3.45,-0.6,16
3.45,-0.45,49
3.45,-0.3,75
3.45,-0.15,102
3.45,0.0,120
3.45,0.15,64
3.45,0.3,58
3.45,0.45,29
3.45,0.6,26
3.45,0.75,32
3.45,0.9,33
3.45,1.05,33
3.45,1.2,39
3.45,1.35,39
3.45,1.5,40
3.6,-1.5,22
3.6,-1.35,22
3.6,-1.2,22
3.6,-1.05,22
3.6,-0.9,21
3.6,-0.75,17
3.6,-0.6,11
3.6,-0.45,10
3.6,-0.3,44
3.6,-0.15,70
3.6,0.0,79
3.6,0.15,87
3.6,0.3,43
3.6,0.45,40
3.6,0.6,41
3.6,0.75,45
3.6,0.9,44
3.6,1.05,54
3.6,1.2,63
3.6,1.35,65
3.6,1.5,65
3.75,-1.5,22
3.75,-1.35,22
3.75,-1.2,22
3.75,-1.05,21
3.75,-0.9,20
3.75,-0.75,15
3.75,-0.6,4
3.75,-0.45,48
3.75,-0.3,39
3.75,-0.15,53
3.75,0.0,33
3.75,0.15,47
3.75,0.3,40
3.75,0.45,1
3.75,0.6,52
3.75,0.75,63
3.75,0.9,68
3.75,1.05,69
3.75,1.2,71
3.75,1.35,63
3.75,1.5,63
3.9,-1.5,34
3.9,-1.35,21
3.9,-1.2,21
3.9,-1.05,27
3.9,-0.9,25
3.9,-0.75,35
3.9,-0.6,46
3.9,-0.45,34
3.9,-0.3,131
3.9,-0.15,132
3.9,0.0,58
3.9,0.15,61
3.9,0.3,173
3.9,0.45,73
3.9,0.6,84
3.9,0.75,88
3.9,0.9,100
3.9,1.05,96
3.9,1.2,98
3.9,1.35,79
3.9,1.5,86
4.05,-1.5,33
4.05,-1.35,43
4.05,-1.2,42
4.05,-1.05,39
4.05,-0.9,36
4.05,-0.75,51
4.05,-0.6,53
4.05,-0.45,10
4.05,-0.3,172
4.05,-0.15,50
4.05,0.0,83
4.05,0.15,102
4.05,0.3,92
4.05,0.45,149
4.05,0.6,130
4.05,0.75,125
4.05,0.9,128
4.05,1.05,122
4.05,1.2,122
4.05,1.35,121
4.05,1.5,129
4.2,-1.5,49
4.2,-1.35,48
4.2,-1.2,63
4.2,-1.05,63
4.2,-0.9,67
4.2,-0.75,60
4.2,-0.6,47
4.2,-0.45,82
4.2,-0.3,183
4.2,-0.15,103
4.2,0.0,98
4.2,0.15,193
4.2,0.3,137
4.2,0.45,173
4.2,0.6,178
4.2,0.75,162
4.2,0.9,161
4.2,1.05,155
4.2,1.2,152
4.2,1.35,150
4.2,1.5,149
4.35,-1.5,51
4.35,-1.35,51
4.35,-1.2,56
4.35,-1.05,57
4.35,-0.9,57
4.35,-0.75,36
4.35,-0.6,7
4.35,-0.45,33
4.35,-0.3,36
4.35,-0.15,77
4.35,0.0,193
4.35,0.15,139
4.35,0.3,208
4.35,0.45,255
4.35,0.6,219
4.35,0.75,208
4.35,0.9,197
4.35,1.05,192
4.35,1.2,174
4.35,1.35,170
4.35,1.5,167
4.5,-1.5,51
4.5,-1.35,51
4.5,-1.2,57
4.5,-1.05,68
4.5,-0.9,100
4.5,-0.75,77
4.5,-0.6,25
4.5,-0.45,22
4.5,-0.3,42
4.5,-0.15,47
4.5,0.0,52
4.5,0.15,96
4.5,0.3,198
4.5,0.45,211
4.5,0.6,219
4.5,0.75,214
4.5,0.9,207
4.5,1.05,192
4.5,1.2,188
4.5,1.35,184
4.5,1.5,185
4.65,-1.5,67
4.65,-1.35,71
4.65,-1.2,80
4.65,-1.05,96
4.65,-0.9,144
4.65,-0.75,197
4.65,-0.6,69
4.65,-0.45,22
4.65,-0.3,48
4.65,-0.15,46
4.65,0.0,72
4.65,0.15,120
4.65,0.3,3
4.65,0.45,175
4.65,0.6,239
4.65,0.75,204
4.65,0.9,198
4.65,1.05,193
4.65,1.2,202
4.65,1.35,187
4.65,1.5,186
4.8,-1.5,67
4.8,-1.35,72
4.8,-1.2,79
4.8,-1.05,93
4.8,-0.9,122
4.8,-0.75,136
4.8,-0.6,82
4.8,-0.45,67
4.8,-0.3,70
4.8,-0.15,126
4.8,0.0,80
4.8,0.15,46
4.8,0.3,52
4.8,0.45,93
4.8,0.6,211
4.8,0.75,189
4.8,0.9,178
4.8,1.05,173
4.8,1.2,170
4.8,1.35,167
4.8,1.5,165
4.95,-1.5,63
4.95,-1.35,69
4.95,-1.2,76
4.95,-1.05,80
4.95,-0.9,85
4.95,-0.75,88
4.95,-0.6,80
4.95,-0.45,148
4.95,-0.3,149
4.95,-0.15,218
4.95,0.0,96
4.95,0.15,62
4.95,0.3,53
4.95,0.45,97
4.95,0.6,149
4.95,0.75,150
4.95,0.9,149
4.95,1.05,145
4.95,1.2,156
4.95,1.35,161
4.95,1.5,161
5.1,-1.5,61
5.1,-1.35,63
5.1,-1.2,67
5.1,-1.05,66
5.1,-0.9,61
5.1,-0.75,55
5.1,-0.6,38
5.1,-0.45,30
5.1,-0.3,101
5.1,-0.15,136
5.1,0.0,114
5.1,0.15,53
5.1,0.3,75
5.1,0.45,90
5.1,0.6,97
5.1,0.75,106
5.1,0.9,117
5.1,1.05,117
5.1,1.2,126
5.1,1.35,139
5.1,1.5,139
5.25,-1.5,55
5.25,-1.35,54
5.25,-1.2,53
5.25,-1.05,52
5.25,-0.9,52
5.25,-0.75,48
5.25,-0.6,44
5.25,-0.45,45
5.25,-0.3,49
5.25,-0.15,87
5.25,0.0,255
5.25,0.15,73
5.25,0.3,58
5.25,0.45,63
5.25,0.6,62
5.25,0.75,88
5.25,0.9,95
5.25,1.05,98
5.25,1.2,109
5.25,1.35,110
5.25,1.5,110
5.4,-1.5,32
5.4,-1.35,31
5.4,-1.2,33
5.4,-1.05,24
5.4,-0.9,26
5.4,-0.75,28
5.4,-0.6,29
5.4,-0.45,28
5.4,-0.3,30
5.4,-0.15,37
5.4,0.0,87
5.4,0.15,38
5.4,0.3,38
5.4,0.45,4
5.4,0.6,71
5.4,0.75,85
5.4,0.9,102
5.4,1.05,102
5.4,1.2,104
5.4,1.35,105
5.4,1.5,110
5.55,-1.5,14
5.55,-1.35,14
5.55,-1.2,14
5.55,-1.05,14
5.55,-0.9,16
5.55,-0.75,14
5.55,-0.6,11
5.55,-0.45,5
5.55,-0.3,4
5.55,-0.15,17
5.55,0.0,32
5.55,0.15,43
5.55,0.3,48
5.55,0.45,144
5.55,0.6,152
5.55,0.75,102
5.55,0.9,99
5.55,1.05,97
5.55,1.2,113
5.55,1.35,103
5.55,1.5,104
5.7,-1.5,12
5.7,-1.35,12
5.7,-1.2,12
5.7,-1.05,12
5.7,-0.9,22
5.7,-0.75,15
5.7,-0.6,8
5.7,-0.45,19
5.7,-0.3,22
5.7,-0.15,21
5.7,0.0,70
5.7,0.15,89
5.7,0.3,97
5.7,0.45,114
5.7,0.6,119
5.7,0.75,103
5.7,0.9,91
5.7,1.05,85
5.7,1.2,92
5.7,1.35,91
5.7,1.5,90
5.85,-1.5,8
5.85,-1.35,22
5.85,-1.2,22
5.85,-1.05,22
5.85,-0.9,20
5.85,-0.75,9
5.85,-0.6,22
5.85,-0.45,72
5.85,-0.3,85
5.85,-0.15,92
5.85,0.0,140
5.85,0.15,166
5.85,0.3,193
5.85,0.45,128
5.85,0.6,105
5.85,0.75,94
5.85,0.9,89
5.85,1.05,84
5.85,1.2,81
5.85,1.35,79
5.85,1.5,91
6.0,-1.5,8
6.0,-1.35,8
6.0,-1.2,22
6.0,-1.05,21
6.0,-0.9,27
6.0,-0.75,29
6.0,-0.6,25
6.0,-0.45,185
6.0,-0.3,78
6.0,-0.15,155
6.0,0.0,114
6.0,0.15,66
6.0,0.3,91
6.0,0.45,110
6.0,0.6,84
6.0,0.75,94
6.0,0.9,94
6.0,1.05,94
6.0,1.2,90
6.0,1.35,91
6.0,1.5,91
6.15,-1.5,8
6.15,-1.35,8
6.15,-1.2,8
6.15,-1.05,8
6.15,-0.9,14
6.15,-0.75,16
6.15,-0.6,31
6.15,-0.45,38
6.15,-0.3,98
6.15,-0.15,33
6.15,0.0,12
6.15,0.15,53
6.15,0.3,61
6.15,0.45,60
6.15,0.6,73
6.15,0.75,82
6.15,0.9,85
6.15,1.05,86
6.15,1.2,86
6.15,1.35,86
6.15,1.5,86
6.3,-1.5,12
6.3,-1.35,12
6.3,-1.2,8
6.3,-1.05,11
6.3,-0.9,8
6.3,-0.75,3
6.3,-0.6,1
6.3,-0.45,96
6.3,-0.3,56
6.3,-0.15,125
6.3,0.0,14
6.3,0.15,30
6.3,0.3,35
6.3,0.45,13
6.3,0.6,37
6.3,0.75,56
6.3,0.9,74
6.3,1.05,92
6.3,1.2,94
6.3,1.35,82
6.3,1.5,82
6.45,-1.5,18
6.45,-1.35,17
6.45,-1.2,16
6.45,-1.05,13
6.45,-0.9,19
6.45,-0.75,5
6.45,-0.6,33
6.45,-0.45,62
6.45,-0.3,14
6.45,-0.15,34
6.45,0.0,71
6.45,0.15,41
6.45,0.3,54
6.45,0.45,33
6.45,0.6,47
6.45,0.75,64
6.45,0.9,66
6.45,1.05,66
6.45,1.2,66
6.45,1.35,78
6.45,1.5,79
6.6,-1.5,23
6.6,-1.35,33
6.6,-1.2,32
6.6,-1.05,31
6.6,-0.9,29
6.6,-0.75,33
6.6,-0.6,25
6.6,-0.45,50
6.6,-0.3,53
6.6,-0.15,198
6.6,0.0,150
6.6,0.15,40
6.6,0.3,84
6.6,0.45,135
6.6,0.6,84
6.6,0.75,70
6.6,0.9,63
6.6,1.05,60
6.6,1.2,55
6.6,1.35,54
6.6,1.5,53
6.75,-1.5,44
6.75,-1.35,41
6.75,-1.2,40
6.75,-1.05,50
6.75,-0.9,39
6.75,-0.75,35
6.75,-0.6,42
6.75,-0.45,62
6.75,-0.3,3
6.75,-0.15,59
6.75,0.0,35
6.75,0.15,33
6.75,0.3,70
6.75,0.45,100
6.75,0.6,72
6.75,0.75,64
6.75,0.9,58
6.75,1.05,53
6.75,1.2,52
6.75,1.35,52
6.75,1.5,51
6.9,-1.5,51
6.9,-1.35,52
6.9,-1.2,52
6.9,-1.05,50
6.9,-0.9,52
6.9,-0.75,56
6.9,-0.6,18
6.9,-0.45,12
6.9,-0.3,22
6.9,-0.15,24
6.9,0.0,26
6.9,0.15,44
6.9,0.3,109
6.9,0.45,76
6.9,0.6,53
6.9,0.75,30
6.9,0.9,41
6.9,1.05,46
6.9,1.2,48
6.9,1.35,48
6.9,1.5,52
7.05,-1.5,96
7.05,-1.35,96
7.05,-1.2,75
7.05,-1.05,75
7.05,-0.9,80
7.05,-0.75,84
7.05,-0.6,12
7.05,-0.45,36
7.05,-0.3,21
7.05,-0.15,39
7.05,0.0,6
7.05,0.15,45
7.05,0.3,52
7.05,0.45,56
7.05,0.6,26
7.05,0.75,9
7.05,0.9,34
7.05,1.05,41
7.05,1.2,45
7.05,1.35,47
7.05,1.5,49
7.2,-1.5,96
7.2,-1.35,96
7.2,-1.2,96
7.2,-1.05,97
7.2,-0.9,105
7.2,-0.75,117
7.2,-0.6,110
7.2,-0.45,45
7.2,-0.3,28
7.2,-0.15,48
7.2,0.0,32
7.2,0.15,44
7.2,0.3,30
7.2,0.45,38
7.2,0.6,23
7.2,0.75,19
7.2,0.9,29
7.2,1.05,25
7.2,1.2,28
7.2,1.35,31
7.2,1.5,32
7.35,-1.5,92
7.35,-1.35,94
7.35,-1.2,90
7.35,-1.05,79
7.35,-0.9,80
7.35,-0.75,108
7.35,-0.6,79
7.35,-0.45,23
7.35,-0.3,55
7.35,-0.15,46
7.35,0.0,36
7.35,0.15,6
7.35,0.3,40
7.35,0.45,30
7.35,0.6,7
7.35,0.75,6
7.35,0.9,14
7.35,1.05,14
7.35,1.2,17
7.35,1.35,12
7.35,1.5,17
7.5,-1.5,59
7.5,-1.35,58
7.5,-1.2,68
7.5,-1.05,66
7.5,-0.9,59
7.5,-0.75,19
7.5,-0.6,0
7.5,-0.45,0
7.5,-0.3,59
7.5,-0.15,27
7.5,0.0,69
7.5,0.15,122
7.5,0.3,31
7.5,0.45,28
7.5,0.6,4
7.5,0.75,4
7.5,0.9,5
7.5,1.05,7
7.5,1.2,9
7.5,1.35,9
7.5,1.5,10
7.65,-1.5,49
7.65,-1.35,49
7.65,-1.2,45
7.65,-1.05,56
7.65,-0.9,58
7.65,-0.75,69
7.65,-0.6,131
7.65,-0.45,33
7.65,-0.3,43
7.65,-0.15,59
7.65,0.0,41
7.65,0.15,51
7.65,0.3,49
7.65,0.45,39
7.65,0.6,7
7.65,0.75,3
7.65,0.9,9
7.65,1.05,8
7.65,1.2,10
7.65,1.35,24
7.65,1.5,27
7.8,-1.5,34
7.8,-1.35,33
7.8,-1.2,32
7.8,-1.05,27
7.8,-0.9,32
7.8,-0.75,39
7.8,-0.6,14
7.8,-0.45,62
7.8,-0.3,9
7.8,-0.15,36
7.8,0.0,21
7.8,0.15,56
7.8,0.3,46
7.8,0.45,7
7.8,0.6,12
7.8,0.75,11
7.8,0.9,13
7.8,1.05,26
7.8,1.2,30
7.8,1.35,30
7.8,1.5,31
7.95,-1.5,15
7.95,-1.35,15
7.95,-1.2,15
7.95,-1.05,12
7.95,-0.9,12
7.95,-0.75,44
7.95,-0.6,8
7.95,-0.45,56
7.95,-0.3,9
7.95,-0.15,9
7.95,0.0,32
7.95,0.15,67
7.95,0.3,48
7.95,0.45,23
7.95,0.6,23
7.95,0.75,24
7.95,0.9,34
7.95,1.05,39
7.95,1.2,40
7.95,1.35,42
7.95,1.5,40
8.1,-1.5,18
8.1,-1.35,18
8.1,-1.2,14
8.1,-1.05,12
8.1,-0.9,16
8.1,-0.75,47
8.1,-0.6,8
8.1,-0.45,9
8.1,-0.3,15
8.1,-0.15,42
8.1,0.0,44
8.1,0.15,67
8.1,0.3,56
8.1,0.45,33
8.1,0.6,12
8.1,0.75,34
8.1,0.9,42
8.1,1.05,49
8.1,1.2,46
8.1,1.35,43
8.1,1.5,43
8.25,-1.5,35
8.25,-1.35,34
8.25,-1.2,25
8.25,-1.05,11
8.25,-0.9,11
8.25,-0.75,5
8.25,-0.6,5
8.25,-0.45,15
8.25,-0.3,9
8.25,-0.15,146
8.25,0.0,30
8.25,0.15,116
8.25,0.3,50
8.25,0.45,41
8.25,0.6,29
8.25,0.75,44
8.25,0.9,54
8.25,1.05,65
8.25,1.2,62
8.25,1.35,59
8.25,1.5,55
8.4,-1.5,71
8.4,-1.35,71
8.4,-1.2,71
8.4,-1.05,68
8.4,-0.9,32
8.4,-0.75,4
8.4,-0.6,10
8.4,-0.45,191
8.4,-0.3,16
8.4,-0.15,30
8.4,0.0,127
8.4,0.15,34
8.4,0.3,19
8.4,0.45,3
8.4,0.6,39
8.4,0.75,72
8.4,0.9,111
8.4,1.05,99
8.4,1.2,80
8.4,1.35,67
8.4,1.5,61
8.55,-1.5,91
8.55,-1.35,93
8.55,-1.2,96
8.55,-1.05,97
8.55,-0.9,106
8.55,-0.75,97
8.55,-0.6,60
8.55,-0.45,66
8.55,-0.3,45
8.55,-0.15,42
8.55,0.0,37
8.55,0.15,28
8.55,0.3,48
8.55,0.45,10
8.55,0.6,52
8.55,0.75,130
8.55,0.9,204
8.55,1.05,124
8.55,1.2,88
8.55,1.35,73
8.55,1.5,65
8.7,-1.5,137
8.7,-1.35,124
8.7,-1.2,140
8.7,-1.05,142
8.7,-0.9,147
8.7,-0.75,211
8.7,-0.6,193
8.7,-0.45,37
8.7,-0.3,35
8.7,-0.15,27
8.7,0.0,67
8.7,0.15,56
8.7,0.3,59
8.7,0.45,91
8.7,0.6,60
8.7,0.75,85
8.7,0.9,123
8.7,1.05,99
8.7,1.2,80
8.7,1.35,69
8.7,1.5,65
8.85,-1.5,137
8.85,-1.35,137
8.85,-1.2,138
8.85,-1.05,138
8.85,-0.9,139
8.85,-0.75,139
8.85,-0.6,140
8.85,-0.45,5
8.85,-0.3,27
8.85,-0.15,196
8.85,0.0,101
8.85,0.15,58
8.85,0.3,51
8.85,0.45,45
8.85,0.6,47
8.85,0.75,51
8.85,0.9,65
8.85,1.05,70
8.85,1.2,68
8.85,1.35,65
8.85,1.5,65
9.0,-1.5,126
9.0,-1.35,126
9.0,-1.2,138
9.0,-1.05,138
9.0,-0.9,103
9.0,-0.75,75
9.0,-0.6,32
9.0,-0.45,35
9.0,-0.3,69
9.0,-0.15,100
9.0,0.0,123
9.0,0.15,23
9.0,0.3,37
9.0,0.45,17
9.0,0.6,21
9.0,0.75,37
9.0,0.9,44
9.0,1.05,51
9.0,1.2,52
9.0,1.35,65
9.0,1.5,65
9.15,-1.5,104
9.15,-1.35,104
9.15,-1.2,103
9.15,-1.05,102
9.15,-0.9,96
9.15,-0.75,101
9.15,-0.6,105
9.15,-0.45,159
9.15,-0.3,10
9.15,-0.15,30
9.15,0.0,150
9.15,0.15,86
9.15,0.3,32
9.15,0.45,31
9.15,0.6,16
9.15,0.75,44
9.15,0.9,42
9.15,1.05,45
9.15,1.2,50
9.15,1.35,54
9.15,1.5,55
9.3,-1.5,74
9.3,-1.35,73
9.3,-1.2,55
9.3,-1.05,57
9.3,-0.9,61
9.3,-0.75,63
9.3,-0.6,66
9.3,-0.45,0
9.3,-0.3,20
9.3,-0.15,82
9.3,0.0,91
9.3,0.15,96
9.3,0.3,64
9.3,0.45,51
9.3,0.6,45
9.3,0.75,39
9.3,0.9,45
9.3,1.05,48
9.3,1.2,61
9.3,1.35,65
9.3,1.5,67
9.45,-1.5,51
9.45,-1.35,51
9.45,-1.2,50
9.45,-1.05,61
9.45,-0.9,60
9.45,-0.75,29
9.45,-0.6,3
9.45,-0.45,5
9.45,-0.3,60
9.45,-0.15,75
9.45,0.0,55
9.45,0.15,68
9.45,0.3,82
9.45,0.45,124
9.45,0.6,68
9.45,0.75,65
9.45,0.9,70
9.45,1.05,73
9.45,1.2,75
9.45,1.35,77
9.45,1.5,78
9.6,-1.5,65
9.6,-1.35,64
9.6,-1.2,51
9.6,-1.05,46
9.6,-0.9,33
9.6,-0.75,37
9.6,-0.6,39
9.6,-0.45,52
9.6,-0.3,120
9.6,-0.15,180
9.6,0.0,0
9.6,0.15,56
9.6,0.3,94
9.6,0.45,94
9.6,0.6,94
9.6,0.75,80
9.6,0.9,86
9.6,1.05,86
9.6,1.2,86
9.6,1.35,86
9.6,1.5,86
9.75,-1.5,36
9.75,-1.35,34
9.75,-1.2,34
9.75,-1.05,34
9.75,-0.9,39
9.75,-0.75,42
9.75,-0.6,7
9.75,-0.45,60
9.75,-0.3,60
9.75,-0.15,83
9.75,0.0,100
9.75,0.15,61
9.75,0.3,72
9.75,0.45,149
9.75,0.6,128
9.75,0.75,114
9.75,0.9,111
9.75,1.05,110
9.75,1.2,109
9.75,1.35,109
9.75,1.5,109
9.9,-1.5,36
9.9,-1.35,37
9.9,-1.2,37
9.9,-1.05,57
9.9,-0.9,56
9.9,-0.75,56
9.9,-0.6,51
9.9,-0.45,48
9.9,-0.3,84
9.9,-0.15,172
9.9,0.0,171
9.9,0.15,93
9.9,0.3,90
9.9,0.45,195
9.9,0.6,163
9.9,0.75,123
9.9,0.9,117
9.9,1.05,117
9.9,1.2,116
9.9,1.35,111
9.9,1.5,110
10.05,-1.5,64
10.05,-1.35,76
10.05,-1.2,72
10.05,-1.05,72
10.05,-0.9,73
10.05,-0.75,77
10.05,-0.6,92
10.05,-0.45,174
10.05,-0.3,138
10.05,-0.15,165
10.05,0.0,255
10.05,0.15,137
10.05,0.3,71
10.05,0.45,29
10.05,0.6,104
10.05,0.75,111
10.05,0.9,121
10.05,1.05,119
10.05,1.2,119
10.05,1.35,117
10.05,1.5,116
10.2,-1.5,78
10.2,-1.35,78
10.2,-1.2,78
10.2,-1.05,80
10.2,-0.9,94
10.2,-0.75,103
10.2,-0.6,125
10.2,-0.45,184
10.2,-0.3,79
10.2,-0.15,63
10.2,0.0,93
10.2,0.15,64
10.2,0.3,83
10.2,0.45,129
10.2,0.6,255
10.2,0.75,132
10.2,0.9,121
10.2,1.05,122
10.2,1.2,120
10.2,1.35,118
10.2,1.5,116
10.35,-1.5,78
10.35,-1.35,78
10.35,-1.2,89
10.35,-1.05,80
10.35,-0.9,85
10.35,-0.75,93
10.35,-0.6,101
10.35,-0.45,164
10.35,-0.3,198
10.35,-0.15,76
10.35,0.0,62
10.35,0.15,8
10.35,0.3,71
10.35,0.45,140
10.35,0.6,185
10.35,0.75,146
10.35,0.9,132
10.35,1.05,125
10.35,1.2,125
10.35,1.35,124
10.35,1.5,123
10.5,-1.5,78
10.5,-1.35,91
10.5,-1.2,94
10.5,-1.05,91
10.5,-0.9,86
10.5,-0.75,75
10.5,-0.6,38
10.5,-0.45,98
10.5,-0.3,87
10.5,-0.15,84
10.5,0.0,66
10.5,0.15,79
10.5,0.3,89
10.5,0.45,119
10.5,0.6,121
10.5,0.75,123
10.5,0.9,120
10.5,1.05,121
10.5,1.2,121
10.5,1.35,121
10.5,1.5,124
10.65,-1.5,92
10.65,-1.35,92
10.65,-1.2,89
10.65,-1.05,85
10.65,-0.9,78
10.65,-0.75,68
10.65,-0.6,55
10.65,-0.45,66
10.65,-0.3,81
10.65,-0.15,104
10.65,0.0,100
10.65,0.15,89
10.65,0.3,97
10.65,0.45,101
10.65,0.6,81
10.65,0.75,83
10.65,0.9,105
10.65,1.05,115
10.65,1.2,119
10.65,1.35,121
10.65,1.5,121
10.8,-1.5,81
10.8,-1.35,73
10.8,-1.2,72
10.8,-1.05,70
10.8,-0.9,70
10.8,-0.75,64
10.8,-0.6,55
10.8,-0.45,60
10.8,-0.3,89
10.8,-0.15,208
10.8,0.0,144
10.8,0.15,138
10.8,0.3,137
10.8,0.45,122
10.8,0.6,74
10.8,0.75,67
10.8,0.9,109
10.8,1.05,127
10.8,1.2,130
10.8,1.35,121
10.8,1.5,122
10.95,-1.5,74
10.95,-1.35,73
10.95,-1.2,71
10.95,-1.05,75
10.95,-0.9,72
10.95,-0.75,66
10.95,-0.6,55
10.95,-0.45,75
10.95,-0.3,85
10.95,-0.15,94
10.95,0.0,141
10.95,0.15,157
10.95,0.3,149
10.95,0.45,163
10.95,0.6,145
10.95,0.75,112
10.95,0.9,117
10.95,1.05,125
10.95,1.2,129
10.95,1.35,132
10.95,1.5,140
11.1,-1.5,76
11.1,-1.35,75
11.1,-1.2,74
11.1,-1.05,72
11.1,-0.9,76
11.1,-0.75,74
11.1,-0.6,85
11.1,-0.45,90
11.1,-0.3,67
11.1,-0.15,172
11.1,0.0,232
11.1,0.15,176
11.1,0.3,170
11.1,0.45,206
11.1,0.6,255
11.1,0.75,83
11.1,0.9,128
11.1,1.05,126
11.1,1.2,126
11.1,1.35,125
11.1,1.5,135
11.25,-1.5,79
11.25,-1.35,79
11.25,-1.2,79
11.25,-1.05,82
11.25,-0.9,100
11.25,-0.75,92
11.25,-0.6,94
11.25,-0.45,106
11.25,-0.3,96
11.25,-0.15,174
11.25,0.0,213
11.25,0.15,168
11.25,0.3,165
11.25,0.45,198
11.25,0.6,221
11.25,0.75,155
11.25,0.9,142
11.25,1.05,143
11.25,1.2,142
11.25,1.35,128
11.25,1.5,123
11.4,-1.5,86
11.4,-1.35,91
11.4,-1.2,92
11.4,-1.05,97
11.4,-0.9,100
11.4,-0.75,111
11.4,-0.6,121
11.4,-0.45,146
11.4,-0.3,142
11.4,-0.15,109
11.4,0.0,77
11.4,0.15,127
11.4,0.3,148
11.4,0.45,167
11.4,0.6,174
11.4,0.75,160
11.4,0.9,155
11.4,1.05,145
11.4,1.2,140
11.4,1.35,128
11.4,1.5,122
11.55,-1.5,86
11.55,-1.35,86
11.55,-1.2,89
11.55,-1.05,89
11.55,-0.9,95
11.55,-0.75,121
11.55,-0.6,137
11.55,-0.45,176
11.55,-0.3,200
11.55,-0.15,113
11.55,0.0,92
11.55,0.15,120
11.55,0.3,144
11.55,0.45,158
11.55,0.6,155
11.55,0.75,148
11.55,0.9,142
11.55,1.05,135
11.55,1.2,134
11.55,1.35,117
11.55,1.5,113
11.7,-1.5,89
11.7,-1.35,97
11.7,-1.2,98
11.7,-1.05,93
11.7,-0.9,113
11.7,-0.75,121
11.7,-0.6,135
11.7,-0.45,154
11.7,-0.3,155
11.7,-0.15,130
11.7,0.0,115
11.7,0.15,119
11.7,0.3,128
11.7,0.45,135
11.7,0.6,134
11.7,0.75,125
11.7,0.9,122
11.7,1.05,115
11.7,1.2,119
11.7,1.35,116
11.7,1.5,105
11.85,-1.5,89
11.85,-1.35,89
11.85,-1.2,94
11.85,-1.05,98
11.85,-0.9,101
11.85,-0.75,107
11.85,-0.6,125
11.85,-0.45,180
11.85,-0.3,141
11.85,-0.15,120
11.85,0.0,112
11.85,0.15,115
11.85,0.3,118
11.85,0.45,115
11.85,0.6,115
11.85,0.75,113
11.85,0.9,111
11.85,1.05,108
11.85,1.2,98
11.85,1.35,95
11.85,1.5,105
12.0,-1.5,90
12.0,-1.35,92
12.0,-1.2,93
12.0,-1.05,105
12.0,-0.9,105
12.0,-0.75,98
12.0,-0.6,94
12.0,-0.45,111
12.0,-0.3,105
12.0,-0.15,103
12.0,0.0,104
12.0,0.15,89
12.0,0.3,100
12.0,0.45,81
12.0,0.6,93
12.0,0.75,92
12.0,0.9,81
12.0,1.05,82
12.0,1.2,81
12.0,1.35,81
12.0,1.5,79
12.15,-1.5,73
12.15,-1.35,79
12.15,-1.2,81
12.15,-1.05,95
12.15,-0.9,92
12.15,-0.75,84
12.15,-0.6,67
12.15,-0.45,46
12.15,-0.3,56
12.15,-0.15,88
12.15,0.0,99
12.15,0.15,82
12.15,0.3,72
12.15,0.45,60
12.15,0.6,61
12.15,0.75,58
12.15,0.9,61
12.15,1.05,69
12.15,1.2,71
12.15,1.35,72
12.15,1.5,61
12.3,-1.5,65
12.3,-1.35,69
12.3,-1.2,73
12.3,-1.05,82
12.3,-0.9,94
12.3,-0.75,88
12.3,-0.6,74
12.3,-0.45,52
12.3,-0.3,58
12.3,-0.15,82
12.3,0.0,84
12.3,0.15,76
12.3,0.3,58
12.3,0.45,39
12.3,0.6,25
12.3,0.75,31
12.3,0.9,38
12.3,1.05,43
12.3,1.2,48
12.3,1.35,49
12.3,1.5,49
12.45,-1.5,50
12.45,-1.35,55
12.45,-1.2,62
12.45,-1.05,65
12.45,-0.9,73
12.45,-0.75,94
12.45,-0.6,93
12.45,-0.45,87
12.45,-0.3,93
12.45,-0.15,95
12.45,0.0,80
12.45,0.15,62
12.45,0.3,37
12.45,0.45,14
12.45,0.6,3
12.45,0.75,11
12.45,0.9,28
12.45,1.05,33
12.45,1.2,36
12.45,1.35,36
12.45,1.5,38
12.6,-1.5,41
12.6,-1.35,62
12.6,-1.2,72
12.6,-1.05,81
12.6,-0.9,88
12.6,-0.75,96
12.6,-0.6,99
12.6,-0.45,46
12.6,-0.3,166
12.6,-0.15,119
12.6,0.0,84
12.6,0.15,59
12.6,0.3,28
12.6,0.45,3
12.6,0.6,0
12.6,0.75,6
12.6,0.9,16
12.6,1.05,21
12.6,1.2,25
12.6,1.35,24
12.6,1.5,22
12.75,-1.5,31
12.75,-1.35,45
12.75,-1.2,64
12.75,-1.05,75
12.75,-0.9,81
12.75,-0.75,89
12.75,-0.6,102
12.75,-0.45,51
12.75,-0.3,138
12.75,-0.15,104
12.75,0.0,87
12.75,0.15,64
12.75,0.3,28
12.75,0.45,0
12.75,0.6,1
12.75,0.75,9
12.75,0.9,17
12.75,1.05,20
12.75,1.2,16
12.75,1.35,14
12.75,1.5,9
12.9,-1.5,3
12.9,-1.35,23
12.9,-1.2,54
12.9,-1.05,68
12.9,-0.9,70
12.9,-0.75,61
12.9,-0.6,63
12.9,-0.45,57
12.9,-0.3,61
12.9,-0.15,79
12.9,0.0,79
12.9,0.15,65
12.9,0.3,40
12.9,0.45,19
12.9,0.6,15
12.9,0.75,16
12.9,0.9,20
12.9,1.05,19
12.9,1.2,11
12.9,1.35,1
12.9,1.5,0
13.05,-1.5,0
13.05,-1.35,16
13.05,-1.2,48
13.05,-1.05,63
13.05,-0.9,62
13.05,-0.75,42
13.05,-0.6,35
13.05,-0.45,63
13.05,-0.3,72
13.05,-0.15,77
13.05,0.0,74
13.05,0.15,66
13.05,0.3,52
13.05,0.45,38
13.05,0.6,31
13.05,0.75,30
13.05,0.9,29
13.05,1.05,24
13.05,1.2,11
13.05,1.35,0
13.05,1.5,0
