-3.0,-1.5,0
-3.0,-1.35,2
-3.0,-1.2,25
-3.0,-1.05,58
-3.0,-0.9,91
-3.0,-0.75,121
-3.0,-0.6,145
-3.0,-0.45,163
-3.0,-0.3,176
-3.0,-0.15,181
-3.0,0.0,178
-3.0,0.15,170
-3.0,0.3,157
-3.0,0.45,141
-3.0,0.6,124
-3.0,0.75,104
-3.0,0.9,81
-3.0,1.05,54
-3.0,1.2,26
-3.0,1.35,3
-3.0,1.5,0
-2.85,-1.5,2
-2.85,-1.35,11
-2.85,-1.2,35
-2.85,-1.05,68
-2.85,-0.9,103
-2.85,-0.75,134
-2.85,-0.6,161
-2.85,-0.45,183
-2.85,-0.3,199
-2.85,-0.15,205
-2.85,0.0,201
-2.85,0.15,188
-2.85,0.3,170
-2.85,0.45,150
-2.85,0.6,131
-2.85,0.75,111
-2.85,0.9,88
-2.85,1.05,63
-2.85,1.2,35
-2.85,1.35,12
-2.85,1.5,3
-2.7,-1.5,23
-2.7,-1.35,33
-2.7,-1.2,55
-2.7,-1.05,86
-2.7,-0.9,118
-2.7,-0.75,150
-2.7,-0.6,179
-2.7,-0.45,206
-2.7,-0.3,228
-2.7,-0.15,239
-2.7,0.0,232
-2.7,0.15,211
-2.7,0.3,184
-2.7,0.45,159
-2.7,0.6,137
-2.7,0.75,117
-2.7,0.9,98
-2.7,1.05,77
-2.7,1.2,54
-2.7,1.35,35
-2.7,1.5,26
-2.55,-1.5,50
-2.55,-1.35,61
-2.55,-1.2,81
-2.55,-1.05,106
-2.55,-0.9,134
-2.55,-0.75,164
-2.55,-0.6,195
-2.55,-0.45,229
-2.55,-0.3,255
-2.55,-0.15,255
-2.55,0.0,255
-2.55,0.15,236
-2.55,0.3,195
-2.55,0.45,164
-2.55,0.6,140
-2.55,0.75,122
-2.55,0.9,106
-2.55,1.05,90
-2.55,1.2,74
-2.55,1.35,60
-2.55,1.5,52
-2.4,-1.5,76
-2.4,-1.35,86
-2.4,-1.2,103
-2.4,-1.05,124
-2.4,-0.9,148
-2.4,-0.75,173
-2.4,-0.6,204
-2.4,-0.45,244
-2.4,-0.3,255
-2.4,-0.15,255
-2.4,0.0,255
-2.4,0.15,253
-2.4,0.3,198
-2.4,0.45,162
-2.4,0.6,139
-2.4,0.75,122
-2.4,0.9,110
-2.4,1.05,98
-2.4,1.2,87
-2.4,1.35,78
-2.4,1.5,72
-2.25,-1.5,95
-2.25,-1.35,105
-2.25,-1.2,118
-2.25,-1.05,135
-2.25,-0.9,154
-2.25,-0.75,176
-2.25,-0.6,204
-2.25,-0.45,240
-2.25,-0.3,255
-2.25,-0.15,255
-2.25,0.0,255
-2.25,0.15,242
-2.25,0.3,185
-2.25,0.45,152
-2.25,0.6,131
-2.25,0.75,117
-2.25,0.9,108
-2.25,1.05,100
-2.25,1.2,94
-2.25,1.35,88
-2.25,1.5,84
-2.1,-1.5,109
-2.1,-1.35,117
-2.1,-1.2,128
-2.1,-1.05,140
-2.1,-0.9,154
-2.1,-0.75,171
-2.1,-0.6,191
-2.1,-0.45,217
-2.1,-0.3,247
-2.1,-0.15,255
-2.1,0.0,247
-2.1,0.15,201
-2.1,0.3,163
-2.1,0.45,135
-2.1,0.6,117
-2.1,0.75,107
-2.1,0.9,101
-2.1,1.05,97
-2.1,1.2,94
-2.1,1.35,92
-2.1,1.5,90
-1.95,-1.5,118
-1.95,-1.35,124
-1.95,-1.2,132
-1.95,-1.05,141
-1.95,-0.9,151
-1.95,-0.75,162
-1.95,-0.6,174
-1.95,-0.45,187
-1.95,-0.3,199
-1.95,-0.15,201
-1.95,0.0,189
-1.95,0.15,171
-1.95,0.3,151
-1.95,0.45,119
-1.95,0.6,97
-1.95,0.75,92
-1.95,0.9,92
-1.95,1.05,91
-1.95,1.2,90
-1.95,1.35,90
-1.95,1.5,91
-1.8,-1.5,123
-1.8,-1.35,128
-1.8,-1.2,133
-1.8,-1.05,140
-1.8,-0.9,146
-1.8,-0.75,153
-1.8,-0.6,159
-1.8,-0.45,164
-1.8,-0.3,168
-1.8,-0.15,166
-1.8,0.0,164
-1.8,0.15,178
-1.8,0.3,175
-1.8,0.45,103
-1.8,0.6,66
-1.8,0.75,76
-1.8,0.9,83
-1.8,1.05,81
-1.8,1.2,82
-1.8,1.35,86
-1.8,1.5,90
-1.65,-1.5,125
-1.65,-1.35,129
-1.65,-1.2,133
-1.65,-1.05,137
-1.65,-0.9,141
-1.65,-0.75,144
-1.65,-0.6,147
-1.65,-0.45,149
-1.65,-0.3,148
-1.65,-0.15,146
-1.65,0.0,149
-1.65,0.15,177
-1.65,0.3,178
-1.65,0.45,80
-1.65,0.6,57
-1.65,0.75,73
-1.65,0.9,75
-1.65,1.05,65
-1.65,1.2,69
-1.65,1.35,80
-1.65,1.5,88
-1.5,-1.5,126
-1.5,-1.35,129
-1.5,-1.2,132
-1.5,-1.05,134
-1.5,-0.9,136
-1.5,-0.75,138
-1.5,-0.6,139
-1.5,-0.45,138
-1.5,-0.3,136
-1.5,-0.15,133
-1.5,0.0,128
-1.5,0.15,111
-1.5,0.3,18
-1.5,0.45,41
-1.5,0.6,76
-1.5,0.75,83
-1.5,0.9,71
-1.5,1.05,53
-1.5,1.2,62
-1.5,1.35,72
-1.5,1.5,81
-1.35,-1.5,126
-1.35,-1.35,128
-1.35,-1.2,130
-1.35,-1.05,131
-1.35,-0.9,132
-1.35,-0.75,139
-1.35,-0.6,138
-1.35,-0.45,131
-1.35,-0.3,128
-1.35,-0.15,125
-1.35,0.0,119
-1.35,0.15,108
-1.35,0.3,82
-1.35,0.45,83
-1.35,0.6,99
-1.35,0.75,99
-1.35,0.9,84
-1.35,1.05,68
-1.35,1.2,71
-1.35,1.35,78
-1.35,1.5,85
-1.2,-1.5,129
-1.2,-1.35,137
-1.2,-1.2,137
-1.2,-1.05,138
-1.2,-0.9,138
-1.2,-0.75,136
-1.2,-0.6,133
-1.2,-0.45,131
-1.2,-0.3,125
-1.2,-0.15,121
-1.2,0.0,116
-1.2,0.15,116
-1.2,0.3,122
-1.2,0.45,134
-1.2,0.6,133
-1.2,0.75,120
-1.2,0.9,103
-1.2,1.05,90
-1.2,1.2,91
-1.2,1.35,95
-1.2,1.5,99
-1.05,-1.5,129
-1.05,-1.35,138
-1.05,-1.2,138
-1.05,-1.05,137
-1.05,-0.9,135
-1.05,-0.75,133
-1.05,-0.6,131
-1.05,-0.45,129
-1.05,-0.3,123
-1.05,-0.15,123
-1.05,0.0,112
-1.05,0.15,112
-1.05,0.3,158
-1.05,0.45,216
-1.05,0.6,193
-1.05,0.75,153
-1.05,0.9,126
-1.05,1.05,117
-1.05,1.2,109
-1.05,1.35,107
-1.05,1.5,107
-0.9,-1.5,138
-0.9,-1.35,133
-0.9,-1.2,132
-0.9,-1.05,120
-0.9,-0.9,119
-0.9,-0.75,119
-0.9,-0.6,120
-0.9,-0.45,125
-0.9,-0.3,122
-0.9,-0.15,131
-0.9,0.0,115
-0.9,0.15,67
-0.9,0.3,201
-0.9,0.45,255
-0.9,0.6,245
-0.9,0.75,175
-0.9,0.9,149
-0.9,1.05,131
-0.9,1.2,121
-0.9,1.35,116
-0.9,1.5,114
-0.75,-1.5,123
-0.75,-1.35,122
-0.75,-1.2,122
-0.75,-1.05,122
-0.75,-0.9,119
-0.75,-0.75,119
-0.75,-0.6,119
-0.75,-0.45,120
-0.75,-0.3,122
-0.75,-0.15,121
-0.75,0.0,129
-0.75,0.15,105
-0.75,0.3,178
-0.75,0.45,255
-0.75,0.6,215
-0.75,0.75,169
-0.75,0.9,142
-0.75,1.05,127
-0.75,1.2,118
-0.75,1.35,112
-0.75,1.5,112
-0.6,-1.5,105
-0.6,-1.35,105
-0.6,-1.2,115
-0.6,-1.05,121
-0.6,-0.9,121
-0.6,-0.75,121
-0.6,-0.6,121
-0.6,-0.45,119
-0.6,-0.3,120
-0.6,-0.15,121
-0.6,0.0,119
-0.6,0.15,118
-0.6,0.3,136
-0.6,0.45,160
-0.6,0.6,162
-0.6,0.75,154
-0.6,0.9,145
-0.6,1.05,134
-0.6,1.2,119
-0.6,1.35,115
-0.6,1.5,112
-0.45,-1.5,105
-0.45,-1.35,105
-0.45,-1.2,105
-0.45,-1.05,116
-0.45,-0.9,115
-0.45,-0.75,114
-0.45,-0.6,116
-0.45,-0.45,121
-0.45,-0.3,113
-0.45,-0.15,110
-0.45,0.0,101
-0.45,0.15,93
-0.45,0.3,97
-0.45,0.45,113
-0.45,0.6,123
-0.45,0.75,130
-0.45,0.9,132
-0.45,1.05,119
-0.45,1.2,117
-0.45,1.35,115
-0.45,1.5,110
-0.3,-1.5,101
-0.3,-1.35,102
-0.3,-1.2,113
-0.3,-1.05,113
-0.3,-0.9,112
-0.3,-0.75,111
-0.3,-0.6,100
-0.3,-0.45,99
-0.3,-0.3,102
-0.3,-0.15,94
-0.3,0.0,81
-0.3,0.15,64
-0.3,0.3,66
-0.3,0.45,91
-0.3,0.6,99
-0.3,0.75,114
-0.3,0.9,115
-0.3,1.05,108
-0.3,1.2,107
-0.3,1.35,106
-0.3,1.5,104
-0.15,-1.5,113
-0.15,-1.35,113
-0.15,-1.2,113
-0.15,-1.05,113
-0.15,-0.9,113
-0.15,-0.75,112
-0.15,-0.6,110
-0.15,-0.45,97
-0.15,-0.3,103
-0.15,-0.15,97
-0.15,0.0,73
-0.15,0.15,62
-0.15,0.3,87
-0.15,0.45,72
-0.15,0.6,82
-0.15,0.75,104
-0.15,0.9,108
-0.15,1.05,111
-0.15,1.2,111
-0.15,1.35,102
-0.15,1.5,102
0.0,-1.5,113
0.0,-1.35,113
0.0,-1.2,113
0.0,-1.05,113
0.0,-0.9,102
0.0,-0.75,102
0.0,-0.6,100
0.0,-0.45,99
0.0,-0.3,97
0.0,-0.15,104
0.0,0.0,124
0.0,0.15,135
0.0,0.3,126
0.0,0.45,170
0.0,0.6,107
0.0,0.75,100
0.0,0.9,95
0.0,1.05,107
0.0,1.2,108
0.0,1.35,109
0.0,1.5,98
0.15,-1.5,102
0.15,-1.35,103
0.15,-1.2,104
0.15,-1.05,104
0.15,-0.9,104
0.15,-0.75,104
0.15,-0.6,102
0.15,-0.45,100
0.15,-0.3,97
0.15,-0.15,105
0.15,0.0,135
0.15,0.15,166
0.15,0.3,95
0.15,0.45,153
0.15,0.6,121
0.15,0.75,102
0.15,0.9,95
0.15,1.05,91
0.15,1.2,89
0.15,1.35,88
0.15,1.5,88
0.3,-1.5,99
0.3,-1.35,100
0.3,-1.2,107
0.3,-1.05,108
0.3,-0.9,109
0.3,-0.75,109
0.3,-0.6,106
0.3,-0.45,102
0.3,-0.3,97
0.3,-0.15,93
0.3,0.0,89
0.3,0.15,16
0.3,0.3,64
0.3,0.45,84
0.3,0.6,95
0.3,0.75,93
0.3,0.9,90
0.3,1.05,88
0.3,1.2,87
0.3,1.35,98
0.3,1.5,98
0.45,-1.5,93
0.45,-1.35,95
0.45,-1.2,98
0.45,-1.05,108
0.45,-0.9,110
0.45,-0.75,108
0.45,-0.6,104
0.45,-0.45,93
0.45,-0.3,91
0.45,-0.15,88
0.45,0.0,117
0.45,0.15,88
0.45,0.3,71
0.45,0.45,72
0.45,0.6,85
0.45,0.75,90
0.45,0.9,83
0.45,1.05,84
0.45,1.2,85
0.45,1.35,85
0.45,1.5,85
0.6,-1.5,93
0.6,-1.35,95
0.6,-1.2,99
0.6,-1.05,104
0.6,-0.9,110
0.6,-0.75,119
0.6,-0.6,128
0.6,-0.45,87
0.6,-0.3,78
0.6,-0.15,76
0.6,0.0,73
0.6,0.15,60
0.6,0.3,59
0.6,0.45,43
0.6,0.6,63
0.6,0.75,74
0.6,0.9,73
0.6,1.05,73
0.6,1.2,73
0.6,1.35,73
0.6,1.5,73
0.75,-1.5,89
0.75,-1.35,92
0.75,-1.2,98
0.75,-1.05,104
0.75,-0.9,110
0.75,-0.75,114
0.75,-0.6,215
0.75,-0.45,76
0.75,-0.3,58
0.75,-0.15,73
0.75,0.0,85
0.75,0.15,75
0.75,0.3,51
0.75,0.45,14
0.75,0.6,56
0.75,0.75,74
0.75,0.9,74
0.75,1.05,73
0.75,1.2,74
0.75,1.35,73
0.75,1.5,73
0.9,-1.5,84
0.9,-1.35,87
0.9,-1.2,93
0.9,-1.05,97
0.9,-0.9,104
0.9,-0.75,110
0.9,-0.6,114
0.9,-0.45,88
0.9,-0.3,70
0.9,-0.15,76
0.9,0.0,88
0.9,0.15,58
0.9,0.3,131
0.9,0.45,71
0.9,0.6,64
0.9,0.75,64
0.9,0.9,65
0.9,1.05,74
0.9,1.2,74
0.9,1.35,74
0.9,1.5,74
1.05,-1.5,81
1.05,-1.35,82
1.05,-1.2,85
1.05,-1.05,89
1.05,-0.9,90
1.05,-0.75,85
1.05,-0.6,66
1.05,-0.45,66
1.05,-0.3,57
1.05,-0.15,98
1.05,0.0,92
1.05,0.15,86
1.05,0.3,99
1.05,0.45,89
1.05,0.6,80
1.05,0.75,68
1.05,0.9,67
1.05,1.05,63
1.05,1.2,62
1.05,1.35,62
1.05,1.5,74
1.2,-1.5,77
1.2,-1.35,78
1.2,-1.2,78
1.2,-1.05,78
1.2,-0.9,79
1.2,-0.75,74
1.2,-0.6,67
1.2,-0.45,67
1.2,-0.3,67
1.2,-0.15,88
1.2,0.0,78
1.2,0.15,68
1.2,0.3,76
1.2,0.45,78
1.2,0.6,77
1.2,0.75,75
1.2,0.9,74
1.2,1.05,59
1.2,1.2,58
1.2,1.35,58
1.2,1.5,57
1.35,-1.5,70
1.35,-1.35,69
1.35,-1.2,69
1.35,-1.05,68
1.35,-0.9,68
1.35,-0.75,64
1.35,-0.6,65
1.35,-0.45,57
1.35,-0.3,59
1.35,-0.15,92
1.35,0.0,138
1.35,0.15,63
1.35,0.3,66
1.35,0.45,73
1.35,0.6,73
1.35,0.75,59
1.35,0.9,58
1.35,1.05,57
1.35,1.2,57
1.35,1.35,57
1.35,1.5,57
1.5,-1.5,66
1.5,-1.35,64
1.5,-1.2,63
1.5,-1.05,61
1.5,-0.9,58
1.5,-0.75,56
1.5,-0.6,56
1.5,-0.45,54
1.5,-0.3,59
1.5,-0.15,59
1.5,0.0,82
1.5,0.15,62
1.5,0.3,58
1.5,0.45,64
1.5,0.6,66
1.5,0.75,68
1.5,0.9,66
1.5,1.05,57
1.5,1.2,57
1.5,1.35,57
1.5,1.5,57
1.65,-1.5,62
1.65,-1.35,60
1.65,-1.2,48
1.65,-1.05,43
1.65,-0.9,43
1.65,-0.75,44
1.65,-0.6,47
1.65,-0.45,53
1.65,-0.3,60
1.65,-0.15,70
1.65,0.0,72
1.65,0.15,52
1.65,0.3,55
1.65,0.45,51
1.65,0.6,53
1.65,0.75,51
1.65,0.9,58
1.65,1.05,60
1.65,1.2,57
1.65,1.35,57
1.65,1.5,57
1.8,-1.5,48
1.8,-1.35,47
1.8,-1.2,43
1.8,-1.05,41
1.8,-0.9,38
1.8,-0.75,34
1.8,-0.6,35
1.8,-0.45,52
1.8,-0.3,62
1.8,-0.15,64
1.8,0.0,65
1.8,0.15,56
1.8,0.3,47
1.8,0.45,40
1.8,0.6,41
1.8,0.75,36
1.8,0.9,39
1.8,1.05,41
1.8,1.2,42
1.8,1.35,42
1.8,1.5,43
1.95,-1.5,44
1.95,-1.35,43
1.95,-1.2,42
1.95,-1.05,40
1.95,-0.9,35
1.95,-0.75,23
1.95,-0.6,0
1.95,-0.45,47
1.95,-0.3,56
1.95,-0.15,93
1.95,0.0,102
1.95,0.15,49
1.95,0.3,2
1.95,0.45,17
1.95,0.6,40
1.95,0.75,36
1.95,0.9,39
1.95,1.05,35
1.95,1.2,35
1.95,1.35,35
1.95,1.5,36
2.1,-1.5,44
2.1,-1.35,43
2.1,-1.2,42
2.1,-1.05,40
2.1,-0.9,37
2.1,-0.75,30
2.1,-0.6,27
2.1,-0.45,55
2.1,-0.3,62
2.1,-0.15,68
2.1,0.0,30
2.1,0.15,31
2.1,0.3,21
2.1,0.45,20
2.1,0.6,27
2.1,0.75,32
2.1,0.9,35
2.1,1.05,36
2.1,1.2,36
2.1,1.35,37
2.1,1.5,40
2.25,-1.5,41
2.25,-1.35,40
2.25,-1.2,40
2.25,-1.05,43
2.25,-0.9,39
2.25,-0.75,39
2.25,-0.6,52
2.25,-0.45,53
2.25,-0.3,64
2.25,-0.15,60
2.25,0.0,39
2.25,0.15,20
2.25,0.3,20
2.25,0.45,31
2.25,0.6,38
2.25,0.75,40
2.25,0.9,40
2.25,1.05,39
2.25,1.2,42
2.25,1.35,42
2.25,1.5,42
2.4,-1.5,41
2.4,-1.35,41
2.4,-1.2,41
2.4,-1.05,41
2.4,-0.9,45
2.4,-0.75,55
2.4,-0.6,56
2.4,-0.45,60
2.4,-0.3,60
2.4,-0.15,94
2.4,0.0,47
2.4,0.15,26
2.4,0.3,37
2.4,0.45,64
2.4,0.6,61
2.4,0.75,56
2.4,0.9,55
2.4,1.05,46
2.4,1.2,45
2.4,1.35,44
2.4,1.5,45
2.55,-1.5,46
2.55,-1.35,46
2.55,-1.2,46
2.55,-1.05,47
2.55,-0.9,47
2.55,-0.75,48
2.55,-0.6,58
2.55,-0.45,57
2.55,-0.3,47
2.55,-0.15,47
2.55,0.0,56
2.55,0.15,45
2.55,0.3,84
2.55,0.45,117
2.55,0.6,73
2.55,0.75,61
2.55,0.9,56
2.55,1.05,52
2.55,1.2,50
2.55,1.35,45
2.55,1.5,44
2.7,-1.5,46
2.7,-1.35,47
2.7,-1.2,48
2.7,-1.05,48
2.7,-0.9,52
2.7,-0.75,52
2.7,-0.6,52
2.7,-0.45,52
2.7,-0.3,55
2.7,-0.15,57
2.7,0.0,93
2.7,0.15,50
2.7,0.3,74
2.7,0.45,70
2.7,0.6,71
2.7,0.75,69
2.7,0.9,60
2.7,1.05,57
2.7,1.2,51
2.7,1.35,50
2.7,1.5,49
2.85,-1.5,46
2.85,-1.35,46
2.85,-1.2,46
2.85,-1.05,48
2.85,-0.9,49
2.85,-0.75,49
2.85,-0.6,50
2.85,-0.45,52
2.85,-0.3,55
2.85,-0.15,53
2.85,0.0,50
2.85,0.15,50
2.85,0.3,57
2.85,0.45,64
2.85,0.6,63
2.85,0.75,62
2.85,0.9,61
2.85,1.05,59
2.85,1.2,76
2.85,1.35,77
2.85,1.5,77
3.0,-1.5,71
3.0,-1.35,71
3.0,-1.2,60
3.0,-1.05,62
3.0,-0.9,60
3.0,-0.75,51
3.0,-0.6,49
3.0,-0.45,50
3.0,-0.3,50
3.0,-0.15,50
3.0,0.0,50
3.0,0.15,51
3.0,0.3,54
3.0,0.45,57
3.0,0.6,57
3.0,0.75,74
3.0,0.9,76
3.0,1.05,78
3.0,1.2,80
3.0,1.35,80
3.0,1.5,80
3.15,-1.5,71
3.15,-1.35,71
3.15,-1.2,71
3.15,-1.05,77
3.15,-0.9,75
3.15,-0.75,59
3.15,-0.6,59
3.15,-0.45,53
3.15,-0.3,50
3.15,-0.15,55
3.15,0.0,55
3.15,0.15,60
3.15,0.3,87
3.15,0.45,67
3.15,0.6,76
3.15,0.75,80
3.15,0.9,80
3.15,1.05,80
3.15,1.2,80
3.15,1.35,80
3.15,1.5,80
3.3,-1.5,71
3.3,-1.35,71
3.3,-1.2,71
3.3,-1.05,71
3.3,-0.9,84
3.3,-0.75,83
3.3,-0.6,79
3.3,-0.45,79
3.3,-0.3,81
3.3,-0.15,112
3.3,0.0,79
3.3,0.15,87
3.3,0.3,7
3.3,0.45,59
3.3,0.6,80
3.3,0.75,75
3.3,0.9,75
3.3,1.05,80
3.3,1.2,80
3.3,1.35,80
3.3,1.5,80
3.45,-1.5,72
3.45,-1.35,73
3.45,-1.2,78
3.45,-1.05,84
3.45,-0.9,81
3.45,-0.75,91
3.45,-0.6,103
3.45,-0.45,125
3.45,-0.3,117
3.45,-0.15,64
3.45,0.0,54
3.45,0.15,105
3.45,0.3,155
3.45,0.45,92
3.45,0.6,82
3.45,0.75,78
3.45,0.9,76
3.45,1.05,75
3.45,1.2,70
3.45,1.35,79
3.45,1.5,79
3.6,-1.5,70
3.6,-1.35,71
3.6,-1.2,72
3.6,-1.05,74
3.6,-0.9,79
3.6,-0.75,92
3.6,-0.6,116
3.6,-0.45,134
3.6,-0.3,113
3.6,-0.15,55
3.6,0.0,55
3.6,0.15,77
3.6,0.3,149
3.6,0.45,85
3.6,0.6,74
3.6,0.75,71
3.6,0.9,70
3.6,1.05,70
3.6,1.2,70
3.6,1.35,70
3.6,1.5,70
3.75,-1.5,67
3.75,-1.35,67
3.75,-1.2,83
3.75,-1.05,83
3.75,-0.9,84
3.75,-0.75,87
3.75,-0.6,104
3.75,-0.45,218
3.75,-0.3,108
3.75,-0.15,66
3.75,0.0,104
3.75,0.15,78
3.75,0.3,53
3.75,0.45,62
3.75,0.6,70
3.75,0.75,74
3.75,0.9,74
3.75,1.05,74
3.75,1.2,68
3.75,1.35,69
3.75,1.5,69
3.9,-1.5,53
3.9,-1.35,53
3.9,-1.2,52
3.9,-1.05,62
3.9,-0.9,61
3.9,-0.75,58
3.9,-0.6,37
3.9,-0.45,58
3.9,-0.3,140
3.9,-0.15,74
3.9,0.0,106
3.9,0.15,102
3.9,0.3,39
3.9,0.45,55
3.9,0.6,60
3.9,0.75,69
3.9,0.9,58
3.9,1.05,59
3.9,1.2,59
3.9,1.35,71
3.9,1.5,72
4.05,-1.5,48
4.05,-1.35,47
4.05,-1.2,49
4.05,-1.05,46
4.05,-0.9,39
4.05,-0.75,26
4.05,-0.6,33
4.05,-0.45,87
4.05,-0.3,55
4.05,-0.15,106
4.05,0.0,82
4.05,0.15,56
4.05,0.3,36
4.05,0.45,42
4.05,0.6,46
4.05,0.75,42
4.05,0.9,49
4.05,1.05,51
4.05,1.2,70
4.05,1.35,91
4.05,1.5,93
4.2,-1.5,31
4.2,-1.35,30
4.2,-1.2,30
4.2,-1.05,31
4.2,-0.9,27
4.2,-0.75,12
4.2,-0.6,34
4.2,-0.45,48
4.2,-0.3,4
4.2,-0.15,70
4.2,0.0,44
4.2,0.15,36
4.2,0.3,29
4.2,0.45,27
4.2,0.6,33
4.2,0.75,45
4.2,0.9,49
4.2,1.05,69
4.2,1.2,71
4.2,1.35,72
4.2,1.5,89
4.35,-1.5,27
4.35,-1.35,30
4.35,-1.2,30
4.35,-1.05,29
4.35,-0.9,28
4.35,-0.75,28
4.35,-0.6,36
4.35,-0.45,46
4.35,-0.3,54
4.35,-0.15,107
4.35,0.0,112
4.35,0.15,3
4.35,0.3,13
4.35,0.45,56
4.35,0.6,66
4.35,0.75,89
4.35,0.9,96
4.35,1.05,109
4.35,1.2,109
4.35,1.35,82
4.35,1.5,82
4.5,-1.5,18
4.5,-1.35,22
4.5,-1.2,22
4.5,-1.05,26
4.5,-0.9,29
4.5,-0.75,28
4.5,-0.6,28
4.5,-0.45,45
4.5,-0.3,48
4.5,-0.15,60
4.5,0.0,37
4.5,0.15,52
4.5,0.3,66
4.5,0.45,77
4.5,0.6,114
4.5,0.75,122
4.5,0.9,110
4.5,1.05,108
4.5,1.2,107
4.5,1.35,85
4.5,1.5,109
4.65,-1.5,18
4.65,-1.35,18
4.65,-1.2,18
4.65,-1.05,19
4.65,-0.9,20
4.65,-0.75,34
4.65,-0.6,26
4.65,-0.45,16
4.65,-0.3,56
4.65,-0.15,48
4.65,0.0,50
4.65,0.15,80
4.65,0.3,98
4.65,0.45,177
4.65,0.6,153
4.65,0.75,143
4.65,0.9,138
4.65,1.05,135
4.65,1.2,133
4.65,1.35,132
4.65,1.5,111
4.8,-1.5,18
4.8,-1.35,25
4.8,-1.2,14
4.8,-1.05,19
4.8,-0.9,20
4.8,-0.75,34
4.8,-0.6,43
4.8,-0.45,31
4.8,-0.3,125
4.8,-0.15,60
4.8,0.0,90
4.8,0.15,114
4.8,0.3,82
4.8,0.45,254
4.8,0.6,157
4.8,0.75,140
4.8,0.9,134
4.8,1.05,131
4.8,1.2,130
4.8,1.35,129
4.8,1.5,116
4.95,-1.5,31
4.95,-1.35,31
4.95,-1.2,31
4.95,-1.05,31
4.95,-0.9,30
4.95,-0.75,31
4.95,-0.6,52
4.95,-0.45,56
4.95,-0.3,89
4.95,-0.15,116
4.95,0.0,97
4.95,0.15,129
4.95,0.3,62
4.95,0.45,127
4.95,0.6,130
4.95,0.75,131
4.95,0.9,130
4.95,1.05,129
4.95,1.2,128
4.95,1.35,127
4.95,1.5,127
5.1,-1.5,31
5.1,-1.35,30
5.1,-1.2,30
5.1,-1.05,31
5.1,-0.9,26
5.1,-0.75,9
5.1,-0.6,45
5.1,-0.45,89
5.1,-0.3,46
5.1,-0.15,16
5.1,0.0,73
5.1,0.15,59
5.1,0.3,62
5.1,0.45,91
5.1,0.6,106
5.1,0.75,112
5.1,0.9,113
5.1,1.05,130
5.1,1.2,115
5.1,1.35,128
5.1,1.5,128
5.25,-1.5,34
5.25,-1.35,34
5.25,-1.2,30
5.25,-1.05,30
5.25,-0.9,29
5.25,-0.75,15
5.25,-0.6,28
5.25,-0.45,80
5.25,-0.3,77
5.25,-0.15,184
5.25,0.0,71
5.25,0.15,54
5.25,0.3,83
5.25,0.45,92
5.25,0.6,93
5.25,0.75,102
5.25,0.9,105
5.25,1.05,128
5.25,1.2,119
5.25,1.35,115
5.25,1.5,116
5.4,-1.5,34
5.4,-1.35,34
5.4,-1.2,33
5.4,-1.05,31
5.4,-0.9,30
5.4,-0.75,30
5.4,-0.6,48
5.4,-0.45,43
5.4,-0.3,113
5.4,-0.15,75
5.4,0.0,53
5.4,0.15,65
5.4,0.3,92
5.4,0.45,70
5.4,0.6,84
5.4,0.75,84
5.4,0.9,84
5.4,1.05,103
5.4,1.2,104
5.4,1.35,105
5.4,1.5,116
5.55,-1.5,34
5.55,-1.35,34
5.55,-1.2,34
5.55,-1.05,33
5.55,-0.9,48
5.55,-0.75,47
5.55,-0.6,44
5.55,-0.45,63
5.55,-0.3,66
5.55,-0.15,50
5.55,0.0,45
5.55,0.15,71
5.55,0.3,66
5.55,0.45,77
5.55,0.6,75
5.55,0.75,84
5.55,0.9,85
5.55,1.05,86
5.55,1.2,82
5.55,1.35,79
5.55,1.5,82
5.7,-1.5,34
5.7,-1.35,34
5.7,-1.2,51
5.7,-1.05,51
5.7,-0.9,49
5.7,-0.75,44
5.7,-0.6,32
5.7,-0.45,140
5.7,-0.3,53
5.7,-0.15,40
5.7,0.0,38
5.7,0.15,38
5.7,0.3,55
5.7,0.45,65
5.7,0.6,68
5.7,0.75,69
5.7,0.9,70
5.7,1.05,70
5.7,1.2,79
5.7,1.35,79
5.7,1.5,79
5.85,-1.5,45
5.85,-1.35,68
5.85,-1.2,68
5.85,-1.05,86
5.85,-0.9,82
5.85,-0.75,70
5.85,-0.6,71
5.85,-0.45,70
5.85,-0.3,63
5.85,-0.15,15
5.85,0.0,85
5.85,0.15,49
5.85,0.3,54
5.85,0.45,47
5.85,0.6,44
5.85,0.75,60
5.85,0.9,62
5.85,1.05,63
5.85,1.2,63
5.85,1.35,64
5.85,1.5,64
6.0,-1.5,62
6.0,-1.35,80
6.0,-1.2,80
6.0,-1.05,80
6.0,-0.9,77
6.0,-0.75,73
6.0,-0.6,94
6.0,-0.45,113
6.0,-0.3,157
6.0,-0.15,132
6.0,0.0,42
6.0,0.15,27
6.0,0.3,51
6.0,0.45,41
6.0,0.6,53
6.0,0.75,42
6.0,0.9,42
6.0,1.05,42
6.0,1.2,42
6.0,1.35,42
6.0,1.5,42
6.15,-1.5,62
6.15,-1.35,61
6.15,-1.2,58
6.15,-1.05,58
6.15,-0.9,74
6.15,-0.75,78
6.15,-0.6,86
6.15,-0.45,112
6.15,-0.3,98
6.15,-0.15,241
6.15,0.0,52
6.15,0.15,62
6.15,0.3,36
6.15,0.45,30
6.15,0.6,32
6.15,0.75,35
6.15,0.9,36
6.15,1.05,36
6.15,1.2,37
6.15,1.35,37
6.15,1.5,37
6.3,-1.5,57
6.3,-1.35,56
6.3,-1.2,50
6.3,-1.05,46
6.3,-0.9,39
6.3,-0.75,47
6.3,-0.6,74
6.3,-0.45,62
6.3,-0.3,38
6.3,-0.15,44
6.3,0.0,14
6.3,0.15,76
6.3,0.3,43
6.3,0.45,30
6.3,0.6,34
6.3,0.75,33
6.3,0.9,35
6.3,1.05,31
6.3,1.2,31
6.3,1.35,32
6.3,1.5,32
6.45,-1.5,52
6.45,-1.35,50
6.45,-1.2,46
6.45,-1.05,42
6.45,-0.9,18
6.45,-0.75,11
6.45,-0.6,24
6.45,-0.45,37
6.45,-0.3,37
6.45,-0.15,40
6.45,0.0,71
6.45,0.15,45
6.45,0.3,0
6.45,0.45,25
6.45,0.6,26
6.45,0.75,26
6.45,0.9,30
6.45,1.05,30
6.45,1.2,31
6.45,1.35,31
6.45,1.5,31
6.6,-1.5,34
6.6,-1.35,33
6.6,-1.2,31
6.6,-1.05,18
6.6,-0.9,18
6.6,-0.75,24
6.6,-0.6,32
6.6,-0.45,37
6.6,-0.3,31
6.6,-0.15,50
6.6,0.0,63
6.6,0.15,54
6.6,0.3,49
6.6,0.45,36
6.6,0.6,35
6.6,0.75,27
6.6,0.9,52
6.6,1.05,54
6.6,1.2,55
6.6,1.35,56
6.6,1.5,56
6.75,-1.5,34
6.75,-1.35,33
6.75,-1.2,33
6.75,-1.05,32
6.75,-0.9,20
6.75,-0.75,22
6.75,-0.6,29
6.75,-0.45,31
6.75,-0.3,35
6.75,-0.15,80
6.75,0.0,61
6.75,0.15,36
6.75,0.3,32
6.75,0.45,32
6.75,0.6,54
6.75,0.75,59
6.75,0.9,62
6.75,1.05,63
6.75,1.2,63
6.75,1.35,63
6.75,1.5,63
6.9,-1.5,36
6.9,-1.35,36
6.9,-1.2,36
6.9,-1.05,37
6.9,-0.9,41
6.9,-0.75,42
6.9,-0.6,36
6.9,-0.45,19
6.9,-0.3,47
6.9,-0.15,42
6.9,0.0,48
6.9,0.15,25
6.9,0.3,89
6.9,0.45,42
6.9,0.6,70
6.9,0.75,74
6.9,0.9,74
6.9,1.05,66
6.9,1.2,63
6.9,1.35,63
6.9,1.5,63
7.05,-1.5,59
7.05,-1.35,59
7.05,-1.2,59
7.05,-1.05,59
7.05,-0.9,57
7.05,-0.75,49
7.05,-0.6,35
7.05,-0.45,92
7.05,-0.3,32
7.05,-0.15,32
7.05,0.0,67
7.05,0.15,74
7.05,0.3,112
7.05,0.45,112
7.05,0.6,95
7.05,0.75,77
7.05,0.9,74
7.05,1.05,71
7.05,1.2,70
7.05,1.35,69
7.05,1.5,65
7.2,-1.5,61
7.2,-1.35,66
7.2,-1.2,66
7.2,-1.05,65
7.2,-0.9,64
7.2,-0.75,59
7.2,-0.6,55
7.2,-0.45,50
7.2,-0.3,45
7.2,-0.15,135
7.2,0.0,53
7.2,0.15,144
7.2,0.3,110
7.2,0.45,124
7.2,0.6,97
7.2,0.75,87
7.2,0.9,91
7.2,1.05,82
7.2,1.2,66
7.2,1.35,65
7.2,1.5,65
7.35,-1.5,76
7.35,-1.35,63
7.35,-1.2,64
7.35,-1.05,64
7.35,-0.9,69
7.35,-0.75,66
7.35,-0.6,69
7.35,-0.45,53
7.35,-0.3,32
7.35,-0.15,86
7.35,0.0,62
7.35,0.15,71
7.35,0.3,80
7.35,0.45,70
7.35,0.6,98
7.35,0.75,93
7.35,0.9,103
7.35,1.05,93
7.35,1.2,94
7.35,1.35,94
7.35,1.5,94
7.5,-1.5,107
7.5,-1.35,106
7.5,-1.2,105
7.5,-1.05,103
7.5,-0.9,92
7.5,-0.75,89
7.5,-0.6,95
7.5,-0.45,54
7.5,-0.3,35
7.5,-0.15,68
7.5,0.0,54
7.5,0.15,77
7.5,0.3,70
7.5,0.45,9
7.5,0.6,72
7.5,0.75,89
7.5,0.9,95
7.5,1.05,87
7.5,1.2,94
7.5,1.35,94
7.5,1.5,94
7.65,-1.5,110
7.65,-1.35,111
7.65,-1.2,112
7.65,-1.05,109
7.65,-0.9,109
7.65,-0.75,101
7.65,-0.6,116
7.65,-0.45,79
7.65,-0.3,44
7.65,-0.15,75
7.65,0.0,95
7.65,0.15,123
7.65,0.3,184
7.65,0.45,84
7.65,0.6,75
7.65,0.75,95
7.65,0.9,95
7.65,1.05,95
7.65,1.2,87
7.65,1.35,87
7.65,1.5,91
7.8,-1.5,118
7.8,-1.35,136
7.8,-1.2,137
7.8,-1.05,137
7.8,-0.9,140
7.8,-0.75,135
7.8,-0.6,118
7.8,-0.45,59
7.8,-0.3,44
7.8,-0.15,80
7.8,0.0,41
7.8,0.15,60
7.8,0.3,98
7.8,0.45,84
7.8,0.6,80
7.8,0.75,71
7.8,0.9,71
7.8,1.05,71
7.8,1.2,89
7.8,1.35,89
7.8,1.5,90
7.95,-1.5,112
7.95,-1.35,114
7.95,-1.2,113
7.95,-1.05,127
7.95,-0.9,144
7.95,-0.75,175
7.95,-0.6,127
7.95,-0.45,115
7.95,-0.3,47
7.95,-0.15,77
7.95,0.0,56
7.95,0.15,50
7.95,0.3,66
7.95,0.45,75
7.95,0.6,71
7.95,0.75,71
7.95,0.9,71
7.95,1.05,83
7.95,1.2,83
7.95,1.35,83
7.95,1.5,90
8.1,-1.5,104
8.1,-1.35,88
8.1,-1.2,88
8.1,-1.05,88
8.1,-0.9,101
8.1,-0.75,133
8.1,-0.6,92
8.1,-0.45,158
8.1,-0.3,52
8.1,-0.15,52
8.1,0.0,46
8.1,0.15,50
8.1,0.3,55
8.1,0.45,66
8.1,0.6,87
8.1,0.75,87
8.1,0.9,87
8.1,1.05,87
8.1,1.2,87
8.1,1.35,87
8.1,1.5,88
8.25,-1.5,96
8.25,-1.35,96
8.25,-1.2,92
8.25,-1.05,91
8.25,-0.9,78
8.25,-0.75,74
8.25,-0.6,50
8.25,-0.45,44
8.25,-0.3,44
8.25,-0.15,52
8.25,0.0,48
8.25,0.15,39
8.25,0.3,72
8.25,0.45,74
8.25,0.6,69
8.25,0.75,71
8.25,0.9,85
8.25,1.05,86
8.25,1.2,87
8.25,1.35,87
8.25,1.5,87
8.4,-1.5,73
8.4,-1.35,73
8.4,-1.2,72
8.4,-1.05,73
8.4,-0.9,67
8.4,-0.75,51
8.4,-0.6,17
8.4,-0.45,75
8.4,-0.3,74
8.4,-0.15,54
8.4,0.0,85
8.4,0.15,255
8.4,0.3,95
8.4,0.45,72
8.4,0.6,68
8.4,0.75,69
8.4,0.9,68
8.4,1.05,68
8.4,1.2,85
8.4,1.35,86
8.4,1.5,87
8.55,-1.5,71
8.55,-1.35,70
8.55,-1.2,68
8.55,-1.05,67
8.55,-0.9,71
8.55,-0.75,82
8.55,-0.6,55
8.55,-0.45,48
8.55,-0.3,75
8.55,-0.15,62
8.55,0.0,64
8.55,0.15,100
8.55,0.3,66
8.55,0.45,64
8.55,0.6,64
8.55,0.75,68
8.55,0.9,70
8.55,1.05,68
8.55,1.2,71
8.55,1.35,71
8.55,1.5,86
8.7,-1.5,88
8.7,-1.35,87
8.7,-1.2,74
8.7,-1.05,75
8.7,-0.9,76
8.7,-0.75,78
8.7,-0.6,86
8.7,-0.45,94
8.7,-0.3,94
8.7,-0.15,101
8.7,0.0,62
8.7,0.15,59
8.7,0.3,67
8.7,0.45,64
8.7,0.6,64
8.7,0.75,66
8.7,0.9,69
8.7,1.05,70
8.7,1.2,71
8.7,1.35,71
8.7,1.5,71
8.85,-1.5,80
8.85,-1.35,80
8.85,-1.2,80
8.85,-1.05,81
8.85,-0.9,84
8.85,-0.75,83
8.85,-0.6,74
8.85,-0.45,92
8.85,-0.3,55
8.85,-0.15,65
8.85,0.0,63
8.85,0.15,59
8.85,0.3,61
8.85,0.45,73
8.85,0.6,65
8.85,0.75,64
8.85,0.9,69
8.85,1.05,70
8.85,1.2,70
8.85,1.35,71
8.85,1.5,71
9.0,-1.5,80
9.0,-1.35,80
9.0,-1.2,81
9.0,-1.05,84
9.0,-0.9,83
9.0,-0.75,80
9.0,-0.6,72
9.0,-0.45,61
9.0,-0.3,52
9.0,-0.15,53
9.0,0.0,56
9.0,0.15,63
9.0,0.3,69
9.0,0.45,73
9.0,0.6,72
9.0,0.75,79
9.0,0.9,68
9.0,1.05,68
9.0,1.2,70
9.0,1.35,70
9.0,1.5,70
9.15,-1.5,81
9.15,-1.35,84
9.15,-1.2,84
9.15,-1.05,83
9.15,-0.9,81
9.15,-0.75,78
9.15,-0.6,65
9.15,-0.45,61
9.15,-0.3,56
9.15,-0.15,53
9.15,0.0,69
9.15,0.15,72
9.15,0.3,70
9.15,0.45,74
9.15,0.6,76
9.15,0.75,76
9.15,0.9,79
9.15,1.05,98
9.15,1.2,100
9.15,1.35,82
9.15,1.5,78
9.3,-1.5,97
9.3,-1.35,97
9.3,-1.2,83
9.3,-1.05,76
9.3,-0.9,76
9.3,-0.75,76
9.3,-0.6,75
9.3,-0.45,88
9.3,-0.3,93
9.3,-0.15,148
9.3,0.0,105
9.3,0.15,84
9.3,0.3,78
9.3,0.45,93
9.3,0.6,79
9.3,0.75,78
9.3,0.9,77
9.3,1.05,77
9.3,1.2,77
9.3,1.35,101
9.3,1.5,102
9.45,-1.5,89
9.45,-1.35,81
9.45,-1.2,81
9.45,-1.05,81
9.45,-0.9,81
9.45,-0.75,77
9.45,-0.6,86
9.45,-0.45,98
9.45,-0.3,119
9.45,-0.15,97
9.45,0.0,74
9.45,0.15,82
9.45,0.3,82
9.45,0.45,79
9.45,0.6,78
9.45,0.75,76
9.45,0.9,76
9.45,1.05,78
9.45,1.2,78
9.45,1.35,78
9.45,1.5,78
9.6,-1.5,82
9.6,-1.35,82
9.6,-1.2,83
9.6,-1.05,83
9.6,-0.9,89
9.6,-0.75,91
9.6,-0.6,91
9.6,-0.45,92
9.6,-0.3,85
9.6,-0.15,85
9.6,0.0,86
9.6,0.15,84
9.6,0.3,83
9.6,0.45,81
9.6,0.6,79
9.6,0.75,78
9.6,0.9,77
9.6,1.05,76
9.6,1.2,76
9.6,1.35,76
9.6,1.5,76
9.75,-1.5,83
9.75,-1.35,84
9.75,-1.2,85
9.75,-1.05,90
9.75,-0.9,92
9.75,-0.75,91
9.75,-0.6,92
9.75,-0.45,92
9.75,-0.3,89
9.75,-0.15,89
9.75,0.0,88
9.75,0.15,87
9.75,0.3,86
9.75,0.45,85
9.75,0.6,80
9.75,0.75,79
9.75,0.9,78
9.75,1.05,77
9.75,1.2,77
9.75,1.35,76
9.75,1.5,76
9.9,-1.5,68
9.9,-1.35,70
9.9,-1.2,86
9.9,-1.05,88
9.9,-0.9,91
9.9,-0.75,92
9.9,-0.6,96
9.9,-0.45,95
9.9,-0.3,91
9.9,-0.15,87
9.9,0.0,85
9.9,0.15,84
9.9,0.3,82
9.9,0.45,81
9.9,0.6,80
9.9,0.75,79
9.9,0.9,76
9.9,1.05,76
9.9,1.2,76
9.9,1.35,77
9.9,1.5,76
10.05,-1.5,68
10.05,-1.35,84
10.05,-1.2,86
10.05,-1.05,88
10.05,-0.9,88
10.05,-0.75,95
10.05,-0.6,105
10.05,-0.45,107
10.05,-0.3,93
10.05,-0.15,85
10.05,0.0,81
10.05,0.15,80
10.05,0.3,79
10.05,0.45,79
10.05,0.6,78
10.05,0.75,78
10.05,0.9,77
10.05,1.05,77
10.05,1.2,76
10.05,1.35,76
10.05,1.5,76
10.2,-1.5,83
10.2,-1.35,83
10.2,-1.2,84
10.2,-1.05,83
10.2,-0.9,86
10.2,-0.75,93
10.2,-0.6,102
10.2,-0.45,104
10.2,-0.3,87
10.2,-0.15,75
10.2,0.0,72
10.2,0.15,72
10.2,0.3,74
10.2,0.45,75
10.2,0.6,75
10.2,0.75,76
10.2,0.9,76
10.2,1.05,76
10.2,1.2,76
10.2,1.35,76
10.2,1.5,76
10.35,-1.5,82
10.35,-1.35,82
10.35,-1.2,82
10.35,-1.05,80
10.35,-0.9,81
10.35,-0.75,83
10.35,-0.6,84
10.35,-0.45,77
10.35,-0.3,59
10.35,-0.15,50
10.35,0.0,54
10.35,0.15,61
10.35,0.3,66
10.35,0.45,70
10.35,0.6,72
10.35,0.75,73
10.35,0.9,74
10.35,1.05,75
10.35,1.2,75
10.35,1.35,75
10.35,1.5,76
10.5,-1.5,80
10.5,-1.35,80
10.5,-1.2,76
10.5,-1.05,76
10.5,-0.9,74
10.5,-0.75,71
10.5,-0.6,62
10.5,-0.45,42
10.5,-0.3,16
10.5,-0.15,14
10.5,0.0,32
10.5,0.15,48
10.5,0.3,59
10.5,0.45,65
10.5,0.6,69
10.5,0.75,71
10.5,0.9,72
10.5,1.05,73
10.5,1.2,74
10.5,1.35,75
10.5,1.5,75
10.65,-1.5,79
10.65,-1.35,75
10.65,-1.2,74
10.65,-1.05,72
10.65,-0.9,68
10.65,-0.75,61
10.65,-0.6,48
10.65,-0.45,24
10.65,-0.3,0
10.65,-0.15,0
10.65,0.0,20
10.65,0.15,40
10.65,0.3,53
10.65,0.45,61
10.65,0.6,66
10.65,0.75,69
10.65,0.9,71
10.65,1.05,72
10.65,1.2,73
10.65,1.35,74
10.65,1.5,74
10.8,-1.5,74
10.8,-1.35,73
10.8,-1.2,71
10.8,-1.05,69
10.8,-0.9,64
10.8,-0.75,56
10.8,-0.6,44
10.8,-0.45,26
10.8,-0.3,11
10.8,-0.15,10
10.8,0.0,24
10.8,0.15,39
10.8,0.3,51
10.8,0.45,59
10.8,0.6,64
10.8,0.75,67
10.8,0.9,69
10.8,1.05,71
10.8,1.2,72
10.8,1.35,69
10.8,1.5,69
10.95,-1.5,72
10.95,-1.35,68
10.95,-1.2,66
10.95,-1.05,67
10.95,-0.9,62
10.95,-0.75,55
10.95,-0.6,46
10.95,-0.45,35
10.95,-0.3,27
10.95,-0.15,27
10.95,0.0,33
10.95,0.15,43
10.95,0.3,52
10.95,0.45,58
10.95,0.6,63
10.95,0.75,66
10.95,0.9,65
10.95,1.05,66
10.95,1.2,66
10.95,1.35,67
10.95,1.5,67
11.1,-1.5,66
11.1,-1.35,65
11.1,-1.2,64
11.1,-1.05,62
11.1,-0.9,59
11.1,-0.75,54
11.1,-0.6,48
11.1,-0.45,44
11.1,-0.3,39
11.1,-0.15,39
11.1,0.0,42
11.1,0.15,48
11.1,0.3,54
11.1,0.45,59
11.1,0.6,59
11.1,0.75,62
11.1,0.9,63
11.1,1.05,64
11.1,1.2,64
11.1,1.35,64
11.1,1.5,64
11.25,-1.5,64
11.25,-1.35,63
11.25,-1.2,62
11.25,-1.05,60
11.25,-0.9,58
11.25,-0.75,55
11.25,-0.6,51
11.25,-0.45,48
11.25,-0.3,46
11.25,-0.15,45
11.25,0.0,49
11.25,0.15,50
11.25,0.3,53
11.25,0.45,56
11.25,0.6,59
11.25,0.75,60
11.25,0.9,61
11.25,1.05,62
11.25,1.2,62
11.25,1.35,62
11.25,1.5,62
11.4,-1.5,61
11.4,-1.35,60
11.4,-1.2,60
11.4,-1.05,59
11.4,-0.9,57
11.4,-0.75,55
11.4,-0.6,53
11.4,-0.45,51
11.4,-0.3,50
11.4,-0.15,48
11.4,0.0,49
11.4,0.15,50
11.4,0.3,55
11.4,0.45,57
11.4,0.6,58
11.4,0.75,59
11.4,0.9,59
11.4,1.05,59
11.4,1.2,59
11.4,1.35,59
11.4,1.5,58
11.55,-1.5,57
11.55,-1.35,57
11.55,-1.2,57
11.55,-1.05,57
11.55,-0.9,56
11.55,-0.75,55
11.55,-0.6,54
11.55,-0.45,51
11.55,-0.3,50
11.55,-0.15,50
11.55,0.0,50
11.55,0.15,51
11.55,0.3,52
11.55,0.45,53
11.55,0.6,54
11.55,0.75,57
11.55,0.9,57
11.55,1.05,57
11.55,1.2,56
11.55,1.35,55
11.55,1.5,55
11.7,-1.5,53
11.7,-1.35,53
11.7,-1.2,54
11.7,-1.05,54
11.7,-0.9,51
11.7,-0.75,51
11.7,-0.6,51
11.7,-0.45,51
11.7,-0.3,51
11.7,-0.15,51
11.7,0.0,51
11.7,0.15,51
11.7,0.3,52
11.7,0.45,52
11.7,0.6,52
11.7,0.75,51
11.7,0.9,51
11.7,1.05,50
11.7,1.2,52
11.7,1.35,51
11.7,1.5,50
11.85,-1.5,48
11.85,-1.35,48
11.85,-1.2,46
11.85,-1.05,47
11.85,-0.9,48
11.85,-0.75,49
11.85,-0.6,49
11.85,-0.45,50
11.85,-0.3,50
11.85,-0.15,50
11.85,0.0,50
11.85,0.15,50
11.85,0.3,50
11.85,0.45,50
11.85,0.6,49
11.85,0.75,48
11.85,0.9,47
11.85,1.05,45
11.85,1.2,44
11.85,1.35,42
11.85,1.5,42
12.0,-1.5,39
12.0,-1.35,39
12.0,-1.2,41
12.0,-1.05,42
12.0,-0.9,44
12.0,-0.75,45
12.0,-0.6,47
12.0,-0.45,47
12.0,-0.3,48
12.0,-0.15,48
12.0,0.0,49
12.0,0.15,48
12.0,0.3,48
12.0,0.45,47
12.0,0.6,46
12.0,0.75,44
12.0,0.9,42
12.0,1.05,40
12.0,1.2,38
12.0,1.35,36
12.0,1.5,35
12.15,-1.5,31
12.15,-1.35,32
12.15,-1.2,34
12.15,-1.05,36
12.15,-0.9,39
12.15,-0.75,41
12.15,-0.6,43
12.15,-0.45,45
12.15,-0.3,46
12.15,-0.15,46
12.15,0.0,46
12.15,0.15,46
12.15,0.3,45
12.15,0.45,44
12.15,0.6,42
12.15,0.75,40
12.15,0.9,37
12.15,1.05,34
12.15,1.2,31
12.15,1.35,29
12.15,1.5,27
12.3,-1.5,22
12.3,-1.35,23
12.3,-1.2,26
12.3,-1.05,29
12.3,-0.9,33
12.3,-0.75,36
12.3,-0.6,39
12.3,-0.45,41
12.3,-0.3,43
12.3,-0.15,44
12.3,0.0,44
12.3,0.15,44
12.3,0.3,42
12.3,0.45,41
12.3,0.6,38
12.3,0.75,35
12.3,0.9,31
12.3,1.05,27
12.3,1.2,23
12.3,1.35,21
12.3,1.5,19
12.45,-1.5,13
12.45,-1.35,14
12.45,-1.2,18
12.45,-1.05,22
12.45,-0.9,27
12.45,-0.75,31
12.45,-0.6,35
12.45,-0.45,38
12.45,-0.3,40
12.45,-0.15,41
12.45,0.0,41
12.45,0.15,41
12.45,0.3,39
12.45,0.45,37
12.45,0.6,34
12.45,0.75,30
12.45,0.9,25
12.45,1.05,20
12.45,1.2,16
12.45,1.35,12
12.45,1.5,11
12.6,-1.5,5
12.6,-1.35,6
12.6,-1.2,10
12.6,-1.05,15
12.6,-0.9,21
12.6,-0.75,26
12.6,-0.6,31
12.6,-0.45,35
12.6,-0.3,37
12.6,-0.15,38
12.6,0.0,39
12.6,0.15,38
12.6,0.3,36
12.6,0.45,34
12.6,0.6,30
12.6,0.75,25
12.6,0.9,19
12.6,1.05,14
12.6,1.2,8
12.6,1.35,5
12.6,1.5,3
12.75,-1.5,0
12.75,-1.35,0
12.75,-1.2,4
12.75,-1.05,10
12.75,-0.9,16
12.75,-0.75,22
12.75,-0.6,28
12.75,-0.45,32
12.75,-0.3,34
12.75,-0.15,36
12.75,0.0,36
12.75,0.15,36
12.75,0.3,34
12.75,0.45,31
12.75,0.6,26
12.75,0.75,21
12.75,0.9,15
12.75,1.05,9
12.75,1.2,3
12.75,1.35,0
12.75,1.5,0
12.9,-1.5,0
12.9,-1.35,0
12.9,-1.2,0
12.9,-1.05,6
12.9,-0.9,13
12.9,-0.75,19
12.9,-0.6,25
12.9,-0.45,29
12.9,-0.3,32
12.9,-0.15,34
12.9,0.0,34
12.9,0.15,34
12.9,0.3,32
12.9,0.45,28
12.9,0.6,24
12.9,0.75,18
12.9,0.9,12
12.9,1.05,5
12.9,1.2,0
12.9,1.35,0
12.9,1.5,0
13.05,-1.5,0
13.05,-1.35,0
13.05,-1.2,0
13.05,-1.05,5
13.05,-0.9,12
13.05,-0.75,18
13.05,-0.6,23
13.05,-0.45,28
13.05,-0.3,31
13.05,-0.15,32
13.05,0.0,33
13.05,0.15,32
13.05,0.3,30
13.05,0.45,27
13.05,0.6,22
13.05,0.75,17
13.05,0.9,11
13.05,1.05,4
13.05,1.2,0
13.05,1.35,0
13.05,1.5,0
