-3.0,-1.5,0
-3.0,-1.35,0
-3.0,-1.2,15
-3.0,-1.05,36
-3.0,-0.9,60
-3.0,-0.75,82
-3.0,-0.6,100
-3.0,-0.45,115
-3.0,-0.3,133
-3.0,-0.15,140
-3.0,0.0,144
-3.0,0.15,144
-3.0,0.3,141
-3.0,0.45,133
-3.0,0.6,120
-3.0,0.75,102
-3.0,0.9,77
-3.0,1.05,49
-3.0,1.2,22
-3.0,1.35,2
-3.0,1.5,0
-2.85,-1.5,0
-2.85,-1.35,6
-2.85,-1.2,21
-2.85,-1.05,43
-2.85,-0.9,67
-2.85,-0.75,89
-2.85,-0.6,108
-2.85,-0.45,123
-2.85,-0.3,141
-2.85,-0.15,149
-2.85,0.0,153
-2.85,0.15,154
-2.85,0.3,151
-2.85,0.45,144
-2.85,0.6,132
-2.85,0.75,113
-2.85,0.9,89
-2.85,1.05,60
-2.85,1.2,31
-2.85,1.35,10
-2.85,1.5,2
-2.7,-1.5,15
-2.7,-1.35,22
-2.7,-1.2,37
-2.7,-1.05,57
-2.7,-0.9,80
-2.7,-0.75,101
-2.7,-0.6,118
-2.7,-0.45,133
-2.7,-0.3,151
-2.7,-0.15,159
-2.7,0.0,163
-2.7,0.15,165
-2.7,0.3,163
-2.7,0.45,157
-2.7,0.6,146
-2.7,0.75,130
-2.7,0.9,107
-2.7,1.05,81
-2.7,1.2,53
-2.7,1.35,33
-2.7,1.5,24
-2.55,-1.5,37
-2.55,-1.35,45
-2.55,-1.2,58
-2.55,-1.05,77
-2.55,-0.9,96
-2.55,-0.75,114
-2.55,-0.6,130
-2.55,-0.45,143
-2.55,-0.3,161
-2.55,-0.15,169
-2.55,0.0,175
-2.55,0.15,177
-2.55,0.3,177
-2.55,0.45,173
-2.55,0.6,164
-2.55,0.75,150
-2.55,0.9,131
-2.55,1.05,108
-2.55,1.2,84
-2.55,1.35,65
-2.55,1.5,55
-2.4,-1.5,61
-2.4,-1.35,70
-2.4,-1.2,82
-2.4,-1.05,97
-2.4,-0.9,113
-2.4,-0.75,128
-2.4,-0.6,142
-2.4,-0.45,154
-2.4,-0.3,172
-2.4,-0.15,180
-2.4,0.0,186
-2.4,0.15,190
-2.4,0.3,192
-2.4,0.45,189
-2.4,0.6,183
-2.4,0.75,171
-2.4,0.9,155
-2.4,1.05,136
-2.4,1.2,116
-2.4,1.35,100
-2.4,1.5,89
-2.25,-1.5,85
-2.25,-1.35,91
-2.25,-1.2,104
-2.25,-1.05,116
-2.25,-0.9,129
-2.25,-0.75,142
-2.25,-0.6,154
-2.25,-0.45,164
-2.25,-0.3,181
-2.25,-0.15,190
-2.25,0.0,198
-2.25,0.15,204
-2.25,0.3,208
-2.25,0.45,207
-2.25,0.6,202
-2.25,0.75,191
-2.25,0.9,177
-2.25,1.05,161
-2.25,1.2,144
-2.25,1.35,130
-2.25,1.5,122
-2.1,-1.5,104
-2.1,-1.35,110
-2.1,-1.2,122
-2.1,-1.05,132
-2.1,-0.9,142
-2.1,-0.75,153
-2.1,-0.6,163
-2.1,-0.45,173
-2.1,-0.3,190
-2.1,-0.15,199
-2.1,0.0,208
-2.1,0.15,217
-2.1,0.3,224
-2.1,0.45,225
-2.1,0.6,220
-2.1,0.75,209
-2.1,0.9,195
-2.1,1.05,181
-2.1,1.2,169
-2.1,1.35,156
-2.1,1.5,146
-1.95,-1.5,130
-1.95,-1.35,125
-1.95,-1.2,133
-1.95,-1.05,144
-1.95,-0.9,153
-1.95,-0.75,162
-1.95,-0.6,171
-1.95,-0.45,180
-1.95,-0.3,190
-1.95,-0.15,206
-1.95,0.0,217
-1.95,0.15,229
-1.95,0.3,240
-1.95,0.45,244
-1.95,0.6,237
-1.95,0.75,224
-1.95,0.9,211
-1.95,1.05,197
-1.95,1.2,184
-1.95,1.35,173
-1.95,1.5,165
-1.8,-1.5,142
-1.8,-1.35,140
-1.8,-1.2,146
-1.8,-1.05,154
-1.8,-0.9,161
-1.8,-0.75,169
-1.8,-0.6,177
-1.8,-0.45,185
-1.8,-0.3,195
-1.8,-0.15,210
-1.8,0.0,222
-1.8,0.15,237
-1.8,0.3,254
-1.8,0.45,255
-1.8,0.6,250
-1.8,0.75,234
-1.8,0.9,218
-1.8,1.05,205
-1.8,1.2,194
-1.8,1.35,185
-1.8,1.5,177
-1.65,-1.5,151
-1.65,-1.35,155
-1.65,-1.2,154
-1.65,-1.05,160
-1.65,-0.9,167
-1.65,-0.75,174
-1.65,-0.6,181
-1.65,-0.45,189
-1.65,-0.3,197
-1.65,-0.15,211
-1.65,0.0,221
-1.65,0.15,235
-1.65,0.3,255
-1.65,0.45,255
-1.65,0.6,251
-1.65,0.75,234
-1.65,0.9,220
-1.65,1.05,209
-1.65,1.2,199
-1.65,1.35,192
-1.65,1.5,177
-1.5,-1.5,157
-1.5,-1.35,161
-1.5,-1.2,158
-1.5,-1.05,164
-1.5,-0.9,170
-1.5,-0.75,176
-1.5,-0.6,192
-1.5,-0.45,198
-1.5,-0.3,204
-1.5,-0.15,211
-1.5,0.0,217
-1.5,0.15,226
-1.5,0.3,236
-1.5,0.45,242
-1.5,0.6,236
-1.5,0.75,226
-1.5,0.9,217
-1.5,1.05,209
-1.5,1.2,203
-1.5,1.35,188
-1.5,1.5,181
-1.35,-1.5,161
-1.35,-1.35,165
-1.35,-1.2,169
-1.35,-1.05,167
-1.35,-0.9,172
-1.35,-0.75,178
-1.35,-0.6,184
-1.35,-0.45,198
-1.35,-0.3,204
-1.35,-0.15,210
-1.35,0.0,214
-1.35,0.15,216
-1.35,0.3,217
-1.35,0.45,219
-1.35,0.6,219
-1.35,0.75,217
-1.35,0.9,213
-1.35,1.05,207
-1.35,1.2,203
-1.35,1.35,189
-1.35,1.5,183
-1.2,-1.5,163
-1.2,-1.35,167
-1.2,-1.2,171
-1.2,-1.05,169
-1.2,-0.9,173
-1.2,-0.75,179
-1.2,-0.6,184
-1.2,-0.45,200
-1.2,-0.3,204
-1.2,-0.15,208
-1.2,0.0,211
-1.2,0.15,212
-1.2,0.3,212
-1.2,0.45,212
-1.2,0.6,213
-1.2,0.75,212
-1.2,0.9,209
-1.2,1.05,206
-1.2,1.2,194
-1.2,1.35,188
-1.2,1.5,183
-1.05,-1.5,164
-1.05,-1.35,168
-1.05,-1.2,172
-1.05,-1.05,176
-1.05,-0.9,175
-1.05,-0.75,180
-1.05,-0.6,187
-1.05,-0.45,200
-1.05,-0.3,204
-1.05,-0.15,207
-1.05,0.0,209
-1.05,0.15,211
-1.05,0.3,212
-1.05,0.45,212
-1.05,0.6,211
-1.05,0.75,209
-1.05,0.9,206
-1.05,1.05,196
-1.05,1.2,191
-1.05,1.35,186
-1.05,1.5,182
-0.9,-1.5,164
-0.9,-1.35,168
-0.9,-1.2,173
-0.9,-1.05,180
-0.9,-0.9,184
-0.9,-0.75,187
-0.9,-0.6,188
-0.9,-0.45,194
-0.9,-0.3,206
-0.9,-0.15,208
-0.9,0.0,208
-0.9,0.15,208
-0.9,0.3,209
-0.9,0.45,208
-0.9,0.6,207
-0.9,0.75,204
-0.9,0.9,195
-0.9,1.05,192
-0.9,1.2,188
-0.9,1.35,185
-0.9,1.5,182
-0.75,-1.5,164
-0.75,-1.35,171
-0.75,-1.2,175
-0.75,-1.05,181
-0.75,-0.9,186
-0.75,-0.75,189
-0.75,-0.6,190
-0.75,-0.45,200
-0.75,-0.3,215
-0.75,-0.15,214
-0.75,0.0,209
-0.75,0.15,204
-0.75,0.3,202
-0.75,0.45,202
-0.75,0.6,200
-0.75,0.75,192
-0.75,0.9,190
-0.75,1.05,186
-0.75,1.2,183
-0.75,1.35,180
-0.75,1.5,177
-0.6,-1.5,164
-0.6,-1.35,168
-0.6,-1.2,174
-0.6,-1.05,184
-0.6,-0.9,195
-0.6,-0.75,195
-0.6,-0.6,194
-0.6,-0.45,212
-0.6,-0.3,236
-0.6,-0.15,235
-0.6,0.0,214
-0.6,0.15,200
-0.6,0.3,194
-0.6,0.45,193
-0.6,0.6,185
-0.6,0.75,185
-0.6,0.9,182
-0.6,1.05,179
-0.6,1.2,177
-0.6,1.35,174
-0.6,1.5,172
-0.45,-1.5,152
-0.45,-1.35,156
-0.45,-1.2,166
-0.45,-1.05,181
-0.45,-0.9,205
-0.45,-0.75,203
-0.45,-0.6,182
-0.45,-0.45,229
-0.45,-0.3,255
-0.45,-0.15,255
-0.45,0.0,217
-0.45,0.15,190
-0.45,0.3,183
-0.45,0.45,176
-0.45,0.6,178
-0.45,0.75,177
-0.45,0.9,175
-0.45,1.05,173
-0.45,1.2,171
-0.45,1.35,169
-0.45,1.5,168
-0.3,-1.5,147
-0.3,-1.35,149
-0.3,-1.2,153
-0.3,-1.05,161
-0.3,-0.9,173
-0.3,-0.75,149
-0.3,-0.6,124
-0.3,-0.45,205
-0.3,-0.3,255
-0.3,-0.15,255
-0.3,0.0,193
-0.3,0.15,163
-0.3,0.3,160
-0.3,0.45,164
-0.3,0.6,164
-0.3,0.75,161
-0.3,0.9,158
-0.3,1.05,156
-0.3,1.2,153
-0.3,1.35,151
-0.3,1.5,146
-0.15,-1.5,134
-0.15,-1.35,134
-0.15,-1.2,133
-0.15,-1.05,128
-0.15,-0.9,104
-0.15,-0.75,35
-0.15,-0.6,18
-0.15,-0.45,125
-0.15,-0.3,203
-0.15,-0.15,195
-0.15,0.0,152
-0.15,0.15,124
-0.15,0.3,159
-0.15,0.45,169
-0.15,0.6,163
-0.15,0.75,158
-0.15,0.9,155
-0.15,1.05,153
-0.15,1.2,150
-0.15,1.35,148
-0.15,1.5,145
0.0,-1.5,125
0.0,-1.35,123
0.0,-1.2,117
0.0,-1.05,107
0.0,-0.9,81
0.0,-0.75,37
0.0,-0.6,31
0.0,-0.45,94
0.0,-0.3,141
0.0,-0.15,148
0.0,0.0,134
0.0,0.15,119
0.0,0.3,210
0.0,0.45,176
0.0,0.6,157
0.0,0.75,152
0.0,0.9,149
0.0,1.05,144
0.0,1.2,136
0.0,1.35,132
0.0,1.5,128
0.15,-1.5,123
0.15,-1.35,118
0.15,-1.2,113
0.15,-1.05,104
0.15,-0.9,88
0.15,-0.75,74
0.15,-0.6,75
0.15,-0.45,99
0.15,-0.3,119
0.15,-0.15,129
0.15,0.0,128
0.15,0.15,144
0.15,0.3,170
0.15,0.45,157
0.15,0.6,150
0.15,0.75,154
0.15,0.9,151
0.15,1.05,139
0.15,1.2,129
0.15,1.35,122
0.15,1.5,117
0.3,-1.5,118
0.3,-1.35,113
0.3,-1.2,109
0.3,-1.05,104
0.3,-0.9,97
0.3,-0.75,89
0.3,-0.6,88
0.3,-0.45,93
0.3,-0.3,96
0.3,-0.15,103
0.3,0.0,112
0.3,0.15,110
0.3,0.3,124
0.3,0.45,129
0.3,0.6,156
0.3,0.75,187
0.3,0.9,171
0.3,1.05,147
0.3,1.2,125
0.3,1.35,114
0.3,1.5,107
0.45,-1.5,107
0.45,-1.35,114
0.45,-1.2,109
0.45,-1.05,104
0.45,-0.9,100
0.45,-0.75,91
0.45,-0.6,81
0.45,-0.45,80
0.45,-0.3,82
0.45,-0.15,72
0.45,0.0,79
0.45,0.15,88
0.45,0.3,97
0.45,0.45,106
0.45,0.6,170
0.45,0.75,255
0.45,0.9,189
0.45,1.05,142
0.45,1.2,121
0.45,1.35,110
0.45,1.5,103
0.6,-1.5,100
0.6,-1.35,105
0.6,-1.2,107
0.6,-1.05,102
0.6,-0.9,97
0.6,-0.75,85
0.6,-0.6,63
0.6,-0.45,58
0.6,-0.3,65
0.6,-0.15,67
0.6,0.0,63
0.6,0.15,68
0.6,0.3,79
0.6,0.45,97
0.6,0.6,105
0.6,0.75,178
0.6,0.9,150
0.6,1.05,125
0.6,1.2,111
0.6,1.35,103
0.6,1.5,98
0.75,-1.5,101
0.75,-1.35,86
0.75,-1.2,90
0.75,-1.05,106
0.75,-0.9,104
0.75,-0.75,94
0.75,-0.6,71
0.75,-0.45,58
0.75,-0.3,43
0.75,-0.15,49
0.75,0.0,44
0.75,0.15,40
0.75,0.3,44
0.75,0.45,47
0.75,0.6,38
0.75,0.75,70
0.75,0.9,97
0.75,1.05,101
0.75,1.2,98
0.75,1.35,94
0.75,1.5,92
0.9,-1.5,83
0.9,-1.35,87
0.9,-1.2,82
0.9,-1.05,93
0.9,-0.9,116
0.9,-0.75,138
0.9,-0.6,171
0.9,-0.45,94
0.9,-0.3,7
0.9,-0.15,50
0.9,0.0,41
0.9,0.15,23
0.9,0.3,0
0.9,0.45,34
0.9,0.6,37
0.9,0.75,59
0.9,0.9,74
0.9,1.05,86
0.9,1.2,85
0.9,1.35,85
0.9,1.5,85
1.05,-1.5,68
1.05,-1.35,74
1.05,-1.2,82
1.05,-1.05,95
1.05,-0.9,117
1.05,-0.75,167
1.05,-0.6,255
1.05,-0.45,255
1.05,-0.3,90
1.05,-0.15,64
1.05,0.0,35
1.05,0.15,0
1.05,0.3,17
1.05,0.45,35
1.05,0.6,43
1.05,0.75,54
1.05,0.9,65
1.05,1.05,72
1.05,1.2,76
1.05,1.35,71
1.05,1.5,72
1.2,-1.5,68
1.2,-1.35,73
1.2,-1.2,76
1.2,-1.05,87
1.2,-0.9,104
1.2,-0.75,143
1.2,-0.6,179
1.2,-0.45,162
1.2,-0.3,105
1.2,-0.15,77
1.2,0.0,61
1.2,0.15,33
1.2,0.3,21
1.2,0.45,24
1.2,0.6,31
1.2,0.75,53
1.2,0.9,60
1.2,1.05,58
1.2,1.2,62
1.2,1.35,65
1.2,1.5,66
1.35,-1.5,75
1.35,-1.35,66
1.35,-1.2,70
1.35,-1.05,73
1.35,-0.9,81
1.35,-0.75,91
1.35,-0.6,106
1.35,-0.45,94
1.35,-0.3,80
1.35,-0.15,83
1.35,0.0,92
1.35,0.15,73
1.35,0.3,2
1.35,0.45,22
1.35,0.6,34
1.35,0.75,37
1.35,0.9,39
1.35,1.05,49
1.35,1.2,53
1.35,1.35,60
1.35,1.5,62
1.5,-1.5,84
1.5,-1.35,81
1.5,-1.2,66
1.5,-1.05,61
1.5,-0.9,59
1.5,-0.75,56
1.5,-0.6,56
1.5,-0.45,60
1.5,-0.3,48
1.5,-0.15,54
1.5,0.0,97
1.5,0.15,140
1.5,0.3,60
1.5,0.45,41
1.5,0.6,38
1.5,0.75,35
1.5,0.9,40
1.5,1.05,39
1.5,1.2,60
1.5,1.35,56
1.5,1.5,59
1.65,-1.5,87
1.65,-1.35,82
1.65,-1.2,76
1.65,-1.05,54
1.65,-0.9,44
1.65,-0.75,38
1.65,-0.6,35
1.65,-0.45,31
1.65,-0.3,41
1.65,-0.15,42
1.65,0.0,25
1.65,0.15,55
1.65,0.3,66
1.65,0.45,18
1.65,0.6,23
1.65,0.75,40
1.65,0.9,43
1.65,1.05,46
1.65,1.2,47
1.65,1.35,37
1.65,1.5,33
1.8,-1.5,98
1.8,-1.35,91
1.8,-1.2,72
1.8,-1.05,61
1.8,-0.9,36
1.8,-0.75,18
1.8,-0.6,18
1.8,-0.45,13
1.8,-0.3,18
1.8,-0.15,36
1.8,0.0,40
1.8,0.15,57
1.8,0.3,80
1.8,0.45,34
1.8,0.6,26
1.8,0.75,44
1.8,0.9,50
1.8,1.05,43
1.8,1.2,48
1.8,1.35,49
1.8,1.5,50
1.95,-1.5,80
1.95,-1.35,76
1.95,-1.2,70
1.95,-1.05,57
1.95,-0.9,31
1.95,-0.75,19
1.95,-0.6,20
1.95,-0.45,0
1.95,-0.3,2
1.95,-0.15,22
1.95,0.0,57
1.95,0.15,54
1.95,0.3,54
1.95,0.45,51
1.95,0.6,46
1.95,0.75,43
1.95,0.9,51
1.95,1.05,49
1.95,1.2,50
1.95,1.35,63
1.95,1.5,64
2.1,-1.5,92
2.1,-1.35,90
2.1,-1.2,80
2.1,-1.05,65
2.1,-0.9,47
2.1,-0.75,1
2.1,-0.6,23
2.1,-0.45,35
2.1,-0.3,46
2.1,-0.15,57
2.1,0.0,54
2.1,0.15,49
2.1,0.3,51
2.1,0.45,46
2.1,0.6,51
2.1,0.75,51
2.1,0.9,55
2.1,1.05,67
2.1,1.2,68
2.1,1.35,69
2.1,1.5,81
2.25,-1.5,104
2.25,-1.35,105
2.25,-1.2,101
2.25,-1.05,88
2.25,-0.9,69
2.25,-0.75,47
2.25,-0.6,53
2.25,-0.45,69
2.25,-0.3,76
2.25,-0.15,170
2.25,0.0,49
2.25,0.15,49
2.25,0.3,49
2.25,0.45,50
2.25,0.6,54
2.25,0.75,51
2.25,0.9,63
2.25,1.05,79
2.25,1.2,80
2.25,1.35,80
2.25,1.5,81
2.4,-1.5,121
2.4,-1.35,130
2.4,-1.2,132
2.4,-1.05,121
2.4,-0.9,111
2.4,-0.75,83
2.4,-0.6,54
2.4,-0.45,89
2.4,-0.3,116
2.4,-0.15,84
2.4,0.0,191
2.4,0.15,49
2.4,0.3,49
2.4,0.45,66
2.4,0.6,73
2.4,0.75,79
2.4,0.9,82
2.4,1.05,90
2.4,1.2,91
2.4,1.35,83
2.4,1.5,80
2.55,-1.5,134
2.55,-1.35,162
2.55,-1.2,189
2.55,-1.05,158
2.55,-0.9,170
2.55,-0.75,151
2.55,-0.6,76
2.55,-0.45,73
2.55,-0.3,81
2.55,-0.15,55
2.55,0.0,102
2.55,0.15,66
2.55,0.3,64
2.55,0.45,49
2.55,0.6,75
2.55,0.75,88
2.55,0.9,94
2.55,1.05,93
2.55,1.2,89
2.55,1.35,87
2.55,1.5,86
2.7,-1.5,131
2.7,-1.35,177
2.7,-1.2,255
2.7,-1.05,181
2.7,-0.9,133
2.7,-0.75,114
2.7,-0.6,75
2.7,-0.45,56
2.7,-0.3,126
2.7,-0.15,78
2.7,0.0,52
2.7,0.15,37
2.7,0.3,122
2.7,0.45,55
2.7,0.6,102
2.7,0.75,111
2.7,0.9,104
2.7,1.05,100
2.7,1.2,98
2.7,1.35,97
2.7,1.5,92
2.85,-1.5,114
2.85,-1.35,144
2.85,-1.2,159
2.85,-1.05,91
2.85,-0.9,34
2.85,-0.75,49
2.85,-0.6,57
2.85,-0.45,49
2.85,-0.3,184
2.85,-0.15,60
2.85,0.0,37
2.85,0.15,43
2.85,0.3,64
2.85,0.45,113
2.85,0.6,183
2.85,0.75,118
2.85,0.9,100
2.85,1.05,94
2.85,1.2,98
2.85,1.35,97
2.85,1.5,97
3.0,-1.5,92
3.0,-1.35,93
3.0,-1.2,79
3.0,-1.05,32
3.0,-0.9,0
3.0,-0.75,18
3.0,-0.6,37
3.0,-0.45,59
3.0,-0.3,70
3.0,-0.15,108
3.0,0.0,54
3.0,0.15,47
3.0,0.3,71
3.0,0.45,111
3.0,0.6,112
3.0,0.75,91
3.0,0.9,83
3.0,1.05,81
3.0,1.2,93
3.0,1.35,94
3.0,1.5,95
3.15,-1.5,68
3.15,-1.35,63
3.15,-1.2,50
3.15,-1.05,35
3.15,-0.9,21
3.15,-0.75,28
3.15,-0.6,58
3.15,-0.45,51
3.15,-0.3,39
3.15,-0.15,82
3.15,0.0,70
3.15,0.15,73
3.15,0.3,23
3.15,0.45,163
3.15,0.6,70
3.15,0.75,57
3.15,0.9,66
3.15,1.05,72
3.15,1.2,76
3.15,1.35,75
3.15,1.5,76
3.3,-1.5,68
3.3,-1.35,62
3.3,-1.2,33
3.3,-1.05,26
3.3,-0.9,17
3.3,-0.75,25
3.3,-0.6,70
3.3,-0.45,48
3.3,-0.3,165
3.3,-0.15,159
3.3,0.0,53
3.3,0.15,47
3.3,0.3,73
3.3,0.45,86
3.3,0.6,73
3.3,0.75,15
3.3,0.9,45
3.3,1.05,62
3.3,1.2,71
3.3,1.35,71
3.3,1.5,71
3.45,-1.5,68
3.45,-1.35,61
3.45,-1.2,53
3.45,-1.05,28
3.45,-0.9,21
3.45,-0.75,0
3.45,-0.6,52
3.45,-0.45,40
3.45,-0.3,66
3.45,-0.15,93
3.45,0.0,50
3.45,0.15,52
3.45,0.3,56
3.45,0.45,96
3.45,0.6,81
3.45,0.75,35
3.45,0.9,50
3.45,1.05,64
3.45,1.2,72
3.45,1.35,95
3.45,1.5,101
3.6,-1.5,62
3.6,-1.35,45
3.6,-1.2,42
3.6,-1.05,36
3.6,-0.9,28
3.6,-0.75,18
3.6,-0.6,73
3.6,-0.45,55
3.6,-0.3,59
3.6,-0.15,57
3.6,0.0,85
3.6,0.15,93
3.6,0.3,64
3.6,0.45,70
3.6,0.6,65
3.6,0.75,56
3.6,0.9,59
3.6,1.05,61
3.6,1.2,68
3.6,1.35,72
3.6,1.5,74
3.75,-1.5,65
3.75,-1.35,45
3.75,-1.2,40
3.75,-1.05,18
3.75,-0.9,18
3.75,-0.75,26
3.75,-0.6,246
3.75,-0.45,106
3.75,-0.3,62
3.75,-0.15,21
3.75,0.0,171
3.75,0.15,119
3.75,0.3,219
3.75,0.45,75
3.75,0.6,56
3.75,0.75,56
3.75,0.9,56
3.75,1.05,71
3.75,1.2,74
3.75,1.35,76
3.75,1.5,95
3.9,-1.5,88
3.9,-1.35,64
3.9,-1.2,54
3.9,-1.05,38
3.9,-0.9,45
3.9,-0.75,67
3.9,-0.6,158
3.9,-0.45,87
3.9,-0.3,63
3.9,-0.15,0
3.9,0.0,60
3.9,0.15,52
3.9,0.3,64
3.9,0.45,56
3.9,0.6,58
3.9,0.75,73
3.9,0.9,83
3.9,1.05,95
3.9,1.2,97
3.9,1.35,97
3.9,1.5,97
4.05,-1.5,93
4.05,-1.35,93
4.05,-1.2,69
4.05,-1.05,66
4.05,-0.9,59
4.05,-0.75,60
4.05,-0.6,67
4.05,-0.45,57
4.05,-0.3,61
4.05,-0.15,255
4.05,0.0,95
4.05,0.15,118
4.05,0.3,93
4.05,0.45,86
4.05,0.6,62
4.05,0.75,83
4.05,0.9,87
4.05,1.05,83
4.05,1.2,97
4.05,1.35,82
4.05,1.5,82
4.2,-1.5,93
4.2,-1.35,93
4.2,-1.2,96
4.2,-1.05,96
4.2,-0.9,80
4.2,-0.75,69
4.2,-0.6,58
4.2,-0.45,30
4.2,-0.3,36
4.2,-0.15,96
4.2,0.0,77
4.2,0.15,124
4.2,0.3,146
4.2,0.45,231
4.2,0.6,25
4.2,0.75,74
4.2,0.9,107
4.2,1.05,105
4.2,1.2,99
4.2,1.35,92
4.2,1.5,86
4.35,-1.5,121
4.35,-1.35,124
4.35,-1.2,129
4.35,-1.05,136
4.35,-0.9,132
4.35,-0.75,116
4.35,-0.6,74
4.35,-0.45,32
4.35,-0.3,56
4.35,-0.15,67
4.35,0.0,51
4.35,0.15,51
4.35,0.3,44
4.35,0.45,108
4.35,0.6,54
4.35,0.75,73
4.35,0.9,191
4.35,1.05,143
4.35,1.2,112
4.35,1.35,97
4.35,1.5,87
4.5,-1.5,130
4.5,-1.35,138
4.5,-1.2,143
4.5,-1.05,168
4.5,-0.9,184
4.5,-0.75,194
4.5,-0.6,75
4.5,-0.45,46
4.5,-0.3,95
4.5,-0.15,0
4.5,0.0,115
4.5,0.15,31
4.5,0.3,136
4.5,0.45,63
4.5,0.6,86
4.5,0.75,39
4.5,0.9,190
4.5,1.05,135
4.5,1.2,108
4.5,1.35,93
4.5,1.5,102
4.65,-1.5,146
4.65,-1.35,146
4.65,-1.2,151
4.65,-1.05,173
4.65,-0.9,244
4.65,-0.75,213
4.65,-0.6,142
4.65,-0.45,123
4.65,-0.3,144
4.65,-0.15,39
4.65,0.0,59
4.65,0.15,61
4.65,0.3,198
4.65,0.45,117
4.65,0.6,70
4.65,0.75,90
4.65,0.9,111
4.65,1.05,103
4.65,1.2,99
4.65,1.35,102
4.65,1.5,100
4.8,-1.5,139
4.8,-1.35,137
4.8,-1.2,128
4.8,-1.05,121
4.8,-0.9,170
4.8,-0.75,155
4.8,-0.6,57
4.8,-0.45,49
4.8,-0.3,63
4.8,-0.15,49
4.8,0.0,38
4.8,0.15,29
4.8,0.3,196
4.8,0.45,56
4.8,0.6,85
4.8,0.75,73
4.8,0.9,76
4.8,1.05,89
4.8,1.2,94
4.8,1.35,96
4.8,1.5,96
4.95,-1.5,127
4.95,-1.35,122
4.95,-1.2,94
4.95,-1.05,56
4.95,-0.9,100
4.95,-0.75,116
4.95,-0.6,155
4.95,-0.45,73
4.95,-0.3,45
4.95,-0.15,0
4.95,0.0,33
4.95,0.15,20
4.95,0.3,21
4.95,0.45,35
4.95,0.6,161
4.95,0.75,77
4.95,0.9,49
4.95,1.05,72
4.95,1.2,72
4.95,1.35,79
4.95,1.5,74
5.1,-1.5,107
5.1,-1.35,105
5.1,-1.2,104
5.1,-1.05,87
5.1,-0.9,98
5.1,-0.75,108
5.1,-0.6,130
5.1,-0.45,53
5.1,-0.3,129
5.1,-0.15,73
5.1,0.0,5
5.1,0.15,53
5.1,0.3,26
5.1,0.45,35
5.1,0.6,14
5.1,0.75,86
5.1,0.9,76
5.1,1.05,67
5.1,1.2,50
5.1,1.35,63
5.1,1.5,69
5.25,-1.5,78
5.25,-1.35,82
5.25,-1.2,87
5.25,-1.05,89
5.25,-0.9,87
5.25,-0.75,58
5.25,-0.6,22
5.25,-0.45,75
5.25,-0.3,48
5.25,-0.15,105
5.25,0.0,48
5.25,0.15,135
5.25,0.3,25
5.25,0.45,0
5.25,0.6,47
5.25,0.75,96
5.25,0.9,38
5.25,1.05,81
5.25,1.2,61
5.25,1.35,58
5.25,1.5,56
5.4,-1.5,50
5.4,-1.35,55
5.4,-1.2,52
5.4,-1.05,57
5.4,-0.9,80
5.4,-0.75,91
5.4,-0.6,59
5.4,-0.45,56
5.4,-0.3,16
5.4,-0.15,121
5.4,0.0,157
5.4,0.15,35
5.4,0.3,10
5.4,0.45,18
5.4,0.6,36
5.4,0.75,92
5.4,0.9,170
5.4,1.05,86
5.4,1.2,63
5.4,1.35,56
5.4,1.5,53
5.55,-1.5,58
5.55,-1.35,50
5.55,-1.2,57
5.55,-1.05,83
5.55,-0.9,94
5.55,-0.75,145
5.55,-0.6,172
5.55,-0.45,122
5.55,-0.3,3
5.55,-0.15,6
5.55,0.0,31
5.55,0.15,185
5.55,0.3,151
5.55,0.45,37
5.55,0.6,18
5.55,0.75,39
5.55,0.9,10
5.55,1.05,41
5.55,1.2,46
5.55,1.35,46
5.55,1.5,48
5.7,-1.5,62
5.7,-1.35,62
5.7,-1.2,64
5.7,-1.05,66
5.7,-0.9,55
5.7,-0.75,45
5.7,-0.6,80
5.7,-0.45,43
5.7,-0.3,51
5.7,-0.15,33
5.7,0.0,49
5.7,0.15,48
5.7,0.3,131
5.7,0.45,64
5.7,0.6,70
5.7,0.75,42
5.7,0.9,7
5.7,1.05,27
5.7,1.2,40
5.7,1.35,44
5.7,1.5,49
5.85,-1.5,62
5.85,-1.35,51
5.85,-1.2,55
5.85,-1.05,47
5.85,-0.9,38
5.85,-0.75,24
5.85,-0.6,15
5.85,-0.45,128
5.85,-0.3,19
5.85,-0.15,8
5.85,0.0,44
5.85,0.15,155
5.85,0.3,83
5.85,0.45,41
5.85,0.6,212
5.85,0.75,104
5.85,0.9,23
5.85,1.05,11
5.85,1.2,43
5.85,1.35,49
5.85,1.5,59
6.0,-1.5,52
6.0,-1.35,51
6.0,-1.2,37
6.0,-1.05,50
6.0,-0.9,45
6.0,-0.75,47
6.0,-0.6,84
6.0,-0.45,248
6.0,-0.3,57
6.0,-0.15,48
6.0,0.0,22
6.0,0.15,61
6.0,0.3,227
6.0,0.45,55
6.0,0.6,91
6.0,0.75,127
6.0,0.9,26
6.0,1.05,34
6.0,1.2,50
6.0,1.35,61
6.0,1.5,54
6.15,-1.5,57
6.15,-1.35,58
6.15,-1.2,60
6.15,-1.05,63
6.15,-0.9,58
6.15,-0.75,45
6.15,-0.6,0
6.15,-0.45,11
6.15,-0.3,62
6.15,-0.15,48
6.15,0.0,22
6.15,0.15,25
6.15,0.3,123
6.15,0.45,119
6.15,0.6,72
6.15,0.75,104
6.15,0.9,108
6.15,1.05,71
6.15,1.2,61
6.15,1.35,57
6.15,1.5,46
6.3,-1.5,86
6.3,-1.35,84
6.3,-1.2,89
6.3,-1.05,90
6.3,-0.9,93
6.3,-0.75,57
6.3,-0.6,27
6.3,-0.45,36
6.3,-0.3,56
6.3,-0.15,111
6.3,0.0,36
6.3,0.15,59
6.3,0.3,2
6.3,0.45,49
6.3,0.6,63
6.3,0.75,94
6.3,0.9,136
6.3,1.05,81
6.3,1.2,82
6.3,1.35,76
6.3,1.5,75
6.45,-1.5,84
6.45,-1.35,86
6.45,-1.2,97
6.45,-1.05,101
6.45,-0.9,112
6.45,-0.75,184
6.45,-0.6,92
6.45,-0.45,77
6.45,-0.3,14
6.45,-0.15,49
6.45,0.0,49
6.45,0.15,65
6.45,0.3,67
6.45,0.45,67
6.45,0.6,74
6.45,0.75,66
6.45,0.9,80
6.45,1.05,83
6.45,1.2,81
6.45,1.35,81
6.45,1.5,83
6.6,-1.5,119
6.6,-1.35,113
6.6,-1.2,112
6.6,-1.05,109
6.6,-0.9,93
6.6,-0.75,95
6.6,-0.6,107
6.6,-0.45,80
6.6,-0.3,26
6.6,-0.15,72
6.6,0.0,58
6.6,0.15,23
6.6,0.3,46
6.6,0.45,46
6.6,0.6,108
6.6,0.75,34
6.6,0.9,63
6.6,1.05,53
6.6,1.2,81
6.6,1.35,83
6.6,1.5,83
6.75,-1.5,119
6.75,-1.35,117
6.75,-1.2,114
6.75,-1.05,108
6.75,-0.9,97
6.75,-0.75,92
6.75,-0.6,100
6.75,-0.45,107
6.75,-0.3,38
6.75,-0.15,44
6.75,0.0,47
6.75,0.15,99
6.75,0.3,55
6.75,0.45,60
6.75,0.6,78
6.75,0.75,136
6.75,0.9,197
6.75,1.05,56
6.75,1.2,83
6.75,1.35,83
6.75,1.5,83
6.9,-1.5,126
6.9,-1.35,126
6.9,-1.2,111
6.9,-1.05,112
6.9,-0.9,110
6.9,-0.75,156
6.9,-0.6,60
6.9,-0.45,101
6.9,-0.3,75
6.9,-0.15,152
6.9,0.0,66
6.9,0.15,116
6.9,0.3,105
6.9,0.45,55
6.9,0.6,55
6.9,0.75,86
6.9,0.9,138
6.9,1.05,95
6.9,1.2,78
6.9,1.35,82
6.9,1.5,82
7.05,-1.5,96
7.05,-1.35,111
7.05,-1.2,118
7.05,-1.05,129
7.05,-0.9,114
7.05,-0.75,63
7.05,-0.6,0
7.05,-0.45,70
7.05,-0.3,52
7.05,-0.15,47
7.05,0.0,53
7.05,0.15,40
7.05,0.3,65
7.05,0.45,55
7.05,0.6,59
7.05,0.75,70
7.05,0.9,81
7.05,1.05,83
7.05,1.2,88
7.05,1.35,81
7.05,1.5,90
7.2,-1.5,103
7.2,-1.35,109
7.2,-1.2,121
7.2,-1.05,156
7.2,-0.9,255
7.2,-0.75,107
7.2,-0.6,91
7.2,-0.45,88
7.2,-0.3,68
7.2,-0.15,45
7.2,0.0,65
7.2,0.15,82
7.2,0.3,57
7.2,0.45,64
7.2,0.6,70
7.2,0.75,62
7.2,0.9,62
7.2,1.05,89
7.2,1.2,92
7.2,1.35,90
7.2,1.5,90
7.35,-1.5,120
7.35,-1.35,121
7.35,-1.2,119
7.35,-1.05,125
7.35,-0.9,149
7.35,-0.75,71
7.35,-0.6,69
7.35,-0.45,69
7.35,-0.3,72
7.35,-0.15,49
7.35,0.0,73
7.35,0.15,171
7.35,0.3,109
7.35,0.45,54
7.35,0.6,54
7.35,0.75,35
7.35,0.9,63
7.35,1.05,81
7.35,1.2,81
7.35,1.35,92
7.35,1.5,72
7.5,-1.5,105
7.5,-1.35,105
7.5,-1.2,103
7.5,-1.05,97
7.5,-0.9,67
7.5,-0.75,13
7.5,-0.6,48
7.5,-0.45,61
7.5,-0.3,56
7.5,-0.15,107
7.5,0.0,87
7.5,0.15,107
7.5,0.3,78
7.5,0.45,71
7.5,0.6,74
7.5,0.75,86
7.5,0.9,163
7.5,1.05,107
7.5,1.2,92
7.5,1.35,88
7.5,1.5,86
7.65,-1.5,115
7.65,-1.35,115
7.65,-1.2,105
7.65,-1.05,94
7.65,-0.9,71
7.65,-0.75,70
7.65,-0.6,78
7.65,-0.45,61
7.65,-0.3,197
7.65,-0.15,64
7.65,0.0,107
7.65,0.15,95
7.65,0.3,80
7.65,0.45,61
7.65,0.6,158
7.65,0.75,97
7.65,0.9,69
7.65,1.05,95
7.65,1.2,91
7.65,1.35,88
7.65,1.5,87
7.8,-1.5,115
7.8,-1.35,114
7.8,-1.2,111
7.8,-1.05,109
7.8,-0.9,117
7.8,-0.75,164
7.8,-0.6,181
7.8,-0.45,69
7.8,-0.3,118
7.8,-0.15,65
7.8,0.0,39
7.8,0.15,65
7.8,0.3,74
7.8,0.45,88
7.8,0.6,135
7.8,0.75,96
7.8,0.9,55
7.8,1.05,78
7.8,1.2,86
7.8,1.35,87
7.8,1.5,87
7.95,-1.5,114
7.95,-1.35,116
7.95,-1.2,118
7.95,-1.05,114
7.95,-0.9,133
7.95,-0.75,148
7.95,-0.6,143
7.95,-0.45,88
7.95,-0.3,131
7.95,-0.15,91
7.95,0.0,65
7.95,0.15,72
7.95,0.3,45
7.95,0.45,54
7.95,0.6,83
7.95,0.75,97
7.95,0.9,76
7.95,1.05,78
7.95,1.2,85
7.95,1.35,86
7.95,1.5,87
8.1,-1.5,115
8.1,-1.35,118
8.1,-1.2,110
8.1,-1.05,124
8.1,-0.9,159
8.1,-0.75,216
8.1,-0.6,183
8.1,-0.45,82
8.1,-0.3,71
8.1,-0.15,69
8.1,0.0,102
8.1,0.15,69
8.1,0.3,19
8.1,0.45,32
8.1,0.6,69
8.1,0.75,95
8.1,0.9,87
8.1,1.05,84
8.1,1.2,83
8.1,1.35,84
8.1,1.5,87
8.25,-1.5,113
8.25,-1.35,105
8.25,-1.2,112
8.25,-1.05,127
8.25,-0.9,168
8.25,-0.75,255
8.25,-0.6,217
8.25,-0.45,83
8.25,-0.3,85
8.25,-0.15,85
8.25,0.0,80
8.25,0.15,68
8.25,0.3,51
8.25,0.45,49
8.25,0.6,57
8.25,0.75,76
8.25,0.9,82
8.25,1.05,83
8.25,1.2,84
8.25,1.35,83
8.25,1.5,83
8.4,-1.5,95
8.4,-1.35,97
8.4,-1.2,100
8.4,-1.05,106
8.4,-0.9,120
8.4,-0.75,131
8.4,-0.6,108
8.4,-0.45,66
8.4,-0.3,83
8.4,-0.15,64
8.4,0.0,79
8.4,0.15,70
8.4,0.3,56
8.4,0.45,54
8.4,0.6,55
8.4,0.75,70
8.4,0.9,78
8.4,1.05,81
8.4,1.2,83
8.4,1.35,84
8.4,1.5,83
8.55,-1.5,90
8.55,-1.35,89
8.55,-1.2,95
8.55,-1.05,82
8.55,-0.9,48
8.55,-0.75,27
8.55,-0.6,62
8.55,-0.45,70
8.55,-0.3,60
8.55,-0.15,66
8.55,0.0,69
8.55,0.15,68
8.55,0.3,63
8.55,0.45,61
8.55,0.6,68
8.55,0.75,62
8.55,0.9,84
8.55,1.05,88
8.55,1.2,91
8.55,1.35,92
8.55,1.5,94
8.7,-1.5,88
8.7,-1.35,86
8.7,-1.2,85
8.7,-1.05,59
8.7,-0.9,29
8.7,-0.75,3
8.7,-0.6,41
8.7,-0.45,52
8.7,-0.3,54
8.7,-0.15,50
8.7,0.0,59
8.7,0.15,65
8.7,0.3,64
8.7,0.45,74
8.7,0.6,73
8.7,0.75,86
8.7,0.9,81
8.7,1.05,92
8.7,1.2,94
8.7,1.35,95
8.7,1.5,96
8.85,-1.5,96
8.85,-1.35,90
8.85,-1.2,71
8.85,-1.05,60
8.85,-0.9,44
8.85,-0.75,38
8.85,-0.6,35
8.85,-0.45,8
8.85,-0.3,42
8.85,-0.15,58
8.85,0.0,65
8.85,0.15,70
8.85,0.3,78
8.85,0.45,80
8.85,0.6,88
8.85,0.75,87
8.85,0.9,99
8.85,1.05,98
8.85,1.2,99
8.85,1.35,99
8.85,1.5,99
9.0,-1.5,93
9.0,-1.35,88
9.0,-1.2,72
9.0,-1.05,66
9.0,-0.9,57
9.0,-0.75,52
9.0,-0.6,41
9.0,-0.45,23
9.0,-0.3,54
9.0,-0.15,66
9.0,0.0,89
9.0,0.15,94
9.0,0.3,92
9.0,0.45,97
9.0,0.6,101
9.0,0.75,104
9.0,0.9,113
9.0,1.05,101
9.0,1.2,106
9.0,1.35,113
9.0,1.5,103
9.15,-1.5,93
9.15,-1.35,78
9.15,-1.2,74
9.15,-1.05,69
9.15,-0.9,66
9.15,-0.75,64
9.15,-0.6,64
9.15,-0.45,78
9.15,-0.3,130
9.15,-0.15,179
9.15,0.0,125
9.15,0.15,112
9.15,0.3,114
9.15,0.45,122
9.15,0.6,133
9.15,0.75,129
9.15,0.9,121
9.15,1.05,122
9.15,1.2,108
9.15,1.35,111
9.15,1.5,113
9.3,-1.5,81
9.3,-1.35,79
9.3,-1.2,75
9.3,-1.05,73
9.3,-0.9,73
9.3,-0.75,74
9.3,-0.6,87
9.3,-0.45,107
9.3,-0.3,148
9.3,-0.15,171
9.3,0.0,136
9.3,0.15,123
9.3,0.3,137
9.3,0.45,159
9.3,0.6,173
9.3,0.75,162
9.3,0.9,142
9.3,1.05,126
9.3,1.2,115
9.3,1.35,109
9.3,1.5,113
9.45,-1.5,81
9.45,-1.35,78
9.45,-1.2,77
9.45,-1.05,77
9.45,-0.9,78
9.45,-0.75,89
9.45,-0.6,97
9.45,-0.45,110
9.45,-0.3,123
9.45,-0.15,132
9.45,0.0,129
9.45,0.15,131
9.45,0.3,154
9.45,0.45,193
9.45,0.6,207
9.45,0.75,186
9.45,0.9,158
9.45,1.05,137
9.45,1.2,123
9.45,1.35,113
9.45,1.5,109
9.6,-1.5,80
9.6,-1.35,80
9.6,-1.2,79
9.6,-1.05,90
9.6,-0.9,91
9.6,-0.75,95
9.6,-0.6,100
9.6,-0.45,109
9.6,-0.3,110
9.6,-0.15,117
9.6,0.0,123
9.6,0.15,134
9.6,0.3,159
9.6,0.45,193
9.6,0.6,205
9.6,0.75,187
9.6,0.9,164
9.6,1.05,141
9.6,1.2,127
9.6,1.35,116
9.6,1.5,109
9.75,-1.5,81
9.75,-1.35,93
9.75,-1.2,93
9.75,-1.05,93
9.75,-0.9,95
9.75,-0.75,98
9.75,-0.6,102
9.75,-0.45,108
9.75,-0.3,104
9.75,-0.15,111
9.75,0.0,120
9.75,0.15,132
9.75,0.3,151
9.75,0.45,171
9.75,0.6,180
9.75,0.75,172
9.75,0.9,156
9.75,1.05,143
9.75,1.2,127
9.75,1.35,118
9.75,1.5,111
9.9,-1.5,94
9.9,-1.35,94
9.9,-1.2,95
9.9,-1.05,96
9.9,-0.9,97
9.9,-0.75,100
9.9,-0.6,104
9.9,-0.45,108
9.9,-0.3,101
9.9,-0.15,107
9.9,0.0,117
9.9,0.15,127
9.9,0.3,139
9.9,0.45,151
9.9,0.6,155
9.9,0.75,155
9.9,0.9,146
9.9,1.05,139
9.9,1.2,130
9.9,1.35,118
9.9,1.5,111
10.05,-1.5,96
10.05,-1.35,96
10.05,-1.2,97
10.05,-1.05,98
10.05,-0.9,99
10.05,-0.75,102
10.05,-0.6,105
10.05,-0.45,108
10.05,-0.3,101
10.05,-0.15,105
10.05,0.0,113
10.05,0.15,121
10.05,0.3,129
10.05,0.45,137
10.05,0.6,140
10.05,0.75,141
10.05,0.9,137
10.05,1.05,131
10.05,1.2,127
10.05,1.35,121
10.05,1.5,111
10.2,-1.5,97
10.2,-1.35,98
10.2,-1.2,98
10.2,-1.05,99
10.2,-0.9,101
10.2,-0.75,103
10.2,-0.6,105
10.2,-0.45,108
10.2,-0.3,101
10.2,-0.15,105
10.2,0.0,110
10.2,0.15,116
10.2,0.3,122
10.2,0.45,126
10.2,0.6,129
10.2,0.75,131
10.2,0.9,129
10.2,1.05,125
10.2,1.2,123
10.2,1.35,119
10.2,1.5,115
10.35,-1.5,98
10.35,-1.35,99
10.35,-1.2,99
10.35,-1.05,101
10.35,-0.9,102
10.35,-0.75,104
10.35,-0.6,106
10.35,-0.45,108
10.35,-0.3,101
10.35,-0.15,103
10.35,0.0,107
10.35,0.15,112
10.35,0.3,116
10.35,0.45,119
10.35,0.6,121
10.35,0.75,122
10.35,0.9,123
10.35,1.05,120
10.35,1.2,120
10.35,1.35,117
10.35,1.5,108
10.5,-1.5,98
10.5,-1.35,99
10.5,-1.2,100
10.5,-1.05,101
10.5,-0.9,103
10.5,-0.75,104
10.5,-0.6,106
10.5,-0.45,108
10.5,-0.3,108
10.5,-0.15,101
10.5,0.0,105
10.5,0.15,108
10.5,0.3,111
10.5,0.45,114
10.5,0.6,115
10.5,0.75,116
10.5,0.9,118
10.5,1.05,116
10.5,1.2,114
10.5,1.35,108
10.5,1.5,105
10.65,-1.5,98
10.65,-1.35,99
10.65,-1.2,100
10.65,-1.05,101
10.65,-0.9,103
10.65,-0.75,105
10.65,-0.6,107
10.65,-0.45,108
10.65,-0.3,108
10.65,-0.15,100
10.65,0.0,103
10.65,0.15,105
10.65,0.3,108
10.65,0.45,109
10.65,0.6,110
10.65,0.75,111
10.65,0.9,113
10.65,1.05,105
10.65,1.2,109
10.65,1.35,104
10.65,1.5,101
10.8,-1.5,96
10.8,-1.35,97
10.8,-1.2,98
10.8,-1.05,100
10.8,-0.9,102
10.8,-0.75,103
10.8,-0.6,105
10.8,-0.45,108
10.8,-0.3,93
10.8,-0.15,98
10.8,0.0,101
10.8,0.15,103
10.8,0.3,104
10.8,0.45,105
10.8,0.6,105
10.8,0.75,105
10.8,0.9,108
10.8,1.05,101
10.8,1.2,99
10.8,1.35,103
10.8,1.5,98
10.95,-1.5,94
10.95,-1.35,95
10.95,-1.2,96
10.95,-1.05,98
10.95,-0.9,100
10.95,-0.75,102
10.95,-0.6,104
10.95,-0.45,106
10.95,-0.3,90
10.95,-0.15,92
10.95,0.0,94
10.95,0.15,93
10.95,0.3,94
10.95,0.45,101
10.95,0.6,101
10.95,0.75,100
10.95,0.9,100
10.95,1.05,96
10.95,1.2,94
10.95,1.35,98
10.95,1.5,93
11.1,-1.5,91
11.1,-1.35,92
11.1,-1.2,94
11.1,-1.05,95
11.1,-0.9,97
11.1,-0.75,99
11.1,-0.6,83
11.1,-0.45,85
11.1,-0.3,87
11.1,-0.15,88
11.1,0.0,90
11.1,0.15,88
11.1,0.3,89
11.1,0.45,90
11.1,0.6,93
11.1,0.75,93
11.1,0.9,92
11.1,1.05,96
11.1,1.2,89
11.1,1.35,88
11.1,1.5,89
11.25,-1.5,87
11.25,-1.35,89
11.25,-1.2,90
11.25,-1.05,92
11.25,-0.9,75
11.25,-0.75,77
11.25,-0.6,79
11.25,-0.45,81
11.25,-0.3,83
11.25,-0.15,84
11.25,0.0,85
11.25,0.15,83
11.25,0.3,84
11.25,0.45,84
11.25,0.6,84
11.25,0.75,87
11.25,0.9,86
11.25,1.05,85
11.25,1.2,84
11.25,1.35,82
11.25,1.5,81
11.4,-1.5,82
11.4,-1.35,72
11.4,-1.2,73
11.4,-1.05,75
11.4,-0.9,71
11.4,-0.75,73
11.4,-0.6,75
11.4,-0.45,77
11.4,-0.3,78
11.4,-0.15,80
11.4,0.0,81
11.4,0.15,78
11.4,0.3,79
11.4,0.45,79
11.4,0.6,79
11.4,0.75,81
11.4,0.9,80
11.4,1.05,78
11.4,1.2,77
11.4,1.35,76
11.4,1.5,74
11.55,-1.5,65
11.55,-1.35,66
11.55,-1.2,68
11.55,-1.05,69
11.55,-0.9,66
11.55,-0.75,68
11.55,-0.6,70
11.55,-0.45,72
11.55,-0.3,73
11.55,-0.15,75
11.55,0.0,76
11.55,0.15,73
11.55,0.3,74
11.55,0.45,73
11.55,0.6,73
11.55,0.75,74
11.55,0.9,73
11.55,1.05,71
11.55,1.2,70
11.55,1.35,68
11.55,1.5,67
11.7,-1.5,58
11.7,-1.35,59
11.7,-1.2,61
11.7,-1.05,58
11.7,-0.9,60
11.7,-0.75,62
11.7,-0.6,65
11.7,-0.45,67
11.7,-0.3,68
11.7,-0.15,70
11.7,0.0,71
11.7,0.15,68
11.7,0.3,68
11.7,0.45,67
11.7,0.6,66
11.7,0.75,65
11.7,0.9,66
11.7,1.05,64
11.7,1.2,62
11.7,1.35,60
11.7,1.5,59
11.85,-1.5,50
11.85,-1.35,51
11.85,-1.2,53
11.85,-1.05,51
11.85,-0.9,54
11.85,-0.75,56
11.85,-0.6,59
11.85,-0.45,61
11.85,-0.3,63
11.85,-0.15,65
11.85,0.0,65
11.85,0.15,63
11.85,0.3,63
11.85,0.45,62
11.85,0.6,60
11.85,0.75,58
11.85,0.9,58
11.85,1.05,56
11.85,1.2,53
11.85,1.35,51
11.85,1.5,50
12.0,-1.5,41
12.0,-1.35,42
12.0,-1.2,45
12.0,-1.05,43
12.0,-0.9,47
12.0,-0.75,50
12.0,-0.6,53
12.0,-0.45,56
12.0,-0.3,58
12.0,-0.15,59
12.0,0.0,60
12.0,0.15,58
12.0,0.3,57
12.0,0.45,56
12.0,0.6,54
12.0,0.75,51
12.0,0.9,50
12.0,1.05,47
12.0,1.2,44
12.0,1.35,42
12.0,1.5,41
12.15,-1.5,31
12.15,-1.35,33
12.15,-1.2,35
12.15,-1.05,36
12.15,-0.9,39
12.15,-0.75,43
12.15,-0.6,47
12.15,-0.45,50
12.15,-0.3,53
12.15,-0.15,54
12.15,0.0,55
12.15,0.15,53
12.15,0.3,52
12.15,0.45,50
12.15,0.6,47
12.15,0.75,44
12.15,0.9,40
12.15,1.05,38
12.15,1.2,35
12.15,1.35,32
12.15,1.5,31
12.3,-1.5,22
12.3,-1.35,23
12.3,-1.2,26
12.3,-1.05,27
12.3,-0.9,32
12.3,-0.75,37
12.3,-0.6,41
12.3,-0.45,45
12.3,-0.3,48
12.3,-0.15,50
12.3,0.0,50
12.3,0.15,48
12.3,0.3,47
12.3,0.45,44
12.3,0.6,41
12.3,0.75,37
12.3,0.9,32
12.3,1.05,29
12.3,1.2,25
12.3,1.35,22
12.3,1.5,21
12.45,-1.5,12
12.45,-1.35,14
12.45,-1.2,15
12.45,-1.05,20
12.45,-0.9,25
12.45,-0.75,31
12.45,-0.6,36
12.45,-0.45,40
12.45,-0.3,43
12.45,-0.15,45
12.45,0.0,46
12.45,0.15,44
12.45,0.3,42
12.45,0.45,39
12.45,0.6,35
12.45,0.75,30
12.45,0.9,25
12.45,1.05,21
12.45,1.2,16
12.45,1.35,13
12.45,1.5,12
12.6,-1.5,4
12.6,-1.35,6
12.6,-1.2,8
12.6,-1.05,13
12.6,-0.9,19
12.6,-0.75,25
12.6,-0.6,31
12.6,-0.45,36
12.6,-0.3,39
12.6,-0.15,41
12.6,0.0,42
12.6,0.15,40
12.6,0.3,38
12.6,0.45,35
12.6,0.6,30
12.6,0.75,25
12.6,0.9,19
12.6,1.05,13
12.6,1.2,9
12.6,1.35,5
12.6,1.5,4
12.75,-1.5,0
12.75,-1.35,0
12.75,-1.2,3
12.75,-1.05,8
12.75,-0.9,14
12.75,-0.75,21
12.75,-0.6,27
12.75,-0.45,32
12.75,-0.3,36
12.75,-0.15,38
12.75,0.0,39
12.75,0.15,37
12.75,0.3,35
12.75,0.45,31
12.75,0.6,26
12.75,0.75,21
12.75,0.9,14
12.75,1.05,8
12.75,1.2,3
12.75,1.35,0
12.75,1.5,0
12.9,-1.5,0
12.9,-1.35,0
12.9,-1.2,0
12.9,-1.05,5
12.9,-0.9,12
12.9,-0.75,18
12.9,-0.6,24
12.9,-0.45,29
12.9,-0.3,33
12.9,-0.15,36
12.9,0.0,36
12.9,0.15,34
12.9,0.3,32
12.9,0.45,28
12.9,0.6,24
12.9,0.75,18
12.9,0.9,11
12.9,1.05,5
12.9,1.2,0
12.9,1.35,0
12.9,1.5,0
13.05,-1.5,0
13.05,-1.35,0
13.05,-1.2,0
13.05,-1.05,4
13.05,-0.9,10
13.05,-0.75,17
13.05,-0.6,22
13.05,-0.45,27
13.05,-0.3,31
13.05,-0.15,34
13.05,0.0,34
13.05,0.15,32
13.05,0.3,30
13.05,0.45,27
13.05,0.6,22
13.05,0.75,16
13.05,0.9,10
13.05,1.05,4
13.05,1.2,0
13.05,1.35,0
13.05,1.5,0
