-3.0,-1.5,0
-3.0,-1.35,0
-3.0,-1.2,9
-3.0,-1.05,21
-3.0,-0.9,35
-3.0,-0.75,49
-3.0,-0.6,60
-3.0,-0.45,69
-3.0,-0.3,76
-3.0,-0.15,80
-3.0,0.0,81
-3.0,0.15,80
-3.0,0.3,77
-3.0,0.45,71
-3.0,0.6,62
-3.0,0.75,50
-3.0,0.9,37
-3.0,1.05,22
-3.0,1.2,9
-3.0,1.35,0
-3.0,1.5,0
-2.85,-1.5,0
-2.85,-1.35,3
-2.85,-1.2,12
-2.85,-1.05,25
-2.85,-0.9,40
-2.85,-0.75,53
-2.85,-0.6,65
-2.85,-0.45,74
-2.85,-0.3,81
-2.85,-0.15,85
-2.85,0.0,86
-2.85,0.15,86
-2.85,0.3,82
-2.85,0.45,76
-2.85,0.6,67
-2.85,0.75,56
-2.85,0.9,42
-2.85,1.05,27
-2.85,1.2,13
-2.85,1.35,4
-2.85,1.5,1
-2.7,-1.5,9
-2.7,-1.35,13
-2.7,-1.2,22
-2.7,-1.05,34
-2.7,-0.9,48
-2.7,-0.75,61
-2.7,-0.6,72
-2.7,-0.45,81
-2.7,-0.3,87
-2.7,-0.15,91
-2.7,0.0,92
-2.7,0.15,92
-2.7,0.3,89
-2.7,0.45,83
-2.7,0.6,75
-2.7,0.75,64
-2.7,0.9,51
-2.7,1.05,36
-2.7,1.2,23
-2.7,1.35,14
-2.7,1.5,12
-2.55,-1.5,24
-2.55,-1.35,28
-2.55,-1.2,36
-2.55,-1.05,47
-2.55,-0.9,59
-2.55,-0.75,70
-2.55,-0.6,80
-2.55,-0.45,88
-2.55,-0.3,94
-2.55,-0.15,98
-2.55,0.0,99
-2.55,0.15,99
-2.55,0.3,96
-2.55,0.45,92
-2.55,0.6,84
-2.55,0.75,75
-2.55,0.9,63
-2.55,1.05,50
-2.55,1.2,38
-2.55,1.35,34
-2.55,1.5,29
-2.4,-1.5,41
-2.4,-1.35,45
-2.4,-1.2,52
-2.4,-1.05,61
-2.4,-0.9,71
-2.4,-0.75,81
-2.4,-0.6,90
-2.4,-0.45,97
-2.4,-0.3,102
-2.4,-0.15,105
-2.4,0.0,107
-2.4,0.15,107
-2.4,0.3,105
-2.4,0.45,101
-2.4,0.6,95
-2.4,0.75,87
-2.4,0.9,77
-2.4,1.05,66
-2.4,1.2,56
-2.4,1.35,55
-2.4,1.5,50
-2.25,-1.5,57
-2.25,-1.35,61
-2.25,-1.2,68
-2.25,-1.05,75
-2.25,-0.9,84
-2.25,-0.75,92
-2.25,-0.6,99
-2.25,-0.45,105
-2.25,-0.3,110
-2.25,-0.15,113
-2.25,0.0,115
-2.25,0.15,115
-2.25,0.3,114
-2.25,0.45,111
-2.25,0.6,106
-2.25,0.75,99
-2.25,0.9,91
-2.25,1.05,83
-2.25,1.2,83
-2.25,1.35,76
-2.25,1.5,71
-2.1,-1.5,74
-2.1,-1.35,76
-2.1,-1.2,82
-2.1,-1.05,88
-2.1,-0.9,95
-2.1,-0.75,102
-2.1,-0.6,108
-2.1,-0.45,114
-2.1,-0.3,118
-2.1,-0.15,121
-2.1,0.0,123
-2.1,0.15,124
-2.1,0.3,123
-2.1,0.45,121
-2.1,0.6,117
-2.1,0.75,112
-2.1,0.9,105
-2.1,1.05,98
-2.1,1.2,101
-2.1,1.35,95
-2.1,1.5,91
-1.95,-1.5,86
-1.95,-1.35,90
-1.95,-1.2,95
-1.95,-1.05,101
-1.95,-0.9,105
-1.95,-0.75,111
-1.95,-0.6,116
-1.95,-0.45,122
-1.95,-0.3,126
-1.95,-0.15,130
-1.95,0.0,132
-1.95,0.15,133
-1.95,0.3,133
-1.95,0.45,131
-1.95,0.6,128
-1.95,0.75,124
-1.95,0.9,118
-1.95,1.05,123
-1.95,1.2,117
-1.95,1.35,121
-1.95,1.5,116
-1.8,-1.5,96
-1.8,-1.35,100
-1.8,-1.2,104
-1.8,-1.05,109
-1.8,-0.9,115
-1.8,-0.75,120
-1.8,-0.6,124
-1.8,-0.45,129
-1.8,-0.3,134
-1.8,-0.15,138
-1.8,0.0,141
-1.8,0.15,142
-1.8,0.3,143
-1.8,0.45,141
-1.8,0.6,139
-1.8,0.75,135
-1.8,0.9,144
-1.8,1.05,139
-1.8,1.2,140
-1.8,1.35,135
-1.8,1.5,130
-1.65,-1.5,103
-1.65,-1.35,106
-1.65,-1.2,110
-1.65,-1.05,115
-1.65,-0.9,120
-1.65,-0.75,125
-1.65,-0.6,131
-1.65,-0.45,137
-1.65,-0.3,140
-1.65,-0.15,145
-1.65,0.0,149
-1.65,0.15,152
-1.65,0.3,153
-1.65,0.45,152
-1.65,0.6,158
-1.65,0.75,159
-1.65,0.9,154
-1.65,1.05,156
-1.65,1.2,151
-1.65,1.35,146
-1.65,1.5,142
-1.5,-1.5,107
-1.5,-1.35,111
-1.5,-1.2,115
-1.5,-1.05,119
-1.5,-0.9,123
-1.5,-0.75,129
-1.5,-0.6,134
-1.5,-0.45,141
-1.5,-0.3,148
-1.5,-0.15,155
-1.5,0.0,159
-1.5,0.15,164
-1.5,0.3,165
-1.5,0.45,170
-1.5,0.6,167
-1.5,0.75,168
-1.5,0.9,163
-1.5,1.05,165
-1.5,1.2,160
-1.5,1.35,155
-1.5,1.5,151
-1.35,-1.5,110
-1.35,-1.35,113
-1.35,-1.2,117
-1.35,-1.05,121
-1.35,-0.9,125
-1.35,-0.75,130
-1.35,-0.6,136
-1.35,-0.45,143
-1.35,-0.3,152
-1.35,-0.15,168
-1.35,0.0,176
-1.35,0.15,181
-1.35,0.3,176
-1.35,0.45,180
-1.35,0.6,177
-1.35,0.75,176
-1.35,0.9,178
-1.35,1.05,173
-1.35,1.2,167
-1.35,1.35,162
-1.35,1.5,158
-1.2,-1.5,112
-1.2,-1.35,115
-1.2,-1.2,118
-1.2,-1.05,121
-1.2,-0.9,125
-1.2,-0.75,129
-1.2,-0.6,142
-1.2,-0.45,148
-1.2,-0.3,159
-1.2,-0.15,173
-1.2,0.0,186
-1.2,0.15,193
-1.2,0.3,195
-1.2,0.45,201
-1.2,0.6,191
-1.2,0.75,191
-1.2,0.9,185
-1.2,1.05,179
-1.2,1.2,173
-1.2,1.35,168
-1.2,1.5,163
-1.05,-1.5,121
-1.05,-1.35,115
-1.05,-1.2,118
-1.05,-1.05,121
-1.05,-0.9,132
-1.05,-0.75,133
-1.05,-0.6,135
-1.05,-0.45,141
-1.05,-0.3,155
-1.05,-0.15,179
-1.05,0.0,203
-1.05,0.15,212
-1.05,0.3,210
-1.05,0.45,212
-1.05,0.6,207
-1.05,0.75,201
-1.05,0.9,192
-1.05,1.05,185
-1.05,1.2,178
-1.05,1.35,172
-1.05,1.5,167
-0.9,-1.5,121
-0.9,-1.35,126
-0.9,-1.2,126
-0.9,-1.05,127
-0.9,-0.9,128
-0.9,-0.75,127
-0.9,-0.6,126
-0.9,-0.45,124
-0.9,-0.3,137
-0.9,-0.15,185
-0.9,0.0,237
-0.9,0.15,244
-0.9,0.3,230
-0.9,0.45,225
-0.9,0.6,218
-0.9,0.75,208
-0.9,0.9,199
-0.9,1.05,191
-0.9,1.2,181
-0.9,1.35,175
-0.9,1.5,169
-0.75,-1.5,123
-0.75,-1.35,123
-0.75,-1.2,124
-0.75,-1.05,124
-0.75,-0.9,124
-0.75,-0.75,122
-0.75,-0.6,115
-0.75,-0.45,98
-0.75,-0.3,88
-0.75,-0.15,180
-0.75,0.0,255
-0.75,0.15,255
-0.75,0.3,247
-0.75,0.45,241
-0.75,0.6,232
-0.75,0.75,217
-0.75,0.9,203
-0.75,1.05,192
-0.75,1.2,195
-0.75,1.35,190
-0.75,1.5,170
-0.6,-1.5,135
-0.6,-1.35,121
-0.6,-1.2,121
-0.6,-1.05,122
-0.6,-0.9,122
-0.6,-0.75,120
-0.6,-0.6,112
-0.6,-0.45,88
-0.6,-0.3,59
-0.6,-0.15,160
-0.6,0.0,255
-0.6,0.15,255
-0.6,0.3,255
-0.6,0.45,255
-0.6,0.6,250
-0.6,0.75,224
-0.6,0.9,204
-0.6,1.05,200
-0.6,1.2,193
-0.6,1.35,189
-0.6,1.5,170
-0.45,-1.5,133
-0.45,-1.35,132
-0.45,-1.2,119
-0.45,-1.05,119
-0.45,-0.9,120
-0.45,-0.75,119
-0.45,-0.6,117
-0.45,-0.45,110
-0.45,-0.3,112
-0.45,-0.15,154
-0.45,0.0,209
-0.45,0.15,223
-0.45,0.3,248
-0.45,0.45,255
-0.45,0.6,254
-0.45,0.75,220
-0.45,0.9,207
-0.45,1.05,196
-0.45,1.2,190
-0.45,1.35,170
-0.45,1.5,180
-0.3,-1.5,129
-0.3,-1.35,119
-0.3,-1.2,119
-0.3,-1.05,118
-0.3,-0.9,117
-0.3,-0.75,119
-0.3,-0.6,121
-0.3,-0.45,125
-0.3,-0.3,129
-0.3,-0.15,136
-0.3,0.0,151
-0.3,0.15,169
-0.3,0.3,203
-0.3,0.45,229
-0.3,0.6,220
-0.3,0.75,208
-0.3,0.9,196
-0.3,1.05,189
-0.3,1.2,170
-0.3,1.35,179
-0.3,1.5,177
-0.15,-1.5,128
-0.15,-1.35,126
-0.15,-1.2,116
-0.15,-1.05,116
-0.15,-0.9,116
-0.15,-0.75,118
-0.15,-0.6,122
-0.15,-0.45,132
-0.15,-0.3,135
-0.15,-0.15,115
-0.15,0.0,119
-0.15,0.15,127
-0.15,0.3,150
-0.15,0.45,168
-0.15,0.6,184
-0.15,0.75,184
-0.15,0.9,182
-0.15,1.05,178
-0.15,1.2,176
-0.15,1.35,175
-0.15,1.5,159
0.0,-1.5,127
0.0,-1.35,125
0.0,-1.2,122
0.0,-1.05,112
0.0,-0.9,111
0.0,-0.75,112
0.0,-0.6,119
0.0,-0.45,139
0.0,-0.3,200
0.0,-0.15,77
0.0,0.0,99
0.0,0.15,104
0.0,0.3,114
0.0,0.45,139
0.0,0.6,155
0.0,0.75,165
0.0,0.9,167
0.0,1.05,170
0.0,1.2,171
0.0,1.35,171
0.0,1.5,170
0.15,-1.5,115
0.15,-1.35,119
0.15,-1.2,116
0.15,-1.05,112
0.15,-0.9,101
0.15,-0.75,102
0.15,-0.6,104
0.15,-0.45,118
0.15,-0.3,138
0.15,-0.15,111
0.15,0.0,76
0.15,0.15,105
0.15,0.3,99
0.15,0.45,121
0.15,0.6,138
0.15,0.75,150
0.15,0.9,158
0.15,1.05,163
0.15,1.2,165
0.15,1.35,166
0.15,1.5,167
0.3,-1.5,117
0.3,-1.35,115
0.3,-1.2,111
0.3,-1.05,111
0.3,-0.9,103
0.3,-0.75,88
0.3,-0.6,80
0.3,-0.45,85
0.3,-0.3,99
0.3,-0.15,98
0.3,0.0,57
0.3,0.15,49
0.3,0.3,83
0.3,0.45,106
0.3,0.6,124
0.3,0.75,135
0.3,0.9,141
0.3,1.05,158
0.3,1.2,161
0.3,1.35,162
0.3,1.5,149
0.45,-1.5,119
0.45,-1.35,117
0.45,-1.2,113
0.45,-1.05,110
0.45,-0.9,101
0.45,-0.75,86
0.45,-0.6,60
0.45,-0.45,66
0.45,-0.3,73
0.45,-0.15,112
0.45,0.0,110
0.45,0.15,78
0.45,0.3,67
0.45,0.45,114
0.45,0.6,133
0.45,0.75,140
0.45,0.9,139
0.45,1.05,131
0.45,1.2,131
0.45,1.35,130
0.45,1.5,126
0.6,-1.5,122
0.6,-1.35,119
0.6,-1.2,116
0.6,-1.05,112
0.6,-0.9,105
0.6,-0.75,93
0.6,-0.6,80
0.6,-0.45,64
0.6,-0.3,84
0.6,-0.15,162
0.6,0.0,179
0.6,0.15,157
0.6,0.3,151
0.6,0.45,146
0.6,0.6,135
0.6,0.75,129
0.6,0.9,135
0.6,1.05,132
0.6,1.2,131
0.6,1.35,127
0.6,1.5,119
0.75,-1.5,122
0.75,-1.35,122
0.75,-1.2,122
0.75,-1.05,121
0.75,-0.9,118
0.75,-0.75,113
0.75,-0.6,112
0.75,-0.45,98
0.75,-0.3,143
0.75,-0.15,223
0.75,0.0,222
0.75,0.15,255
0.75,0.3,255
0.75,0.45,191
0.75,0.6,150
0.75,0.75,132
0.75,0.9,120
0.75,1.05,114
0.75,1.2,111
0.75,1.35,101
0.75,1.5,101
0.9,-1.5,115
0.9,-1.35,116
0.9,-1.2,118
0.9,-1.05,122
0.9,-0.9,122
0.9,-0.75,125
0.9,-0.6,127
0.9,-0.45,146
0.9,-0.3,191
0.9,-0.15,255
0.9,0.0,247
0.9,0.15,218
0.9,0.3,235
0.9,0.45,172
0.9,0.6,139
0.9,0.75,125
0.9,0.9,114
0.9,1.05,117
0.9,1.2,101
0.9,1.35,100
0.9,1.5,84
1.05,-1.5,105
1.05,-1.35,107
1.05,-1.2,111
1.05,-1.05,115
1.05,-0.9,133
1.05,-0.75,140
1.05,-0.6,152
1.05,-0.45,153
1.05,-0.3,163
1.05,-0.15,176
1.05,0.0,145
1.05,0.15,53
1.05,0.3,86
1.05,0.45,111
1.05,0.6,106
1.05,0.75,102
1.05,0.9,109
1.05,1.05,110
1.05,1.2,76
1.05,1.35,76
1.05,1.5,75
1.2,-1.5,90
1.2,-1.35,90
1.2,-1.2,94
1.2,-1.05,101
1.2,-0.9,125
1.2,-0.75,144
1.2,-0.6,181
1.2,-0.45,185
1.2,-0.3,125
1.2,-0.15,78
1.2,0.0,75
1.2,0.15,31
1.2,0.3,53
1.2,0.45,68
1.2,0.6,74
1.2,0.75,73
1.2,0.9,71
1.2,1.05,72
1.2,1.2,73
1.2,1.35,74
1.2,1.5,76
1.35,-1.5,90
1.35,-1.35,92
1.35,-1.2,95
1.35,-1.05,100
1.35,-0.9,107
1.35,-0.75,120
1.35,-0.6,138
1.35,-0.45,189
1.35,-0.3,107
1.35,-0.15,64
1.35,0.0,55
1.35,0.15,44
1.35,0.3,42
1.35,0.45,52
1.35,0.6,58
1.35,0.75,61
1.35,0.9,66
1.35,1.05,69
1.35,1.2,75
1.35,1.35,76
1.35,1.5,76
1.5,-1.5,84
1.5,-1.35,85
1.5,-1.2,87
1.5,-1.05,92
1.5,-0.9,94
1.5,-0.75,95
1.5,-0.6,77
1.5,-0.45,70
1.5,-0.3,80
1.5,-0.15,56
1.5,0.0,53
1.5,0.15,64
1.5,0.3,42
1.5,0.45,52
1.5,0.6,47
1.5,0.75,49
1.5,0.9,54
1.5,1.05,59
1.5,1.2,60
1.5,1.35,60
1.5,1.5,60
1.65,-1.5,77
1.65,-1.35,77
1.65,-1.2,81
1.65,-1.05,81
1.65,-0.9,80
1.65,-0.75,78
1.65,-0.6,76
1.65,-0.45,76
1.65,-0.3,68
1.65,-0.15,60
1.65,0.0,51
1.65,0.15,31
1.65,0.3,39
1.65,0.45,38
1.65,0.6,44
1.65,0.75,58
1.65,0.9,69
1.65,1.05,71
1.65,1.2,69
1.65,1.35,68
1.65,1.5,66
1.8,-1.5,72
1.8,-1.35,72
1.8,-1.2,72
1.8,-1.05,71
1.8,-0.9,70
1.8,-0.75,66
1.8,-0.6,52
1.8,-0.45,52
1.8,-0.3,76
1.8,-0.15,69
1.8,0.0,48
1.8,0.15,51
1.8,0.3,28
1.8,0.45,5
1.8,0.6,37
1.8,0.75,86
1.8,0.9,91
1.8,1.05,82
1.8,1.2,75
1.8,1.35,71
1.8,1.5,68
1.95,-1.5,61
1.95,-1.35,61
1.95,-1.2,58
1.95,-1.05,56
1.95,-0.9,55
1.95,-0.75,79
1.95,-0.6,0
1.95,-0.45,54
1.95,-0.3,47
1.95,-0.15,52
1.95,0.0,44
1.95,0.15,44
1.95,0.3,26
1.95,0.45,20
1.95,0.6,71
1.95,0.75,184
1.95,0.9,127
1.95,1.05,98
1.95,1.2,97
1.95,1.35,94
1.95,1.5,92
2.1,-1.5,59
2.1,-1.35,60
2.1,-1.2,60
2.1,-1.05,60
2.1,-0.9,49
2.1,-0.75,59
2.1,-0.6,49
2.1,-0.45,45
2.1,-0.3,10
2.1,-0.15,28
2.1,0.0,24
2.1,0.15,18
2.1,0.3,29
2.1,0.45,11
2.1,0.6,16
2.1,0.75,143
2.1,0.9,120
2.1,1.05,103
2.1,1.2,100
2.1,1.35,95
2.1,1.5,98
2.25,-1.5,60
2.25,-1.35,59
2.25,-1.2,59
2.25,-1.05,59
2.25,-0.9,58
2.25,-0.75,57
2.25,-0.6,42
2.25,-0.45,36
2.25,-0.3,31
2.25,-0.15,59
2.25,0.0,55
2.25,0.15,49
2.25,0.3,83
2.25,0.45,60
2.25,0.6,45
2.25,0.75,79
2.25,0.9,97
2.25,1.05,100
2.25,1.2,99
2.25,1.35,98
2.25,1.5,98
2.4,-1.5,59
2.4,-1.35,58
2.4,-1.2,57
2.4,-1.05,56
2.4,-0.9,52
2.4,-0.75,51
2.4,-0.6,61
2.4,-0.45,68
2.4,-0.3,63
2.4,-0.15,62
2.4,0.0,58
2.4,0.15,65
2.4,0.3,230
2.4,0.45,114
2.4,0.6,74
2.4,0.75,87
2.4,0.9,100
2.4,1.05,98
2.4,1.2,100
2.4,1.35,92
2.4,1.5,92
2.55,-1.5,51
2.55,-1.35,53
2.55,-1.2,49
2.55,-1.05,50
2.55,-0.9,47
2.55,-0.75,54
2.55,-0.6,33
2.55,-0.45,80
2.55,-0.3,73
2.55,-0.15,130
2.55,0.0,58
2.55,0.15,73
2.55,0.3,33
2.55,0.45,108
2.55,0.6,99
2.55,0.75,100
2.55,0.9,101
2.55,1.05,100
2.55,1.2,99
2.55,1.35,96
2.55,1.5,92
2.7,-1.5,53
2.7,-1.35,51
2.7,-1.2,52
2.7,-1.05,44
2.7,-0.9,42
2.7,-0.75,41
2.7,-0.6,33
2.7,-0.45,158
2.7,-0.3,60
2.7,-0.15,69
2.7,0.0,45
2.7,0.15,43
2.7,0.3,73
2.7,0.45,122
2.7,0.6,154
2.7,0.75,105
2.7,0.9,91
2.7,1.05,98
2.7,1.2,91
2.7,1.35,90
2.7,1.5,90
2.85,-1.5,40
2.85,-1.35,38
2.85,-1.2,38
2.85,-1.05,41
2.85,-0.9,35
2.85,-0.75,17
2.85,-0.6,24
2.85,-0.45,30
2.85,-0.3,47
2.85,-0.15,51
2.85,0.0,19
2.85,0.15,28
2.85,0.3,45
2.85,0.45,64
2.85,0.6,105
2.85,0.75,90
2.85,0.9,96
2.85,1.05,96
2.85,1.2,89
2.85,1.35,88
2.85,1.5,87
3.0,-1.5,49
3.0,-1.35,44
3.0,-1.2,42
3.0,-1.05,37
3.0,-0.9,29
3.0,-0.75,20
3.0,-0.6,14
3.0,-0.45,145
3.0,-0.3,63
3.0,-0.15,18
3.0,0.0,43
3.0,0.15,50
3.0,0.3,34
3.0,0.45,54
3.0,0.6,55
3.0,0.75,73
3.0,0.9,85
3.0,1.05,88
3.0,1.2,87
3.0,1.35,86
3.0,1.5,85
3.15,-1.5,61
3.15,-1.35,61
3.15,-1.2,58
3.15,-1.05,72
3.15,-0.9,71
3.15,-0.75,66
3.15,-0.6,26
3.15,-0.45,33
3.15,-0.3,84
3.15,-0.15,73
3.15,0.0,50
3.15,0.15,38
3.15,0.3,8
3.15,0.45,35
3.15,0.6,0
3.15,0.75,71
3.15,0.9,94
3.15,1.05,87
3.15,1.2,80
3.15,1.35,72
3.15,1.5,72
3.3,-1.5,61
3.3,-1.35,82
3.3,-1.2,85
3.3,-1.05,89
3.3,-0.9,95
3.3,-0.75,103
3.3,-0.6,106
3.3,-0.45,122
3.3,-0.3,84
3.3,-0.15,63
3.3,0.0,47
3.3,0.15,118
3.3,0.3,50
3.3,0.45,45
3.3,0.6,78
3.3,0.75,148
3.3,0.9,133
3.3,1.05,71
3.3,1.2,62
3.3,1.35,63
3.3,1.5,64
3.45,-1.5,66
3.45,-1.35,86
3.45,-1.2,87
3.45,-1.05,91
3.45,-0.9,109
3.45,-0.75,121
3.45,-0.6,107
3.45,-0.45,106
3.45,-0.3,65
3.45,-0.15,44
3.45,0.0,67
3.45,0.15,51
3.45,0.3,45
3.45,0.45,82
3.45,0.6,63
3.45,0.75,135
3.45,0.9,70
3.45,1.05,15
3.45,1.2,57
3.45,1.35,72
3.45,1.5,78
3.6,-1.5,74
3.6,-1.35,69
3.6,-1.2,73
3.6,-1.05,76
3.6,-0.9,73
3.6,-0.75,28
3.6,-0.6,26
3.6,-0.45,25
3.6,-0.3,45
3.6,-0.15,39
3.6,0.0,25
3.6,0.15,57
3.6,0.3,55
3.6,0.45,153
3.6,0.6,63
3.6,0.75,76
3.6,0.9,63
3.6,1.05,44
3.6,1.2,63
3.6,1.35,75
3.6,1.5,81
3.75,-1.5,66
3.75,-1.35,67
3.75,-1.2,70
3.75,-1.05,74
3.75,-0.9,98
3.75,-0.75,32
3.75,-0.6,31
3.75,-0.45,62
3.75,-0.3,26
3.75,-0.15,51
3.75,0.0,24
3.75,0.15,43
3.75,0.3,71
3.75,0.45,85
3.75,0.6,86
3.75,0.75,106
3.75,0.9,85
3.75,1.05,75
3.75,1.2,78
3.75,1.35,82
3.75,1.5,86
3.9,-1.5,66
3.9,-1.35,66
3.9,-1.2,67
3.9,-1.05,71
3.9,-0.9,69
3.9,-0.75,45
3.9,-0.6,55
3.9,-0.45,255
3.9,-0.3,103
3.9,-0.15,80
3.9,0.0,58
3.9,0.15,159
3.9,0.3,77
3.9,0.45,191
3.9,0.6,152
3.9,0.75,164
3.9,0.9,64
3.9,1.05,75
3.9,1.2,87
3.9,1.35,87
3.9,1.5,99
4.05,-1.5,66
4.05,-1.35,66
4.05,-1.2,68
4.05,-1.05,67
4.05,-0.9,59
4.05,-0.75,38
4.05,-0.6,18
4.05,-0.45,15
4.05,-0.3,54
4.05,-0.15,141
4.05,0.0,64
4.05,0.15,64
4.05,0.3,16
4.05,0.45,104
4.05,0.6,118
4.05,0.75,91
4.05,0.9,92
4.05,1.05,85
4.05,1.2,87
4.05,1.35,96
4.05,1.5,109
4.2,-1.5,62
4.2,-1.35,62
4.2,-1.2,63
4.2,-1.05,87
4.2,-0.9,80
4.2,-0.75,63
4.2,-0.6,71
4.2,-0.45,45
4.2,-0.3,168
4.2,-0.15,36
4.2,0.0,81
4.2,0.15,27
4.2,0.3,124
4.2,0.45,70
4.2,0.6,76
4.2,0.75,107
4.2,0.9,103
4.2,1.05,100
4.2,1.2,98
4.2,1.35,94
4.2,1.5,94
4.35,-1.5,55
4.35,-1.35,56
4.35,-1.2,55
4.35,-1.05,95
4.35,-0.9,89
4.35,-0.75,69
4.35,-0.6,198
4.35,-0.45,26
4.35,-0.3,54
4.35,-0.15,7
4.35,0.0,100
4.35,0.15,65
4.35,0.3,230
4.35,0.45,71
4.35,0.6,58
4.35,0.75,92
4.35,0.9,103
4.35,1.05,108
4.35,1.2,103
4.35,1.35,97
4.35,1.5,95
4.5,-1.5,46
4.5,-1.35,46
4.5,-1.2,49
4.5,-1.05,55
4.5,-0.9,49
4.5,-0.75,38
4.5,-0.6,42
4.5,-0.45,30
4.5,-0.3,26
4.5,-0.15,55
4.5,0.0,41
4.5,0.15,48
4.5,0.3,8
4.5,0.45,58
4.5,0.6,58
4.5,0.75,83
4.5,0.9,124
4.5,1.05,105
4.5,1.2,86
4.5,1.35,82
4.5,1.5,82
4.65,-1.5,48
4.65,-1.35,47
4.65,-1.2,36
4.65,-1.05,34
4.65,-0.9,44
4.65,-0.75,5
4.65,-0.6,55
4.65,-0.45,0
4.65,-0.3,6
4.65,-0.15,27
4.65,0.0,164
4.65,0.15,22
4.65,0.3,46
4.65,0.45,118
4.65,0.6,59
4.65,0.75,82
4.65,0.9,179
4.65,1.05,105
4.65,1.2,93
4.65,1.35,86
4.65,1.5,82
4.8,-1.5,47
4.8,-1.35,48
4.8,-1.2,42
4.8,-1.05,33
4.8,-0.9,21
4.8,-0.75,46
4.8,-0.6,192
4.8,-0.45,6
4.8,-0.3,4
4.8,-0.15,15
4.8,0.0,38
4.8,0.15,164
4.8,0.3,10
4.8,0.45,30
4.8,0.6,30
4.8,0.75,59
4.8,0.9,83
4.8,1.05,83
4.8,1.2,80
4.8,1.35,77
4.8,1.5,83
4.95,-1.5,50
4.95,-1.35,49
4.95,-1.2,44
4.95,-1.05,12
4.95,-0.9,48
4.95,-0.75,84
4.95,-0.6,94
4.95,-0.45,53
4.95,-0.3,50
4.95,-0.15,34
4.95,0.0,22
4.95,0.15,38
4.95,0.3,95
4.95,0.45,35
4.95,0.6,42
4.95,0.75,54
4.95,0.9,34
4.95,1.05,54
4.95,1.2,71
4.95,1.35,75
4.95,1.5,76
5.1,-1.5,58
5.1,-1.35,69
5.1,-1.2,72
5.1,-1.05,97
5.1,-0.9,109
5.1,-0.75,58
5.1,-0.6,160
5.1,-0.45,61
5.1,-0.3,53
5.1,-0.15,99
5.1,0.0,19
5.1,0.15,52
5.1,0.3,147
5.1,0.45,59
5.1,0.6,89
5.1,0.75,65
5.1,0.9,27
5.1,1.05,50
5.1,1.2,60
5.1,1.35,64
5.1,1.5,66
5.25,-1.5,58
5.25,-1.35,64
5.25,-1.2,74
5.25,-1.05,113
5.25,-0.9,111
5.25,-0.75,84
5.25,-0.6,8
5.25,-0.45,26
5.25,-0.3,76
5.25,-0.15,0
5.25,0.0,46
5.25,0.15,4
5.25,0.3,33
5.25,0.45,58
5.25,0.6,94
5.25,0.75,86
5.25,0.9,65
5.25,1.05,65
5.25,1.2,79
5.25,1.35,79
5.25,1.5,79
5.4,-1.5,80
5.4,-1.35,93
5.4,-1.2,95
5.4,-1.05,108
5.4,-0.9,95
5.4,-0.75,105
5.4,-0.6,10
5.4,-0.45,57
5.4,-0.3,34
5.4,-0.15,21
5.4,0.0,34
5.4,0.15,255
5.4,0.3,57
5.4,0.45,111
5.4,0.6,125
5.4,0.75,83
5.4,0.9,79
5.4,1.05,79
5.4,1.2,77
5.4,1.35,77
5.4,1.5,77
5.55,-1.5,104
5.55,-1.35,104
5.55,-1.2,103
5.55,-1.05,90
5.55,-0.9,53
5.55,-0.75,118
5.55,-0.6,18
5.55,-0.45,45
5.55,-0.3,165
5.55,-0.15,22
5.55,0.0,21
5.55,0.15,24
5.55,0.3,111
5.55,0.45,66
5.55,0.6,152
5.55,0.75,16
5.55,0.9,105
5.55,1.05,75
5.55,1.2,69
5.55,1.35,67
5.55,1.5,73
5.7,-1.5,128
5.7,-1.35,113
5.7,-1.2,108
5.7,-1.05,97
5.7,-0.9,70
5.7,-0.75,131
5.7,-0.6,30
5.7,-0.45,73
5.7,-0.3,34
5.7,-0.15,47
5.7,0.0,35
5.7,0.15,54
5.7,0.3,58
5.7,0.45,35
5.7,0.6,47
5.7,0.75,60
5.7,0.9,70
5.7,1.05,72
5.7,1.2,69
5.7,1.35,66
5.7,1.5,65
5.85,-1.5,105
5.85,-1.35,106
5.85,-1.2,117
5.85,-1.05,119
5.85,-0.9,117
5.85,-0.75,138
5.85,-0.6,64
5.85,-0.45,42
5.85,-0.3,58
5.85,-0.15,18
5.85,0.0,46
5.85,0.15,62
5.85,0.3,45
5.85,0.45,28
5.85,0.6,37
5.85,0.75,50
5.85,0.9,53
5.85,1.05,55
5.85,1.2,56
5.85,1.35,56
5.85,1.5,56
6.0,-1.5,93
6.0,-1.35,96
6.0,-1.2,105
6.0,-1.05,119
6.0,-0.9,119
6.0,-0.75,132
6.0,-0.6,101
6.0,-0.45,60
6.0,-0.3,94
6.0,-0.15,13
6.0,0.0,67
6.0,0.15,41
6.0,0.3,60
6.0,0.45,28
6.0,0.6,55
6.0,0.75,52
6.0,0.9,53
6.0,1.05,53
6.0,1.2,52
6.0,1.35,51
6.0,1.5,53
6.15,-1.5,80
6.15,-1.35,83
6.15,-1.2,89
6.15,-1.05,102
6.15,-0.9,113
6.15,-0.75,63
6.15,-0.6,32
6.15,-0.45,78
6.15,-0.3,121
6.15,-0.15,62
6.15,0.0,13
6.15,0.15,168
6.15,0.3,27
6.15,0.45,57
6.15,0.6,91
6.15,0.75,61
6.15,0.9,51
6.15,1.05,53
6.15,1.2,51
6.15,1.35,53
6.15,1.5,52
6.3,-1.5,79
6.3,-1.35,68
6.3,-1.2,74
6.3,-1.05,89
6.3,-0.9,149
6.3,-0.75,54
6.3,-0.6,27
6.3,-0.45,45
6.3,-0.3,255
6.3,-0.15,7
6.3,0.0,43
6.3,0.15,35
6.3,0.3,2
6.3,0.45,27
6.3,0.6,29
6.3,0.75,47
6.3,0.9,53
6.3,1.05,50
6.3,1.2,49
6.3,1.35,48
6.3,1.5,51
6.45,-1.5,61
6.45,-1.35,59
6.45,-1.2,58
6.45,-1.05,63
6.45,-0.9,45
6.45,-0.75,28
6.45,-0.6,27
6.45,-0.45,51
6.45,-0.3,63
6.45,-0.15,13
6.45,0.0,45
6.45,0.15,47
6.45,0.3,40
6.45,0.45,47
6.45,0.6,17
6.45,0.75,44
6.45,0.9,51
6.45,1.05,48
6.45,1.2,48
6.45,1.35,48
6.45,1.5,48
6.6,-1.5,62
6.6,-1.35,58
6.6,-1.2,58
6.6,-1.05,65
6.6,-0.9,57
6.6,-0.75,52
6.6,-0.6,80
6.6,-0.45,14
6.6,-0.3,52
6.6,-0.15,18
6.6,0.0,32
6.6,0.15,66
6.6,0.3,39
6.6,0.45,57
6.6,0.6,50
6.6,0.75,53
6.6,0.9,47
6.6,1.05,50
6.6,1.2,48
6.6,1.35,48
6.6,1.5,48
6.75,-1.5,68
6.75,-1.35,68
6.75,-1.2,67
6.75,-1.05,57
6.75,-0.9,66
6.75,-0.75,66
6.75,-0.6,80
6.75,-0.45,83
6.75,-0.3,36
6.75,-0.15,31
6.75,0.0,51
6.75,0.15,17
6.75,0.3,53
6.75,0.45,84
6.75,0.6,67
6.75,0.75,56
6.75,0.9,61
6.75,1.05,61
6.75,1.2,50
6.75,1.35,50
6.75,1.5,50
6.9,-1.5,68
6.9,-1.35,67
6.9,-1.2,68
6.9,-1.05,70
6.9,-0.9,84
6.9,-0.75,89
6.9,-0.6,112
6.9,-0.45,74
6.9,-0.3,30
6.9,-0.15,111
6.9,0.0,29
6.9,0.15,51
6.9,0.3,54
6.9,0.45,62
6.9,0.6,67
6.9,0.75,67
6.9,0.9,61
6.9,1.05,51
6.9,1.2,50
6.9,1.35,50
6.9,1.5,50
7.05,-1.5,68
7.05,-1.35,56
7.05,-1.2,70
7.05,-1.05,58
7.05,-0.9,67
7.05,-0.75,63
7.05,-0.6,56
7.05,-0.45,24
7.05,-0.3,51
7.05,-0.15,59
7.05,0.0,50
7.05,0.15,62
7.05,0.3,77
7.05,0.45,73
7.05,0.6,64
7.05,0.75,67
7.05,0.9,54
7.05,1.05,54
7.05,1.2,54
7.05,1.35,54
7.05,1.5,50
7.2,-1.5,56
7.2,-1.35,56
7.2,-1.2,56
7.2,-1.05,50
7.2,-0.9,50
7.2,-0.75,52
7.2,-0.6,30
7.2,-0.45,11
7.2,-0.3,66
7.2,-0.15,69
7.2,0.0,157
7.2,0.15,70
7.2,0.3,134
7.2,0.45,63
7.2,0.6,60
7.2,0.75,67
7.2,0.9,67
7.2,1.05,54
7.2,1.2,54
7.2,1.35,54
7.2,1.5,54
7.35,-1.5,51
7.35,-1.35,51
7.35,-1.2,47
7.35,-1.05,47
7.35,-0.9,47
7.35,-0.75,39
7.35,-0.6,44
7.35,-0.45,9
7.35,-0.3,114
7.35,-0.15,200
7.35,0.0,115
7.35,0.15,34
7.35,0.3,65
7.35,0.45,56
7.35,0.6,61
7.35,0.75,63
7.35,0.9,65
7.35,1.05,50
7.35,1.2,50
7.35,1.35,50
7.35,1.5,50
7.5,-1.5,51
7.5,-1.35,54
7.5,-1.2,48
7.5,-1.05,47
7.5,-0.9,62
7.5,-0.75,61
7.5,-0.6,72
7.5,-0.45,81
7.5,-0.3,220
7.5,-0.15,171
7.5,0.0,64
7.5,0.15,64
7.5,0.3,54
7.5,0.45,49
7.5,0.6,51
7.5,0.75,49
7.5,0.9,49
7.5,1.05,49
7.5,1.2,50
7.5,1.35,50
7.5,1.5,50
7.65,-1.5,53
7.65,-1.35,70
7.65,-1.2,70
7.65,-1.05,55
7.65,-0.9,66
7.65,-0.75,68
7.65,-0.6,85
7.65,-0.45,81
7.65,-0.3,93
7.65,-0.15,55
7.65,0.0,69
7.65,0.15,75
7.65,0.3,64
7.65,0.45,14
7.65,0.6,45
7.65,0.75,45
7.65,0.9,45
7.65,1.05,45
7.65,1.2,45
7.65,1.35,45
7.65,1.5,45
7.8,-1.5,70
7.8,-1.35,61
7.8,-1.2,57
7.8,-1.05,62
7.8,-0.9,63
7.8,-0.75,78
7.8,-0.6,91
7.8,-0.45,81
7.8,-0.3,81
7.8,-0.15,111
7.8,0.0,96
7.8,0.15,82
7.8,0.3,63
7.8,0.45,46
7.8,0.6,46
7.8,0.75,48
7.8,0.9,47
7.8,1.05,45
7.8,1.2,45
7.8,1.35,45
7.8,1.5,45
7.95,-1.5,70
7.95,-1.35,70
7.95,-1.2,79
7.95,-1.05,81
7.95,-0.9,82
7.95,-0.75,93
7.95,-0.6,95
7.95,-0.45,91
7.95,-0.3,104
7.95,-0.15,116
7.95,0.0,203
7.95,0.15,65
7.95,0.3,56
7.95,0.45,46
7.95,0.6,48
7.95,0.75,48
7.95,0.9,47
7.95,1.05,47
7.95,1.2,47
7.95,1.35,45
7.95,1.5,45
8.1,-1.5,101
8.1,-1.35,101
8.1,-1.2,101
8.1,-1.05,102
8.1,-0.9,113
8.1,-0.75,124
8.1,-0.6,118
8.1,-0.45,121
8.1,-0.3,132
8.1,-0.15,179
8.1,0.0,128
8.1,0.15,61
8.1,0.3,64
8.1,0.45,2
8.1,0.6,46
8.1,0.75,48
8.1,0.9,47
8.1,1.05,47
8.1,1.2,45
8.1,1.35,47
8.1,1.5,47
8.25,-1.5,101
8.25,-1.35,101
8.25,-1.2,101
8.25,-1.05,112
8.25,-0.9,111
8.25,-0.75,114
8.25,-0.6,124
8.25,-0.45,129
8.25,-0.3,133
8.25,-0.15,71
8.25,0.0,104
8.25,0.15,90
8.25,0.3,67
8.25,0.45,45
8.25,0.6,48
8.25,0.75,50
8.25,0.9,47
8.25,1.05,49
8.25,1.2,50
8.25,1.35,50
8.25,1.5,47
8.4,-1.5,101
8.4,-1.35,101
8.4,-1.2,111
8.4,-1.05,111
8.4,-0.9,113
8.4,-0.75,120
8.4,-0.6,127
8.4,-0.45,133
8.4,-0.3,131
8.4,-0.15,116
8.4,0.0,93
8.4,0.15,99
8.4,0.3,83
8.4,0.45,68
8.4,0.6,62
8.4,0.75,52
8.4,0.9,53
8.4,1.05,54
8.4,1.2,47
8.4,1.35,47
8.4,1.5,50
8.55,-1.5,101
8.55,-1.35,103
8.55,-1.2,103
8.55,-1.05,102
8.55,-0.9,107
8.55,-0.75,110
8.55,-0.6,122
8.55,-0.45,141
8.55,-0.3,156
8.55,-0.15,204
8.55,0.0,4
8.55,0.15,87
8.55,0.3,91
8.55,0.45,79
8.55,0.6,73
8.55,0.75,70
8.55,0.9,61
8.55,1.05,61
8.55,1.2,56
8.55,1.35,47
8.55,1.5,48
8.7,-1.5,103
8.7,-1.35,102
8.7,-1.2,100
8.7,-1.05,102
8.7,-0.9,93
8.7,-0.75,82
8.7,-0.6,104
8.7,-0.45,160
8.7,-0.3,188
8.7,-0.15,172
8.7,0.0,111
8.7,0.15,94
8.7,0.3,96
8.7,0.45,85
8.7,0.6,79
8.7,0.75,77
8.7,0.9,76
8.7,1.05,64
8.7,1.2,55
8.7,1.35,58
8.7,1.5,58
8.85,-1.5,103
8.85,-1.35,101
8.85,-1.2,105
8.85,-1.05,98
8.85,-0.9,83
8.85,-0.75,59
8.85,-0.6,79
8.85,-0.45,161
8.85,-0.3,210
8.85,-0.15,157
8.85,0.0,125
8.85,0.15,109
8.85,0.3,103
8.85,0.45,90
8.85,0.6,86
8.85,0.75,82
8.85,0.9,80
8.85,1.05,79
8.85,1.2,66
8.85,1.35,56
8.85,1.5,56
9.0,-1.5,103
9.0,-1.35,106
9.0,-1.2,104
9.0,-1.05,98
9.0,-0.9,88
9.0,-0.75,79
9.0,-0.6,90
9.0,-0.45,94
9.0,-0.3,106
9.0,-0.15,126
9.0,0.0,120
9.0,0.15,113
9.0,0.3,107
9.0,0.45,94
9.0,0.6,90
9.0,0.75,87
9.0,0.9,74
9.0,1.05,73
9.0,1.2,79
9.0,1.35,68
9.0,1.5,57
9.15,-1.5,106
9.15,-1.35,106
9.15,-1.2,105
9.15,-1.05,100
9.15,-0.9,95
9.15,-0.75,93
9.15,-0.6,89
9.15,-0.45,67
9.15,-0.3,69
9.15,-0.15,102
9.15,0.0,112
9.15,0.15,111
9.15,0.3,108
9.15,0.45,97
9.15,0.6,93
9.15,0.75,90
9.15,0.9,87
9.15,1.05,75
9.15,1.2,74
9.15,1.35,73
9.15,1.5,69
9.3,-1.5,106
9.3,-1.35,106
9.3,-1.2,105
9.3,-1.05,102
9.3,-0.9,100
9.3,-0.75,97
9.3,-0.6,93
9.3,-0.45,85
9.3,-0.3,88
9.3,-0.15,100
9.3,0.0,107
9.3,0.15,108
9.3,0.3,107
9.3,0.45,97
9.3,0.6,94
9.3,0.75,92
9.3,0.9,89
9.3,1.05,77
9.3,1.2,76
9.3,1.35,75
9.3,1.5,74
9.45,-1.5,106
9.45,-1.35,106
9.45,-1.2,106
9.45,-1.05,105
9.45,-0.9,103
9.45,-0.75,101
9.45,-0.6,99
9.45,-0.45,97
9.45,-0.3,98
9.45,-0.15,101
9.45,0.0,105
9.45,0.15,107
9.45,0.3,107
9.45,0.45,97
9.45,0.6,95
9.45,0.75,93
9.45,0.9,91
9.45,1.05,89
9.45,1.2,78
9.45,1.35,76
9.45,1.5,76
9.6,-1.5,106
9.6,-1.35,106
9.6,-1.2,106
9.6,-1.05,106
9.6,-0.9,105
9.6,-0.75,104
9.6,-0.6,103
9.6,-0.45,103
9.6,-0.3,103
9.6,-0.15,103
9.6,0.0,105
9.6,0.15,106
9.6,0.3,106
9.6,0.45,97
9.6,0.6,96
9.6,0.75,94
9.6,0.9,82
9.6,1.05,91
9.6,1.2,90
9.6,1.35,78
9.6,1.5,77
9.75,-1.5,106
9.75,-1.35,106
9.75,-1.2,106
9.75,-1.05,106
9.75,-0.9,106
9.75,-0.75,106
9.75,-0.6,106
9.75,-0.45,105
9.75,-0.3,105
9.75,-0.15,104
9.75,0.0,105
9.75,0.15,106
9.75,0.3,106
9.75,0.45,97
9.75,0.6,96
9.75,0.75,94
9.75,0.9,93
9.75,1.05,81
9.75,1.2,91
9.75,1.35,90
9.75,1.5,78
9.9,-1.5,106
9.9,-1.35,106
9.9,-1.2,106
9.9,-1.05,106
9.9,-0.9,106
9.9,-0.75,106
9.9,-0.6,106
9.9,-0.45,106
9.9,-0.3,105
9.9,-0.15,105
9.9,0.0,106
9.9,0.15,106
9.9,0.3,106
9.9,0.45,97
9.9,0.6,96
9.9,0.75,95
9.9,0.9,93
9.9,1.05,81
9.9,1.2,80
9.9,1.35,91
9.9,1.5,90
10.05,-1.5,106
10.05,-1.35,106
10.05,-1.2,106
10.05,-1.05,106
10.05,-0.9,106
10.05,-0.75,106
10.05,-0.6,106
10.05,-0.45,106
10.05,-0.3,105
10.05,-0.15,106
10.05,0.0,106
10.05,0.15,106
10.05,0.3,106
10.05,0.45,96
10.05,0.6,96
10.05,0.75,95
10.05,0.9,94
10.05,1.05,93
10.05,1.2,81
10.05,1.35,80
10.05,1.5,91
10.2,-1.5,106
10.2,-1.35,106
10.2,-1.2,106
10.2,-1.05,106
10.2,-0.9,106
10.2,-0.75,106
10.2,-0.6,106
10.2,-0.45,106
10.2,-0.3,106
10.2,-0.15,106
10.2,0.0,106
10.2,0.15,106
10.2,0.3,106
10.2,0.45,96
10.2,0.6,96
10.2,0.75,95
10.2,0.9,94
10.2,1.05,93
10.2,1.2,81
10.2,1.35,80
10.2,1.5,80
10.35,-1.5,99
10.35,-1.35,99
10.35,-1.2,106
10.35,-1.05,106
10.35,-0.9,106
10.35,-0.75,106
10.35,-0.6,106
10.35,-0.45,106
10.35,-0.3,106
10.35,-0.15,106
10.35,0.0,106
10.35,0.15,106
10.35,0.3,106
10.35,0.45,106
10.35,0.6,95
10.35,0.75,95
10.35,0.9,94
10.35,1.05,93
10.35,1.2,93
10.35,1.35,81
10.35,1.5,76
10.5,-1.5,98
10.5,-1.35,98
10.5,-1.2,106
10.5,-1.05,106
10.5,-0.9,106
10.5,-0.75,106
10.5,-0.6,106
10.5,-0.45,106
10.5,-0.3,106
10.5,-0.15,106
10.5,0.0,106
10.5,0.15,106
10.5,0.3,106
10.5,0.45,106
10.5,0.6,95
10.5,0.75,95
10.5,0.9,94
10.5,1.05,78
10.5,1.2,77
10.5,1.35,76
10.5,1.5,75
10.65,-1.5,96
10.65,-1.35,96
10.65,-1.2,106
10.65,-1.05,106
10.65,-0.9,106
10.65,-0.75,106
10.65,-0.6,106
10.65,-0.45,103
10.65,-0.3,94
10.65,-0.15,106
10.65,0.0,106
10.65,0.15,106
10.65,0.3,93
10.65,0.45,92
10.65,0.6,91
10.65,0.75,90
10.65,0.9,89
10.65,1.05,77
10.65,1.2,75
10.65,1.35,74
10.65,1.5,73
10.8,-1.5,96
10.8,-1.35,103
10.8,-1.2,104
10.8,-1.05,105
10.8,-0.9,105
10.8,-0.75,106
10.8,-0.6,101
10.8,-0.45,92
10.8,-0.3,92
10.8,-0.15,92
10.8,0.0,92
10.8,0.15,92
10.8,0.3,91
10.8,0.45,90
10.8,0.6,89
10.8,0.75,88
10.8,0.9,87
10.8,1.05,75
10.8,1.2,74
10.8,1.35,73
10.8,1.5,72
10.95,-1.5,96
10.95,-1.35,101
10.95,-1.2,101
10.95,-1.05,102
10.95,-0.9,103
10.95,-0.75,98
10.95,-0.6,98
10.95,-0.45,89
10.95,-0.3,89
10.95,-0.15,89
10.95,0.0,89
10.95,0.15,86
10.95,0.3,85
10.95,0.45,84
10.95,0.6,87
10.95,0.75,86
10.95,0.9,85
10.95,1.05,73
10.95,1.2,71
10.95,1.35,70
10.95,1.5,69
11.1,-1.5,96
11.1,-1.35,97
11.1,-1.2,92
11.1,-1.05,92
11.1,-0.9,93
11.1,-0.75,94
11.1,-0.6,95
11.1,-0.45,86
11.1,-0.3,86
11.1,-0.15,86
11.1,0.0,86
11.1,0.15,82
11.1,0.3,82
11.1,0.45,81
11.1,0.6,80
11.1,0.75,79
11.1,0.9,78
11.1,1.05,81
11.1,1.2,69
11.1,1.35,67
11.1,1.5,66
11.25,-1.5,85
11.25,-1.35,86
11.25,-1.2,87
11.25,-1.05,88
11.25,-0.9,89
11.25,-0.75,90
11.25,-0.6,81
11.25,-0.45,82
11.25,-0.3,82
11.25,-0.15,82
11.25,0.0,82
11.25,0.15,79
11.25,0.3,78
11.25,0.45,77
11.25,0.6,76
11.25,0.75,75
11.25,0.9,74
11.25,1.05,63
11.25,1.2,61
11.25,1.35,60
11.25,1.5,63
11.4,-1.5,79
11.4,-1.35,80
11.4,-1.2,81
11.4,-1.05,82
11.4,-0.9,83
11.4,-0.75,85
11.4,-0.6,77
11.4,-0.45,78
11.4,-0.3,78
11.4,-0.15,78
11.4,0.0,78
11.4,0.15,75
11.4,0.3,74
11.4,0.45,73
11.4,0.6,72
11.4,0.75,71
11.4,0.9,69
11.4,1.05,58
11.4,1.2,57
11.4,1.35,56
11.4,1.5,55
11.55,-1.5,72
11.55,-1.35,73
11.55,-1.2,74
11.55,-1.05,76
11.55,-0.9,77
11.55,-0.75,79
11.55,-0.6,72
11.55,-0.45,73
11.55,-0.3,73
11.55,-0.15,74
11.55,0.0,74
11.55,0.15,70
11.55,0.3,70
11.55,0.45,69
11.55,0.6,67
11.55,0.75,66
11.55,0.9,64
11.55,1.05,62
11.55,1.2,52
11.55,1.35,51
11.55,1.5,50
11.7,-1.5,64
11.7,-1.35,65
11.7,-1.2,67
11.7,-1.05,69
11.7,-0.9,70
11.7,-0.75,72
11.7,-0.6,66
11.7,-0.45,68
11.7,-0.3,69
11.7,-0.15,69
11.7,0.0,66
11.7,0.15,66
11.7,0.3,65
11.7,0.45,64
11.7,0.6,62
11.7,0.75,60
11.7,0.9,58
11.7,1.05,56
11.7,1.2,46
11.7,1.35,45
11.7,1.5,44
11.85,-1.5,55
11.85,-1.35,56
11.85,-1.2,58
11.85,-1.05,60
11.85,-0.9,63
11.85,-0.75,58
11.85,-0.6,61
11.85,-0.45,62
11.85,-0.3,64
11.85,-0.15,64
11.85,0.0,62
11.85,0.15,61
11.85,0.3,60
11.85,0.45,59
11.85,0.6,57
11.85,0.75,54
11.85,0.9,52
11.85,1.05,49
11.85,1.2,40
11.85,1.35,39
11.85,1.5,38
12.0,-1.5,46
12.0,-1.35,47
12.0,-1.2,49
12.0,-1.05,52
12.0,-0.9,55
12.0,-0.75,52
12.0,-0.6,54
12.0,-0.45,57
12.0,-0.3,58
12.0,-0.15,59
12.0,0.0,57
12.0,0.15,56
12.0,0.3,55
12.0,0.45,53
12.0,0.6,51
12.0,0.75,48
12.0,0.9,45
12.0,1.05,42
12.0,1.2,39
12.0,1.35,32
12.0,1.5,31
12.15,-1.5,35
12.15,-1.35,36
12.15,-1.2,39
12.15,-1.05,42
12.15,-0.9,46
12.15,-0.75,45
12.15,-0.6,48
12.15,-0.45,51
12.15,-0.3,53
12.15,-0.15,55
12.15,0.0,52
12.15,0.15,52
12.15,0.3,50
12.15,0.45,48
12.15,0.6,45
12.15,0.75,42
12.15,0.9,38
12.15,1.05,34
12.15,1.2,31
12.15,1.35,24
12.15,1.5,23
12.3,-1.5,25
12.3,-1.35,26
12.3,-1.2,29
12.3,-1.05,33
12.3,-0.9,34
12.3,-0.75,38
12.3,-0.6,42
12.3,-0.45,46
12.3,-0.3,48
12.3,-0.15,50
12.3,0.0,48
12.3,0.15,48
12.3,0.3,46
12.3,0.45,43
12.3,0.6,40
12.3,0.75,35
12.3,0.9,31
12.3,1.05,27
12.3,1.2,23
12.3,1.35,17
12.3,1.5,16
12.45,-1.5,15
12.45,-1.35,16
12.45,-1.2,20
12.45,-1.05,25
12.45,-0.9,27
12.45,-0.75,32
12.45,-0.6,37
12.45,-0.45,41
12.45,-0.3,44
12.45,-0.15,46
12.45,0.0,44
12.45,0.15,44
12.45,0.3,42
12.45,0.45,39
12.45,0.6,34
12.45,0.75,30
12.45,0.9,25
12.45,1.05,20
12.45,1.2,15
12.45,1.35,13
12.45,1.5,9
12.6,-1.5,7
12.6,-1.35,8
12.6,-1.2,12
12.6,-1.05,17
12.6,-0.9,21
12.6,-0.75,27
12.6,-0.6,32
12.6,-0.45,37
12.6,-0.3,40
12.6,-0.15,42
12.6,0.0,41
12.6,0.15,40
12.6,0.3,38
12.6,0.45,35
12.6,0.6,30
12.6,0.75,25
12.6,0.9,19
12.6,1.05,14
12.6,1.2,9
12.6,1.35,6
12.6,1.5,4
12.75,-1.5,1
12.75,-1.35,2
12.75,-1.2,6
12.75,-1.05,12
12.75,-0.9,16
12.75,-0.75,23
12.75,-0.6,28
12.75,-0.45,33
12.75,-0.3,37
12.75,-0.15,39
12.75,0.0,38
12.75,0.15,37
12.75,0.3,35
12.75,0.45,31
12.75,0.6,27
12.75,0.75,21
12.75,0.9,15
12.75,1.05,9
12.75,1.2,4
12.75,1.35,1
12.75,1.5,0
12.9,-1.5,0
12.9,-1.35,0
12.9,-1.2,3
12.9,-1.05,7
12.9,-0.9,13
12.9,-0.75,20
12.9,-0.6,26
12.9,-0.45,31
12.9,-0.3,34
12.9,-0.15,37
12.9,0.0,36
12.9,0.15,35
12.9,0.3,33
12.9,0.45,29
12.9,0.6,24
12.9,0.75,18
12.9,0.9,12
12.9,1.05,6
12.9,1.2,2
12.9,1.35,0
12.9,1.5,0
13.05,-1.5,0
13.05,-1.35,0
13.05,-1.2,2
13.05,-1.05,6
13.05,-0.9,12
13.05,-0.75,18
13.05,-0.6,24
13.05,-0.45,29
13.05,-0.3,33
13.05,-0.15,35
13.05,0.0,34
13.05,0.15,33
13.05,0.3,31
13.05,0.45,27
13.05,0.6,23
13.05,0.75,17
13.05,0.9,11
13.05,1.05,6
13.05,1.2,1
13.05,1.35,0
13.05,1.5,0
