-3.0,-1.5,0
-3.0,-1.35,5
-3.0,-1.2,26
-3.0,-1.05,47
-3.0,-0.9,59
-3.0,-0.75,54
-3.0,-0.6,43
-3.0,-0.45,21
-3.0,-0.3,0
-3.0,-0.15,6
-3.0,0.0,34
-3.0,0.15,67
-3.0,0.3,84
-3.0,0.45,92
-3.0,0.6,104
-3.0,0.75,98
-3.0,0.9,86
-3.0,1.05,62
-3.0,1.2,34
-3.0,1.35,8
-3.0,1.5,0
-2.85,-1.5,4
-2.85,-1.35,13
-2.85,-1.2,35
-2.85,-1.05,55
-2.85,-0.9,66
-2.85,-0.75,67
-2.85,-0.6,51
-2.85,-0.45,29
-2.85,-0.3,7
-2.85,-0.15,14
-2.85,0.0,56
-2.85,0.15,79
-2.85,0.3,94
-2.85,0.45,111
-2.85,0.6,111
-2.85,0.75,105
-2.85,0.9,94
-2.85,1.05,71
-2.85,1.2,48
-2.85,1.35,20
-2.85,1.5,6
-2.7,-1.5,26
-2.7,-1.35,34
-2.7,-1.2,51
-2.7,-1.05,67
-2.7,-0.9,77
-2.7,-0.75,79
-2.7,-0.6,68
-2.7,-0.45,57
-2.7,-0.3,47
-2.7,-0.15,56
-2.7,0.0,89
-2.7,0.15,110
-2.7,0.3,108
-2.7,0.45,121
-2.7,0.6,118
-2.7,0.75,112
-2.7,0.9,103
-2.7,1.05,89
-2.7,1.2,69
-2.7,1.35,43
-2.7,1.5,33
-2.55,-1.5,49
-2.55,-1.35,56
-2.55,-1.2,67
-2.55,-1.05,80
-2.55,-0.9,88
-2.55,-0.75,93
-2.55,-0.6,94
-2.55,-0.45,87
-2.55,-0.3,90
-2.55,-0.15,97
-2.55,0.0,122
-2.55,0.15,132
-2.55,0.3,135
-2.55,0.45,130
-2.55,0.6,124
-2.55,0.75,117
-2.55,0.9,111
-2.55,1.05,102
-2.55,1.2,80
-2.55,1.35,79
-2.55,1.5,70
-2.4,-1.5,77
-2.4,-1.35,73
-2.4,-1.2,80
-2.4,-1.05,89
-2.4,-0.9,98
-2.4,-0.75,104
-2.4,-0.6,110
-2.4,-0.45,117
-2.4,-0.3,116
-2.4,-0.15,123
-2.4,0.0,145
-2.4,0.15,152
-2.4,0.3,150
-2.4,0.45,138
-2.4,0.6,124
-2.4,0.75,118
-2.4,0.9,119
-2.4,1.05,114
-2.4,1.2,108
-2.4,1.35,100
-2.4,1.5,94
-2.25,-1.5,87
-2.25,-1.35,92
-2.25,-1.2,102
-2.25,-1.05,96
-2.25,-0.9,117
-2.25,-0.75,111
-2.25,-0.6,131
-2.25,-0.45,140
-2.25,-0.3,134
-2.25,-0.15,140
-2.25,0.0,164
-2.25,0.15,180
-2.25,0.3,175
-2.25,0.45,137
-2.25,0.6,117
-2.25,0.75,117
-2.25,0.9,117
-2.25,1.05,119
-2.25,1.2,117
-2.25,1.35,114
-2.25,1.5,110
-2.1,-1.5,96
-2.1,-1.35,99
-2.1,-1.2,103
-2.1,-1.05,107
-2.1,-0.9,104
-2.1,-0.75,125
-2.1,-0.6,131
-2.1,-0.45,146
-2.1,-0.3,164
-2.1,-0.15,161
-2.1,0.0,170
-2.1,0.15,229
-2.1,0.3,240
-2.1,0.45,116
-2.1,0.6,75
-2.1,0.75,104
-2.1,0.9,117
-2.1,1.05,123
-2.1,1.2,124
-2.1,1.35,123
-2.1,1.5,110
-1.95,-1.5,112
-1.95,-1.35,104
-1.95,-1.2,115
-1.95,-1.05,117
-1.95,-0.9,119
-1.95,-0.75,122
-1.95,-0.6,125
-1.95,-0.45,141
-1.95,-0.3,194
-1.95,-0.15,180
-1.95,0.0,152
-1.95,0.15,125
-1.95,0.3,151
-1.95,0.45,103
-1.95,0.6,69
-1.95,0.75,109
-1.95,0.9,131
-1.95,1.05,130
-1.95,1.2,120
-1.95,1.35,118
-1.95,1.5,115
-1.8,-1.5,123
-1.8,-1.35,115
-1.8,-1.2,115
-1.8,-1.05,116
-1.8,-0.9,112
-1.8,-0.75,108
-1.8,-0.6,98
-1.8,-0.45,77
-1.8,-0.3,146
-1.8,-0.15,178
-1.8,0.0,154
-1.8,0.15,96
-1.8,0.3,92
-1.8,0.45,106
-1.8,0.6,119
-1.8,0.75,138
-1.8,0.9,138
-1.8,1.05,139
-1.8,1.2,140
-1.8,1.35,124
-1.8,1.5,121
-1.65,-1.5,124
-1.65,-1.35,123
-1.65,-1.2,128
-1.65,-1.05,111
-1.65,-0.9,106
-1.65,-0.75,98
-1.65,-0.6,87
-1.65,-0.45,72
-1.65,-0.3,123
-1.65,-0.15,206
-1.65,0.0,250
-1.65,0.15,107
-1.65,0.3,85
-1.65,0.45,60
-1.65,0.6,149
-1.65,0.75,175
-1.65,0.9,156
-1.65,1.05,149
-1.65,1.2,145
-1.65,1.35,142
-1.65,1.5,124
-1.5,-1.5,128
-1.5,-1.35,131
-1.5,-1.2,125
-1.5,-1.05,119
-1.5,-0.9,103
-1.5,-0.75,91
-1.5,-0.6,59
-1.5,-0.45,88
-1.5,-0.3,154
-1.5,-0.15,203
-1.5,0.0,205
-1.5,0.15,212
-1.5,0.3,221
-1.5,0.45,122
-1.5,0.6,160
-1.5,0.75,181
-1.5,0.9,165
-1.5,1.05,156
-1.5,1.2,149
-1.5,1.35,144
-1.5,1.5,141
-1.35,-1.5,124
-1.35,-1.35,119
-1.35,-1.2,113
-1.35,-1.05,107
-1.35,-0.9,102
-1.35,-0.75,105
-1.35,-0.6,124
-1.35,-0.45,150
-1.35,-0.3,187
-1.35,-0.15,255
-1.35,0.0,236
-1.35,0.15,230
-1.35,0.3,239
-1.35,0.45,158
-1.35,0.6,126
-1.35,0.75,164
-1.35,0.9,181
-1.35,1.05,158
-1.35,1.2,143
-1.35,1.35,144
-1.35,1.5,137
-1.2,-1.5,119
-1.2,-1.35,114
-1.2,-1.2,107
-1.2,-1.05,96
-1.2,-0.9,85
-1.2,-0.75,91
-1.2,-0.6,130
-1.2,-0.45,154
-1.2,-0.3,184
-1.2,-0.15,225
-1.2,0.0,211
-1.2,0.15,255
-1.2,0.3,214
-1.2,0.45,114
-1.2,0.6,56
-1.2,0.75,157
-1.2,0.9,186
-1.2,1.05,159
-1.2,1.2,145
-1.2,1.35,138
-1.2,1.5,137
-1.05,-1.5,124
-1.05,-1.35,119
-1.05,-1.2,111
-1.05,-1.05,93
-1.05,-0.9,54
-1.05,-0.75,12
-1.05,-0.6,91
-1.05,-0.45,151
-1.05,-0.3,192
-1.05,-0.15,150
-1.05,0.0,168
-1.05,0.15,224
-1.05,0.3,164
-1.05,0.45,78
-1.05,0.6,95
-1.05,0.75,128
-1.05,0.9,147
-1.05,1.05,146
-1.05,1.2,137
-1.05,1.35,137
-1.05,1.5,137
-0.9,-1.5,132
-0.9,-1.35,130
-0.9,-1.2,123
-0.9,-1.05,115
-0.9,-0.9,76
-0.9,-0.75,37
-0.9,-0.6,94
-0.9,-0.45,147
-0.9,-0.3,139
-0.9,-0.15,67
-0.9,0.0,45
-0.9,0.15,149
-0.9,0.3,124
-0.9,0.45,78
-0.9,0.6,103
-0.9,0.75,118
-0.9,0.9,118
-0.9,1.05,125
-0.9,1.2,142
-0.9,1.35,142
-0.9,1.5,142
-0.75,-1.5,142
-0.75,-1.35,146
-0.75,-1.2,146
-0.75,-1.05,140
-0.75,-0.9,128
-0.75,-0.75,124
-0.75,-0.6,138
-0.75,-0.45,142
-0.75,-0.3,132
-0.75,-0.15,94
-0.75,0.0,224
-0.75,0.15,201
-0.75,0.3,141
-0.75,0.45,107
-0.75,0.6,103
-0.75,0.75,84
-0.75,0.9,80
-0.75,1.05,109
-0.75,1.2,122
-0.75,1.35,133
-0.75,1.5,139
-0.6,-1.5,158
-0.6,-1.35,166
-0.6,-1.2,178
-0.6,-1.05,181
-0.6,-0.9,172
-0.6,-0.75,190
-0.6,-0.6,173
-0.6,-0.45,163
-0.6,-0.3,173
-0.6,-0.15,255
-0.6,0.0,198
-0.6,0.15,175
-0.6,0.3,134
-0.6,0.45,122
-0.6,0.6,115
-0.6,0.75,70
-0.6,0.9,52
-0.6,1.05,93
-0.6,1.2,119
-0.6,1.35,132
-0.6,1.5,150
-0.45,-1.5,170
-0.45,-1.35,179
-0.45,-1.2,196
-0.45,-1.05,203
-0.45,-0.9,191
-0.45,-0.75,191
-0.45,-0.6,186
-0.45,-0.45,169
-0.45,-0.3,182
-0.45,-0.15,216
-0.45,0.0,97
-0.45,0.15,98
-0.45,0.3,114
-0.45,0.45,124
-0.45,0.6,116
-0.45,0.75,100
-0.45,0.9,96
-0.45,1.05,117
-0.45,1.2,129
-0.45,1.35,138
-0.45,1.5,132
-0.3,-1.5,185
-0.3,-1.35,188
-0.3,-1.2,193
-0.3,-1.05,189
-0.3,-0.9,181
-0.3,-0.75,174
-0.3,-0.6,166
-0.3,-0.45,160
-0.3,-0.3,165
-0.3,-0.15,154
-0.3,0.0,95
-0.3,0.15,76
-0.3,0.3,86
-0.3,0.45,131
-0.3,0.6,153
-0.3,0.75,159
-0.3,0.9,146
-0.3,1.05,141
-0.3,1.2,131
-0.3,1.35,130
-0.3,1.5,131
-0.15,-1.5,171
-0.15,-1.35,174
-0.15,-1.2,177
-0.15,-1.05,182
-0.15,-0.9,166
-0.15,-0.75,164
-0.15,-0.6,150
-0.15,-0.45,140
-0.15,-0.3,149
-0.15,-0.15,205
-0.15,0.0,142
-0.15,0.15,76
-0.15,0.3,90
-0.15,0.45,125
-0.15,0.6,172
-0.15,0.75,201
-0.15,0.9,172
-0.15,1.05,143
-0.15,1.2,141
-0.15,1.35,138
-0.15,1.5,136
0.0,-1.5,167
0.0,-1.35,168
0.0,-1.2,167
0.0,-1.05,162
0.0,-0.9,157
0.0,-0.75,148
0.0,-0.6,144
0.0,-0.45,133
0.0,-0.3,129
0.0,-0.15,153
0.0,0.0,0
0.0,0.15,72
0.0,0.3,94
0.0,0.45,150
0.0,0.6,231
0.0,0.75,207
0.0,0.9,128
0.0,1.05,129
0.0,1.2,136
0.0,1.35,135
0.0,1.5,134
0.15,-1.5,163
0.15,-1.35,163
0.15,-1.2,168
0.15,-1.05,162
0.15,-0.9,152
0.15,-0.75,140
0.15,-0.6,116
0.15,-0.45,139
0.15,-0.3,140
0.15,-0.15,56
0.15,0.0,61
0.15,0.15,63
0.15,0.3,78
0.15,0.45,133
0.15,0.6,255
0.15,0.75,229
0.15,0.9,122
0.15,1.05,127
0.15,1.2,137
0.15,1.35,137
0.15,1.5,134
0.3,-1.5,163
0.3,-1.35,163
0.3,-1.2,163
0.3,-1.05,159
0.3,-0.9,146
0.3,-0.75,121
0.3,-0.6,93
0.3,-0.45,109
0.3,-0.3,140
0.3,-0.15,119
0.3,0.0,119
0.3,0.15,44
0.3,0.3,34
0.3,0.45,92
0.3,0.6,162
0.3,0.75,173
0.3,0.9,155
0.3,1.05,147
0.3,1.2,143
0.3,1.35,139
0.3,1.5,131
0.45,-1.5,164
0.45,-1.35,170
0.45,-1.2,176
0.45,-1.05,179
0.45,-0.9,167
0.45,-0.75,125
0.45,-0.6,70
0.45,-0.45,0
0.45,-0.3,57
0.45,-0.15,62
0.45,0.0,64
0.45,0.15,53
0.45,0.3,41
0.45,0.45,83
0.45,0.6,122
0.45,0.75,165
0.45,0.9,187
0.45,1.05,173
0.45,1.2,147
0.45,1.35,134
0.45,1.5,126
0.6,-1.5,169
0.6,-1.35,175
0.6,-1.2,190
0.6,-1.05,198
0.6,-0.9,201
0.6,-0.75,152
0.6,-0.6,87
0.6,-0.45,49
0.6,-0.3,50
0.6,-0.15,50
0.6,0.0,70
0.6,0.15,54
0.6,0.3,52
0.6,0.45,77
0.6,0.6,121
0.6,0.75,194
0.6,0.9,255
0.6,1.05,190
0.6,1.2,138
0.6,1.35,122
0.6,1.5,123
0.75,-1.5,161
0.75,-1.35,175
0.75,-1.2,208
0.75,-1.05,247
0.75,-0.9,224
0.75,-0.75,157
0.75,-0.6,93
0.75,-0.45,51
0.75,-0.3,51
0.75,-0.15,65
0.75,0.0,97
0.75,0.15,139
0.75,0.3,78
0.75,0.45,79
0.75,0.6,109
0.75,0.75,153
0.75,0.9,237
0.75,1.05,134
0.75,1.2,102
0.75,1.35,107
0.75,1.5,111
0.9,-1.5,147
0.9,-1.35,166
0.9,-1.2,207
0.9,-1.05,255
0.9,-0.9,247
0.9,-0.75,136
0.9,-0.6,82
0.9,-0.45,43
0.9,-0.3,61
0.9,-0.15,76
0.9,0.0,82
0.9,0.15,89
0.9,0.3,157
0.9,0.45,90
0.9,0.6,95
0.9,0.75,98
0.9,0.9,104
0.9,1.05,55
0.9,1.2,62
0.9,1.35,79
0.9,1.5,94
1.05,-1.5,140
1.05,-1.35,144
1.05,-1.2,166
1.05,-1.05,182
1.05,-0.9,148
1.05,-0.75,85
1.05,-0.6,53
1.05,-0.45,41
1.05,-0.3,47
1.05,-0.15,47
1.05,0.0,62
1.05,0.15,67
1.05,0.3,68
1.05,0.45,54
1.05,0.6,52
1.05,0.75,57
1.05,0.9,65
1.05,1.05,64
1.05,1.2,65
1.05,1.35,72
1.05,1.5,80
1.2,-1.5,128
1.2,-1.35,135
1.2,-1.2,135
1.2,-1.05,115
1.2,-0.9,89
1.2,-0.75,56
1.2,-0.6,45
1.2,-0.45,33
1.2,-0.3,33
1.2,-0.15,59
1.2,0.0,50
1.2,0.15,48
1.2,0.3,27
1.2,0.45,14
1.2,0.6,39
1.2,0.75,24
1.2,0.9,43
1.2,1.05,56
1.2,1.2,65
1.2,1.35,70
1.2,1.5,74
1.35,-1.5,113
1.35,-1.35,112
1.35,-1.2,111
1.35,-1.05,99
1.35,-0.9,69
1.35,-0.75,45
1.35,-0.6,28
1.35,-0.45,29
1.35,-0.3,25
1.35,-0.15,0
1.35,0.0,64
1.35,0.15,59
1.35,0.3,35
1.35,0.45,29
1.35,0.6,26
1.35,0.75,11
1.35,0.9,30
1.35,1.05,50
1.35,1.2,66
1.35,1.35,74
1.35,1.5,75
1.5,-1.5,105
1.5,-1.35,102
1.5,-1.2,88
1.5,-1.05,78
1.5,-0.9,55
1.5,-0.75,43
1.5,-0.6,28
1.5,-0.45,9
1.5,-0.3,9
1.5,-0.15,31
1.5,0.0,50
1.5,0.15,64
1.5,0.3,75
1.5,0.45,62
1.5,0.6,47
1.5,0.75,39
1.5,0.9,65
1.5,1.05,82
1.5,1.2,80
1.5,1.35,71
1.5,1.5,75
1.65,-1.5,87
1.65,-1.35,86
1.65,-1.2,80
1.65,-1.05,61
1.65,-0.9,61
1.65,-0.75,56
1.65,-0.6,47
1.65,-0.45,40
1.65,-0.3,19
1.65,-0.15,36
1.65,0.0,51
1.65,0.15,59
1.65,0.3,62
1.65,0.45,99
1.65,0.6,57
1.65,0.75,73
1.65,0.9,140
1.65,1.05,177
1.65,1.2,102
1.65,1.35,77
1.65,1.5,70
1.8,-1.5,85
1.8,-1.35,70
1.8,-1.2,69
1.8,-1.05,70
1.8,-0.9,75
1.8,-0.75,77
1.8,-0.6,62
1.8,-0.45,41
1.8,-0.3,28
1.8,-0.15,22
1.8,0.0,34
1.8,0.15,45
1.8,0.3,64
1.8,0.45,20
1.8,0.6,60
1.8,0.75,69
1.8,0.9,92
1.8,1.05,107
1.8,1.2,85
1.8,1.35,72
1.8,1.5,66
1.95,-1.5,68
1.95,-1.35,66
1.95,-1.2,69
1.95,-1.05,73
1.95,-0.9,83
1.95,-0.75,123
1.95,-0.6,99
1.95,-0.45,51
1.95,-0.3,28
1.95,-0.15,16
1.95,0.0,7
1.95,0.15,44
1.95,0.3,46
1.95,0.45,58
1.95,0.6,62
1.95,0.75,60
1.95,0.9,38
1.95,1.05,45
1.95,1.2,64
1.95,1.35,69
1.95,1.5,61
2.1,-1.5,66
2.1,-1.35,66
2.1,-1.2,67
2.1,-1.05,64
2.1,-0.9,62
2.1,-0.75,43
2.1,-0.6,81
2.1,-0.45,49
2.1,-0.3,39
2.1,-0.15,51
2.1,0.0,44
2.1,0.15,71
2.1,0.3,141
2.1,0.45,101
2.1,0.6,69
2.1,0.75,49
2.1,0.9,4
2.1,1.05,40
2.1,1.2,47
2.1,1.35,53
2.1,1.5,55
2.25,-1.5,60
2.25,-1.35,60
2.25,-1.2,62
2.25,-1.05,58
2.25,-0.9,52
2.25,-0.75,43
2.25,-0.6,48
2.25,-0.45,20
2.25,-0.3,38
2.25,-0.15,85
2.25,0.0,43
2.25,0.15,234
2.25,0.3,113
2.25,0.45,85
2.25,0.6,76
2.25,0.75,60
2.25,0.9,52
2.25,1.05,50
2.25,1.2,59
2.25,1.35,69
2.25,1.5,72
2.4,-1.5,52
2.4,-1.35,56
2.4,-1.2,55
2.4,-1.05,51
2.4,-0.9,46
2.4,-0.75,41
2.4,-0.6,35
2.4,-0.45,18
2.4,-0.3,28
2.4,-0.15,39
2.4,0.0,67
2.4,0.15,63
2.4,0.3,178
2.4,0.45,117
2.4,0.6,61
2.4,0.75,67
2.4,0.9,83
2.4,1.05,81
2.4,1.2,79
2.4,1.35,80
2.4,1.5,83
2.55,-1.5,51
2.55,-1.35,50
2.55,-1.2,47
2.55,-1.05,47
2.55,-0.9,47
2.55,-0.75,26
2.55,-0.6,23
2.55,-0.45,0
2.55,-0.3,29
2.55,-0.15,57
2.55,0.0,85
2.55,0.15,118
2.55,0.3,99
2.55,0.45,137
2.55,0.6,95
2.55,0.75,87
2.55,0.9,99
2.55,1.05,91
2.55,1.2,79
2.55,1.35,83
2.55,1.5,83
2.7,-1.5,55
2.7,-1.35,54
2.7,-1.2,53
2.7,-1.05,49
2.7,-0.9,69
2.7,-0.75,44
2.7,-0.6,3
2.7,-0.45,31
2.7,-0.3,62
2.7,-0.15,150
2.7,0.0,85
2.7,0.15,72
2.7,0.3,74
2.7,0.45,94
2.7,0.6,93
2.7,0.75,100
2.7,0.9,93
2.7,1.05,90
2.7,1.2,85
2.7,1.35,81
2.7,1.5,81
2.85,-1.5,57
2.85,-1.35,69
2.85,-1.2,57
2.85,-1.05,67
2.85,-0.9,69
2.85,-0.75,53
2.85,-0.6,49
2.85,-0.45,187
2.85,-0.3,63
2.85,-0.15,89
2.85,0.0,83
2.85,0.15,78
2.85,0.3,58
2.85,0.45,66
2.85,0.6,111
2.85,0.75,120
2.85,0.9,104
2.85,1.05,94
2.85,1.2,89
2.85,1.35,85
2.85,1.5,82
3.0,-1.5,61
3.0,-1.35,74
3.0,-1.2,75
3.0,-1.05,77
3.0,-0.9,68
3.0,-0.75,67
3.0,-0.6,57
3.0,-0.45,61
3.0,-0.3,44
3.0,-0.15,51
3.0,0.0,51
3.0,0.15,166
3.0,0.3,69
3.0,0.45,75
3.0,0.6,179
3.0,0.75,151
3.0,0.9,114
3.0,1.05,105
3.0,1.2,93
3.0,1.35,93
3.0,1.5,85
3.15,-1.5,66
3.15,-1.35,74
3.15,-1.2,69
3.15,-1.05,75
3.15,-0.9,85
3.15,-0.75,57
3.15,-0.6,174
3.15,-0.45,27
3.15,-0.3,27
3.15,-0.15,27
3.15,0.0,78
3.15,0.15,103
3.15,0.3,65
3.15,0.45,77
3.15,0.6,75
3.15,0.75,101
3.15,0.9,104
3.15,1.05,101
3.15,1.2,93
3.15,1.35,91
3.15,1.5,89
3.3,-1.5,65
3.3,-1.35,67
3.3,-1.2,61
3.3,-1.05,58
3.3,-0.9,139
3.3,-0.75,131
3.3,-0.6,139
3.3,-0.45,35
3.3,-0.3,27
3.3,-0.15,49
3.3,0.0,61
3.3,0.15,65
3.3,0.3,71
3.3,0.45,122
3.3,0.6,89
3.3,0.75,97
3.3,0.9,99
3.3,1.05,98
3.3,1.2,96
3.3,1.35,98
3.3,1.5,97
3.45,-1.5,67
3.45,-1.35,65
3.45,-1.2,54
3.45,-1.05,63
3.45,-0.9,82
3.45,-0.75,53
3.45,-0.6,44
3.45,-0.45,44
3.45,-0.3,33
3.45,-0.15,13
3.45,0.0,59
3.45,0.15,48
3.45,0.3,81
3.45,0.45,171
3.45,0.6,119
3.45,0.75,90
3.45,0.9,95
3.45,1.05,97
3.45,1.2,98
3.45,1.35,98
3.45,1.5,98
3.6,-1.5,67
3.6,-1.35,67
3.6,-1.2,61
3.6,-1.05,51
3.6,-0.9,59
3.6,-0.75,73
3.6,-0.6,59
3.6,-0.45,40
3.6,-0.3,43
3.6,-0.15,40
3.6,0.0,38
3.6,0.15,102
3.6,0.3,132
3.6,0.45,134
3.6,0.6,103
3.6,0.75,51
3.6,0.9,73
3.6,1.05,90
3.6,1.2,93
3.6,1.35,94
3.6,1.5,98
3.75,-1.5,67
3.75,-1.35,67
3.75,-1.2,59
3.75,-1.05,50
3.75,-0.9,81
3.75,-0.75,56
3.75,-0.6,48
3.75,-0.45,48
3.75,-0.3,63
3.75,-0.15,47
3.75,0.0,47
3.75,0.15,59
3.75,0.3,85
3.75,0.45,177
3.75,0.6,114
3.75,0.75,80
3.75,0.9,81
3.75,1.05,90
3.75,1.2,92
3.75,1.35,93
3.75,1.5,86
3.9,-1.5,64
3.9,-1.35,64
3.9,-1.2,63
3.9,-1.05,66
3.9,-0.9,202
3.9,-0.75,37
3.9,-0.6,40
3.9,-0.45,61
3.9,-0.3,116
3.9,-0.15,93
3.9,0.0,62
3.9,0.15,50
3.9,0.3,96
3.9,0.45,117
3.9,0.6,111
3.9,0.75,93
3.9,0.9,87
3.9,1.05,80
3.9,1.2,81
3.9,1.35,81
3.9,1.5,91
4.05,-1.5,64
4.05,-1.35,64
4.05,-1.2,63
4.05,-1.05,62
4.05,-0.9,98
4.05,-0.75,27
4.05,-0.6,36
4.05,-0.45,41
4.05,-0.3,67
4.05,-0.15,255
4.05,0.0,164
4.05,0.15,190
4.05,0.3,160
4.05,0.45,111
4.05,0.6,87
4.05,0.75,71
4.05,0.9,66
4.05,1.05,74
4.05,1.2,76
4.05,1.35,77
4.05,1.5,79
4.2,-1.5,63
4.2,-1.35,62
4.2,-1.2,59
4.2,-1.05,53
4.2,-0.9,28
4.2,-0.75,23
4.2,-0.6,44
4.2,-0.45,68
4.2,-0.3,56
4.2,-0.15,87
4.2,0.0,89
4.2,0.15,152
4.2,0.3,124
4.2,0.45,67
4.2,0.6,60
4.2,0.75,54
4.2,0.9,58
4.2,1.05,64
4.2,1.2,68
4.2,1.35,61
4.2,1.5,76
4.35,-1.5,74
4.35,-1.35,71
4.35,-1.2,64
4.35,-1.05,57
4.35,-0.9,52
4.35,-0.75,58
4.35,-0.6,70
4.35,-0.45,152
4.35,-0.3,151
4.35,-0.15,88
4.35,0.0,60
4.35,0.15,45
4.35,0.3,64
4.35,0.45,61
4.35,0.6,13
4.35,0.75,28
4.35,0.9,42
4.35,1.05,48
4.35,1.2,52
4.35,1.35,53
4.35,1.5,66
4.5,-1.5,78
4.5,-1.35,72
4.5,-1.2,68
4.5,-1.05,63
4.5,-0.9,81
4.5,-0.75,76
4.5,-0.6,60
4.5,-0.45,63
4.5,-0.3,0
4.5,-0.15,62
4.5,0.0,48
4.5,0.15,32
4.5,0.3,43
4.5,0.45,36
4.5,0.6,5
4.5,0.75,26
4.5,0.9,41
4.5,1.05,50
4.5,1.2,56
4.5,1.35,63
4.5,1.5,66
4.65,-1.5,78
4.65,-1.35,74
4.65,-1.2,70
4.65,-1.05,55
4.65,-0.9,66
4.65,-0.75,103
4.65,-0.6,81
4.65,-0.45,67
4.65,-0.3,106
4.65,-0.15,105
4.65,0.0,77
4.65,0.15,38
4.65,0.3,46
4.65,0.45,47
4.65,0.6,34
4.65,0.75,37
4.65,0.9,53
4.65,1.05,60
4.65,1.2,64
4.65,1.35,67
4.65,1.5,71
4.8,-1.5,81
4.8,-1.35,80
4.8,-1.2,80
4.8,-1.05,88
4.8,-0.9,116
4.8,-0.75,142
4.8,-0.6,100
4.8,-0.45,106
4.8,-0.3,90
4.8,-0.15,88
4.8,0.0,175
4.8,0.15,50
4.8,0.3,74
4.8,0.45,65
4.8,0.6,70
4.8,0.75,74
4.8,0.9,71
4.8,1.05,79
4.8,1.2,75
4.8,1.35,87
4.8,1.5,80
4.95,-1.5,95
4.95,-1.35,97
4.95,-1.2,97
4.95,-1.05,107
4.95,-0.9,140
4.95,-0.75,213
4.95,-0.6,44
4.95,-0.45,112
4.95,-0.3,182
4.95,-0.15,99
4.95,0.0,147
4.95,0.15,127
4.95,0.3,105
4.95,0.45,173
4.95,0.6,123
4.95,0.75,99
4.95,0.9,109
4.95,1.05,110
4.95,1.2,120
4.95,1.35,118
4.95,1.5,117
5.1,-1.5,97
5.1,-1.35,96
5.1,-1.2,95
5.1,-1.05,93
5.1,-0.9,112
5.1,-0.75,118
5.1,-0.6,135
5.1,-0.45,145
5.1,-0.3,166
5.1,-0.15,81
5.1,0.0,139
5.1,0.15,55
5.1,0.3,72
5.1,0.45,132
5.1,0.6,113
5.1,0.75,102
5.1,0.9,145
5.1,1.05,146
5.1,1.2,137
5.1,1.35,135
5.1,1.5,122
5.25,-1.5,107
5.25,-1.35,96
5.25,-1.2,89
5.25,-1.05,66
5.25,-0.9,68
5.25,-0.75,104
5.25,-0.6,93
5.25,-0.45,44
5.25,-0.3,198
5.25,-0.15,70
5.25,0.0,52
5.25,0.15,46
5.25,0.3,44
5.25,0.45,109
5.25,0.6,109
5.25,0.75,120
5.25,0.9,192
5.25,1.05,157
5.25,1.2,146
5.25,1.35,141
5.25,1.5,138
5.4,-1.5,100
5.4,-1.35,103
5.4,-1.2,96
5.4,-1.05,77
5.4,-0.9,79
5.4,-0.75,110
5.4,-0.6,100
5.4,-0.45,88
5.4,-0.3,58
5.4,-0.15,69
5.4,0.0,65
5.4,0.15,78
5.4,0.3,110
5.4,0.45,25
5.4,0.6,144
5.4,0.75,145
5.4,0.9,161
5.4,1.05,150
5.4,1.2,142
5.4,1.35,125
5.4,1.5,122
5.55,-1.5,103
5.55,-1.35,94
5.55,-1.2,87
5.55,-1.05,81
5.55,-0.9,104
5.55,-0.75,187
5.55,-0.6,133
5.55,-0.45,71
5.55,-0.3,42
5.55,-0.15,23
5.55,0.0,19
5.55,0.15,38
5.55,0.3,8
5.55,0.45,166
5.55,0.6,152
5.55,0.75,138
5.55,0.9,130
5.55,1.05,124
5.55,1.2,121
5.55,1.35,119
5.55,1.5,118
5.7,-1.5,94
5.7,-1.35,88
5.7,-1.2,78
5.7,-1.05,61
5.7,-0.9,81
5.7,-0.75,143
5.7,-0.6,201
5.7,-0.45,120
5.7,-0.3,60
5.7,-0.15,5
5.7,0.0,28
5.7,0.15,117
5.7,0.3,255
5.7,0.45,128
5.7,0.6,91
5.7,0.75,102
5.7,0.9,97
5.7,1.05,104
5.7,1.2,107
5.7,1.35,109
5.7,1.5,110
5.85,-1.5,89
5.85,-1.35,83
5.85,-1.2,74
5.85,-1.05,54
5.85,-0.9,86
5.85,-0.75,135
5.85,-0.6,116
5.85,-0.45,71
5.85,-0.3,86
5.85,-0.15,40
5.85,0.0,32
5.85,0.15,22
5.85,0.3,75
5.85,0.45,91
5.85,0.6,52
5.85,0.75,56
5.85,0.9,85
5.85,1.05,90
5.85,1.2,98
5.85,1.35,102
5.85,1.5,110
6.0,-1.5,89
6.0,-1.35,88
6.0,-1.2,83
6.0,-1.05,82
6.0,-0.9,89
6.0,-0.75,101
6.0,-0.6,118
6.0,-0.45,48
6.0,-0.3,24
6.0,-0.15,0
6.0,0.0,0
6.0,0.15,2
6.0,0.3,15
6.0,0.45,87
6.0,0.6,0
6.0,0.75,55
6.0,0.9,71
6.0,1.05,93
6.0,1.2,103
6.0,1.35,109
6.0,1.5,110
6.15,-1.5,89
6.15,-1.35,82
6.15,-1.2,88
6.15,-1.05,81
6.15,-0.9,81
6.15,-0.75,75
6.15,-0.6,36
6.15,-0.45,24
6.15,-0.3,128
6.15,-0.15,0
6.15,0.0,51
6.15,0.15,113
6.15,0.3,197
6.15,0.45,162
6.15,0.6,88
6.15,0.75,77
6.15,0.9,83
6.15,1.05,81
6.15,1.2,84
6.15,1.35,87
6.15,1.5,98
6.3,-1.5,82
6.3,-1.35,83
6.3,-1.2,88
6.3,-1.05,88
6.3,-0.9,77
6.3,-0.75,55
6.3,-0.6,49
6.3,-0.45,47
6.3,-0.3,62
6.3,-0.15,51
6.3,0.0,50
6.3,0.15,65
6.3,0.3,131
6.3,0.45,105
6.3,0.6,115
6.3,0.75,101
6.3,0.9,85
6.3,1.05,85
6.3,1.2,83
6.3,1.35,83
6.3,1.5,96
6.45,-1.5,61
6.45,-1.35,72
6.45,-1.2,73
6.45,-1.05,72
6.45,-0.9,78
6.45,-0.75,78
6.45,-0.6,71
6.45,-0.45,32
6.45,-0.3,6
6.45,-0.15,79
6.45,0.0,81
6.45,0.15,45
6.45,0.3,58
6.45,0.45,66
6.45,0.6,158
6.45,0.75,104
6.45,0.9,89
6.45,1.05,84
6.45,1.2,82
6.45,1.35,84
6.45,1.5,84
6.6,-1.5,61
6.6,-1.35,59
6.6,-1.2,59
6.6,-1.05,59
6.6,-0.9,69
6.6,-0.75,82
6.6,-0.6,32
6.6,-0.45,101
6.6,-0.3,11
6.6,-0.15,108
6.6,0.0,34
6.6,0.15,199
6.6,0.3,64
6.6,0.45,85
6.6,0.6,102
6.6,0.75,76
6.6,0.9,69
6.6,1.05,58
6.6,1.2,56
6.6,1.35,55
6.6,1.5,54
6.75,-1.5,66
6.75,-1.35,66
6.75,-1.2,65
6.75,-1.05,62
6.75,-0.9,59
6.75,-0.75,57
6.75,-0.6,82
6.75,-0.45,139
6.75,-0.3,34
6.75,-0.15,85
6.75,0.0,184
6.75,0.15,75
6.75,0.3,32
6.75,0.45,30
6.75,0.6,29
6.75,0.75,37
6.75,0.9,35
6.75,1.05,32
6.75,1.2,33
6.75,1.35,31
6.75,1.5,33
6.9,-1.5,66
6.9,-1.35,64
6.9,-1.2,71
6.9,-1.05,70
6.9,-0.9,57
6.9,-0.75,74
6.9,-0.6,65
6.9,-0.45,48
6.9,-0.3,11
6.9,-0.15,39
6.9,0.0,171
6.9,0.15,236
6.9,0.3,22
6.9,0.45,22
6.9,0.6,36
6.9,0.75,41
6.9,0.9,31
6.9,1.05,28
6.9,1.2,30
6.9,1.35,32
6.9,1.5,35
7.05,-1.5,65
7.05,-1.35,64
7.05,-1.2,63
7.05,-1.05,62
7.05,-0.9,62
7.05,-0.75,65
7.05,-0.6,8
7.05,-0.45,23
7.05,-0.3,32
7.05,-0.15,59
7.05,0.0,75
7.05,0.15,9
7.05,0.3,24
7.05,0.45,27
7.05,0.6,32
7.05,0.75,36
7.05,0.9,48
7.05,1.05,51
7.05,1.2,53
7.05,1.35,53
7.05,1.5,54
7.2,-1.5,38
7.2,-1.35,39
7.2,-1.2,51
7.2,-1.05,52
7.2,-0.9,50
7.2,-0.75,55
7.2,-0.6,13
7.2,-0.45,0
7.2,-0.3,1
7.2,-0.15,13
7.2,0.0,46
7.2,0.15,46
7.2,0.3,68
7.2,0.45,33
7.2,0.6,38
7.2,0.75,38
7.2,0.9,41
7.2,1.05,41
7.2,1.2,41
7.2,1.35,26
7.2,1.5,34
7.35,-1.5,48
7.35,-1.35,49
7.35,-1.2,47
7.35,-1.05,50
7.35,-0.9,62
7.35,-0.75,65
7.35,-0.6,39
7.35,-0.45,42
7.35,-0.3,2
7.35,-0.15,18
7.35,0.0,27
7.35,0.15,46
7.35,0.3,23
7.35,0.45,36
7.35,0.6,40
7.35,0.75,41
7.35,0.9,41
7.35,1.05,26
7.35,1.2,26
7.35,1.35,26
7.35,1.5,26
7.5,-1.5,62
7.5,-1.35,75
7.5,-1.2,57
7.5,-1.05,48
7.5,-0.9,49
7.5,-0.75,51
7.5,-0.6,82
7.5,-0.45,60
7.5,-0.3,34
7.5,-0.15,39
7.5,0.0,44
7.5,0.15,42
7.5,0.3,15
7.5,0.45,31
7.5,0.6,35
7.5,0.75,33
7.5,0.9,27
7.5,1.05,28
7.5,1.2,27
7.5,1.35,26
7.5,1.5,26
7.65,-1.5,76
7.65,-1.35,74
7.65,-1.2,71
7.65,-1.05,54
7.65,-0.9,47
7.65,-0.75,32
7.65,-0.6,35
7.65,-0.45,47
7.65,-0.3,46
7.65,-0.15,27
7.65,0.0,18
7.65,0.15,43
7.65,0.3,35
7.65,0.45,40
7.65,0.6,41
7.65,0.75,34
7.65,0.9,27
7.65,1.05,23
7.65,1.2,25
7.65,1.35,25
7.65,1.5,25
7.8,-1.5,67
7.8,-1.35,65
7.8,-1.2,61
7.8,-1.05,41
7.8,-0.9,7
7.8,-0.75,53
7.8,-0.6,47
7.8,-0.45,50
7.8,-0.3,77
7.8,-0.15,101
7.8,0.0,35
7.8,0.15,48
7.8,0.3,31
7.8,0.45,38
7.8,0.6,41
7.8,0.75,31
7.8,0.9,22
7.8,1.05,21
7.8,1.2,22
7.8,1.35,23
7.8,1.5,24
7.95,-1.5,70
7.95,-1.35,70
7.95,-1.2,70
7.95,-1.05,66
7.95,-0.9,72
7.95,-0.75,138
7.95,-0.6,57
7.95,-0.45,14
7.95,-0.3,77
7.95,-0.15,14
7.95,0.0,14
7.95,0.15,54
7.95,0.3,31
7.95,0.45,35
7.95,0.6,44
7.95,0.75,19
7.95,0.9,3
7.95,1.05,15
7.95,1.2,19
7.95,1.35,21
7.95,1.5,23
8.1,-1.5,63
8.1,-1.35,70
8.1,-1.2,70
8.1,-1.05,69
8.1,-0.9,54
8.1,-0.75,68
8.1,-0.6,20
8.1,-0.45,20
8.1,-0.3,14
8.1,-0.15,32
8.1,0.0,150
8.1,0.15,14
8.1,0.3,13
8.1,0.45,23
8.1,0.6,19
8.1,0.75,12
8.1,0.9,4
8.1,1.05,11
8.1,1.2,22
8.1,1.35,29
8.1,1.5,30
8.25,-1.5,63
8.25,-1.35,65
8.25,-1.2,67
8.25,-1.05,70
8.25,-0.9,77
8.25,-0.75,64
8.25,-0.6,45
8.25,-0.45,19
8.25,-0.3,34
8.25,-0.15,31
8.25,0.0,45
8.25,0.15,9
8.25,0.3,4
8.25,0.45,15
8.25,0.6,12
8.25,0.75,20
8.25,0.9,17
8.25,1.05,21
8.25,1.2,26
8.25,1.35,28
8.25,1.5,30
8.4,-1.5,62
8.4,-1.35,63
8.4,-1.2,65
8.4,-1.05,63
8.4,-0.9,91
8.4,-0.75,62
8.4,-0.6,44
8.4,-0.45,62
8.4,-0.3,25
8.4,-0.15,31
8.4,0.0,61
8.4,0.15,43
8.4,0.3,37
8.4,0.45,46
8.4,0.6,31
8.4,0.75,28
8.4,0.9,29
8.4,1.05,28
8.4,1.2,28
8.4,1.35,28
8.4,1.5,31
8.55,-1.5,59
8.55,-1.35,47
8.55,-1.2,48
8.55,-1.05,48
8.55,-0.9,41
8.55,-0.75,13
8.55,-0.6,67
8.55,-0.45,144
8.55,-0.3,31
8.55,-0.15,93
8.55,0.0,9
8.55,0.15,56
8.55,0.3,59
8.55,0.45,46
8.55,0.6,31
8.55,0.75,35
8.55,0.9,36
8.55,1.05,37
8.55,1.2,36
8.55,1.35,36
8.55,1.5,36
8.7,-1.5,47
8.7,-1.35,47
8.7,-1.2,45
8.7,-1.05,49
8.7,-0.9,49
8.7,-0.75,52
8.7,-0.6,109
8.7,-0.45,47
8.7,-0.3,20
8.7,-0.15,50
8.7,0.0,24
8.7,0.15,77
8.7,0.3,39
8.7,0.45,118
8.7,0.6,60
8.7,0.75,39
8.7,0.9,39
8.7,1.05,37
8.7,1.2,39
8.7,1.35,38
8.7,1.5,47
8.85,-1.5,44
8.85,-1.35,40
8.85,-1.2,37
8.85,-1.05,33
8.85,-0.9,21
8.85,-0.75,5
8.85,-0.6,95
8.85,-0.45,90
8.85,-0.3,55
8.85,-0.15,57
8.85,0.0,77
8.85,0.15,32
8.85,0.3,37
8.85,0.45,62
8.85,0.6,21
8.85,0.75,25
8.85,0.9,39
8.85,1.05,50
8.85,1.2,52
8.85,1.35,50
8.85,1.5,50
9.0,-1.5,44
9.0,-1.35,30
9.0,-1.2,37
9.0,-1.05,34
9.0,-0.9,31
9.0,-0.75,19
9.0,-0.6,29
9.0,-0.45,36
9.0,-0.3,68
9.0,-0.15,19
9.0,0.0,23
9.0,0.15,25
9.0,0.3,39
9.0,0.45,46
9.0,0.6,47
9.0,0.75,44
9.0,0.9,50
9.0,1.05,58
9.0,1.2,61
9.0,1.35,59
9.0,1.5,59
9.15,-1.5,31
9.15,-1.35,31
9.15,-1.2,30
9.15,-1.05,25
9.15,-0.9,24
9.15,-0.75,19
9.15,-0.6,31
9.15,-0.45,68
9.15,-0.3,8
9.15,-0.15,42
9.15,0.0,20
9.15,0.15,41
9.15,0.3,44
9.15,0.45,49
9.15,0.6,61
9.15,0.75,63
9.15,0.9,63
9.15,1.05,64
9.15,1.2,65
9.15,1.35,65
9.15,1.5,65
9.3,-1.5,31
9.3,-1.35,29
9.3,-1.2,29
9.3,-1.05,29
9.3,-0.9,28
9.3,-0.75,31
9.3,-0.6,41
9.3,-0.45,9
9.3,-0.3,37
9.3,-0.15,94
9.3,0.0,77
9.3,0.15,53
9.3,0.3,75
9.3,0.45,86
9.3,0.6,57
9.3,0.75,75
9.3,0.9,72
9.3,1.05,70
9.3,1.2,69
9.3,1.35,68
9.3,1.5,67
9.45,-1.5,15
9.45,-1.35,19
9.45,-1.2,20
9.45,-1.05,21
9.45,-0.9,21
9.45,-0.75,23
9.45,-0.6,22
9.45,-0.45,80
9.45,-0.3,28
9.45,-0.15,50
9.45,0.0,55
9.45,0.15,52
9.45,0.3,78
9.45,0.45,156
9.45,0.6,115
9.45,0.75,83
9.45,0.9,82
9.45,1.05,77
9.45,1.2,75
9.45,1.35,73
9.45,1.5,69
9.6,-1.5,30
9.6,-1.35,30
9.6,-1.2,31
9.6,-1.05,38
9.6,-0.9,41
9.6,-0.75,41
9.6,-0.6,13
9.6,-0.45,54
9.6,-0.3,95
9.6,-0.15,48
9.6,0.0,34
9.6,0.15,39
9.6,0.3,49
9.6,0.45,95
9.6,0.6,97
9.6,0.75,85
9.6,0.9,76
9.6,1.05,68
9.6,1.2,76
9.6,1.35,71
9.6,1.5,70
9.75,-1.5,34
9.75,-1.35,35
9.75,-1.2,36
9.75,-1.05,39
9.75,-0.9,40
9.75,-0.75,40
9.75,-0.6,42
9.75,-0.45,162
9.75,-0.3,174
9.75,-0.15,151
9.75,0.0,46
9.75,0.15,27
9.75,0.3,39
9.75,0.45,61
9.75,0.6,71
9.75,0.75,73
9.75,0.9,70
9.75,1.05,67
9.75,1.2,64
9.75,1.35,62
9.75,1.5,71
9.9,-1.5,36
9.9,-1.35,39
9.9,-1.2,40
9.9,-1.05,54
9.9,-0.9,57
9.9,-0.75,67
9.9,-0.6,77
9.9,-0.45,71
9.9,-0.3,82
9.9,-0.15,55
9.9,0.0,12
9.9,0.15,5
9.9,0.3,26
9.9,0.45,50
9.9,0.6,63
9.9,0.75,59
9.9,0.9,60
9.9,1.05,60
9.9,1.2,62
9.9,1.35,62
9.9,1.5,62
10.05,-1.5,54
10.05,-1.35,54
10.05,-1.2,71
10.05,-1.05,74
10.05,-0.9,76
10.05,-0.75,78
10.05,-0.6,97
10.05,-0.45,71
10.05,-0.3,179
10.05,-0.15,59
10.05,0.0,151
10.05,0.15,45
10.05,0.3,31
10.05,0.45,34
10.05,0.6,54
10.05,0.75,58
10.05,0.9,61
10.05,1.05,61
10.05,1.2,65
10.05,1.35,62
10.05,1.5,62
10.2,-1.5,59
10.2,-1.35,59
10.2,-1.2,59
10.2,-1.05,74
10.2,-0.9,88
10.2,-0.75,88
10.2,-0.6,82
10.2,-0.45,141
10.2,-0.3,185
10.2,-0.15,103
10.2,0.0,5
10.2,0.15,42
10.2,0.3,42
10.2,0.45,32
10.2,0.6,42
10.2,0.75,53
10.2,0.9,56
10.2,1.05,57
10.2,1.2,78
10.2,1.35,80
10.2,1.5,72
10.35,-1.5,59
10.35,-1.35,46
10.35,-1.2,84
10.35,-1.05,84
10.35,-0.9,80
10.35,-0.75,71
10.35,-0.6,56
10.35,-0.45,90
10.35,-0.3,98
10.35,-0.15,161
10.35,0.0,9
10.35,0.15,51
10.35,0.3,52
10.35,0.45,57
10.35,0.6,46
10.35,0.75,62
10.35,0.9,74
10.35,1.05,74
10.35,1.2,78
10.35,1.35,81
10.35,1.5,83
10.5,-1.5,45
10.5,-1.35,45
10.5,-1.2,45
10.5,-1.05,45
10.5,-0.9,58
10.5,-0.75,56
10.5,-0.6,53
10.5,-0.45,49
10.5,-0.3,52
10.5,-0.15,58
10.5,0.0,59
10.5,0.15,70
10.5,0.3,63
10.5,0.45,69
10.5,0.6,57
10.5,0.75,57
10.5,0.9,66
10.5,1.05,74
10.5,1.2,90
10.5,1.35,85
10.5,1.5,86
10.65,-1.5,43
10.65,-1.35,40
10.65,-1.2,40
10.65,-1.05,40
10.65,-0.9,39
10.65,-0.75,38
10.65,-0.6,36
10.65,-0.45,36
10.65,-0.3,18
10.65,-0.15,14
10.65,0.0,103
10.65,0.15,80
10.65,0.3,80
10.65,0.45,77
10.65,0.6,58
10.65,0.75,57
10.65,0.9,74
10.65,1.05,79
10.65,1.2,88
10.65,1.35,90
10.65,1.5,90
10.8,-1.5,38
10.8,-1.35,38
10.8,-1.2,37
10.8,-1.05,36
10.8,-0.9,24
10.8,-0.75,23
10.8,-0.6,19
10.8,-0.45,4
10.8,-0.3,6
10.8,-0.15,34
10.8,0.0,128
10.8,0.15,100
10.8,0.3,98
10.8,0.45,102
10.8,0.6,94
10.8,0.75,87
10.8,0.9,89
10.8,1.05,92
10.8,1.2,92
10.8,1.35,88
10.8,1.5,88
10.95,-1.5,59
10.95,-1.35,44
10.95,-1.2,43
10.95,-1.05,42
10.95,-0.9,41
10.95,-0.75,38
10.95,-0.6,36
10.95,-0.45,28
10.95,-0.3,47
10.95,-0.15,70
10.95,0.0,85
10.95,0.15,100
10.95,0.3,128
10.95,0.45,167
10.95,0.6,168
10.95,0.75,140
10.95,0.9,129
10.95,1.05,121
10.95,1.2,107
10.95,1.35,88
10.95,1.5,88
11.1,-1.5,62
11.1,-1.35,62
11.1,-1.2,61
11.1,-1.05,57
11.1,-0.9,56
11.1,-0.75,55
11.1,-0.6,48
11.1,-0.45,45
11.1,-0.3,136
11.1,-0.15,95
11.1,0.0,88
11.1,0.15,106
11.1,0.3,166
11.1,0.45,255
11.1,0.6,255
11.1,0.75,189
11.1,0.9,149
11.1,1.05,129
11.1,1.2,117
11.1,1.35,121
11.1,1.5,106
11.25,-1.5,77
11.25,-1.35,77
11.25,-1.2,74
11.25,-1.05,74
11.25,-0.9,74
11.25,-0.75,66
11.25,-0.6,53
11.25,-0.45,16
11.25,-0.3,235
11.25,-0.15,149
11.25,0.0,94
11.25,0.15,119
11.25,0.3,176
11.25,0.45,255
11.25,0.6,255
11.25,0.75,205
11.25,0.9,168
11.25,1.05,147
11.25,1.2,134
11.25,1.35,129
11.25,1.5,123
11.4,-1.5,98
11.4,-1.35,83
11.4,-1.2,81
11.4,-1.05,83
11.4,-0.9,89
11.4,-0.75,100
11.4,-0.6,102
11.4,-0.45,112
11.4,-0.3,150
11.4,-0.15,152
11.4,0.0,128
11.4,0.15,137
11.4,0.3,171
11.4,0.45,209
11.4,0.6,215
11.4,0.75,195
11.4,0.9,176
11.4,1.05,160
11.4,1.2,150
11.4,1.35,141
11.4,1.5,135
11.55,-1.5,121
11.55,-1.35,119
11.55,-1.2,117
11.55,-1.05,103
11.55,-0.9,105
11.55,-0.75,114
11.55,-0.6,141
11.55,-0.45,177
11.55,-0.3,160
11.55,-0.15,154
11.55,0.0,157
11.55,0.15,159
11.55,0.3,173
11.55,0.45,191
11.55,0.6,188
11.55,0.75,185
11.55,0.9,175
11.55,1.05,166
11.55,1.2,157
11.55,1.35,150
11.55,1.5,144
11.7,-1.5,121
11.7,-1.35,121
11.7,-1.2,118
11.7,-1.05,113
11.7,-0.9,106
11.7,-0.75,99
11.7,-0.6,130
11.7,-0.45,189
11.7,-0.3,162
11.7,-0.15,147
11.7,0.0,153
11.7,0.15,159
11.7,0.3,163
11.7,0.45,170
11.7,0.6,168
11.7,0.75,167
11.7,0.9,162
11.7,1.05,145
11.7,1.2,150
11.7,1.35,144
11.7,1.5,120
11.85,-1.5,111
11.85,-1.35,111
11.85,-1.2,123
11.85,-1.05,115
11.85,-0.9,98
11.85,-0.75,55
11.85,-0.6,102
11.85,-0.45,150
11.85,-0.3,145
11.85,-0.15,161
11.85,0.0,150
11.85,0.15,135
11.85,0.3,150
11.85,0.45,146
11.85,0.6,128
11.85,0.75,130
11.85,0.9,129
11.85,1.05,115
11.85,1.2,111
11.85,1.35,106
11.85,1.5,102
12.0,-1.5,111
12.0,-1.35,113
12.0,-1.2,114
12.0,-1.05,110
12.0,-0.9,101
12.0,-0.75,96
12.0,-0.6,150
12.0,-0.45,173
12.0,-0.3,120
12.0,-0.15,201
12.0,0.0,144
12.0,0.15,117
12.0,0.3,100
12.0,0.45,116
12.0,0.6,114
12.0,0.75,115
12.0,0.9,108
12.0,1.05,105
12.0,1.2,105
12.0,1.35,92
12.0,1.5,88
12.15,-1.5,105
12.15,-1.35,110
12.15,-1.2,114
12.15,-1.05,120
12.15,-0.9,115
12.15,-0.75,109
12.15,-0.6,104
12.15,-0.45,81
12.15,-0.3,14
12.15,-0.15,100
12.15,0.0,101
12.15,0.15,99
12.15,0.3,99
12.15,0.45,95
12.15,0.6,91
12.15,0.75,102
12.15,0.9,100
12.15,1.05,98
12.15,1.2,94
12.15,1.35,91
12.15,1.5,79
12.3,-1.5,102
12.3,-1.35,110
12.3,-1.2,121
12.3,-1.05,122
12.3,-0.9,128
12.3,-0.75,113
12.3,-0.6,71
12.3,-0.45,14
12.3,-0.3,125
12.3,-0.15,50
12.3,0.0,82
12.3,0.15,107
12.3,0.3,101
12.3,0.45,94
12.3,0.6,88
12.3,0.75,85
12.3,0.9,81
12.3,1.05,88
12.3,1.2,85
12.3,1.35,80
12.3,1.5,76
12.45,-1.5,89
12.45,-1.35,102
12.45,-1.2,121
12.45,-1.05,144
12.45,-0.9,191
12.45,-0.75,210
12.45,-0.6,102
12.45,-0.45,54
12.45,-0.3,73
12.45,-0.15,17
12.45,0.0,152
12.45,0.15,138
12.45,0.3,96
12.45,0.45,94
12.45,0.6,84
12.45,0.75,72
12.45,0.9,70
12.45,1.05,66
12.45,1.2,68
12.45,1.35,62
12.45,1.5,56
12.6,-1.5,71
12.6,-1.35,89
12.6,-1.2,117
12.6,-1.05,159
12.6,-0.9,221
12.6,-0.75,255
12.6,-0.6,133
12.6,-0.45,67
12.6,-0.3,30
12.6,-0.15,37
12.6,0.0,40
12.6,0.15,86
12.6,0.3,95
12.6,0.45,84
12.6,0.6,63
12.6,0.75,61
12.6,0.9,63
12.6,1.05,57
12.6,1.2,48
12.6,1.35,42
12.6,1.5,40
12.75,-1.5,38
12.75,-1.35,55
12.75,-1.2,89
12.75,-1.05,124
12.75,-0.9,159
12.75,-0.75,167
12.75,-0.6,102
12.75,-0.45,73
12.75,-0.3,85
12.75,-0.15,45
12.75,0.0,26
12.75,0.15,73
12.75,0.3,153
12.75,0.45,110
12.75,0.6,51
12.75,0.75,56
12.75,0.9,60
12.75,1.05,54
12.75,1.2,40
12.75,1.35,24
12.75,1.5,15
12.9,-1.5,4
12.9,-1.35,25
12.9,-1.2,65
12.9,-1.05,97
12.9,-0.9,113
12.9,-0.75,107
12.9,-0.6,87
12.9,-0.45,73
12.9,-0.3,68
12.9,-0.15,58
12.9,0.0,43
12.9,0.15,84
12.9,0.3,180
12.9,0.45,129
12.9,0.6,79
12.9,0.75,68
12.9,0.9,62
12.9,1.05,51
12.9,1.2,32
12.9,1.35,10
12.9,1.5,0
13.05,-1.5,0
13.05,-1.35,16
13.05,-1.2,54
13.05,-1.05,80
13.05,-0.9,91
13.05,-0.75,91
13.05,-0.6,78
13.05,-0.45,71
13.05,-0.3,69
13.05,-0.15,64
13.05,0.0,58
13.05,0.15,78
13.05,0.3,108
13.05,0.45,107
13.05,0.6,87
13.05,0.75,75
13.05,0.9,66
13.05,1.05,53
13.05,1.2,31
13.05,1.35,7
13.05,1.5,0
