-3.0,-1.5,0
-3.0,-1.35,0
-3.0,-1.2,14
-3.0,-1.05,35
-3.0,-0.9,59
-3.0,-0.75,83
-3.0,-0.6,102
-3.0,-0.45,116
-3.0,-0.3,124
-3.0,-0.15,127
-3.0,0.0,125
-3.0,0.15,119
-3.0,0.3,107
-3.0,0.45,92
-3.0,0.6,76
-3.0,0.75,58
-3.0,0.9,40
-3.0,1.05,22
-3.0,1.2,8
-3.0,1.35,0
-3.0,1.5,0
-2.85,-1.5,0
-2.85,-1.35,5
-2.85,-1.2,21
-2.85,-1.05,44
-2.85,-0.9,71
-2.85,-0.75,97
-2.85,-0.6,118
-2.85,-0.45,133
-2.85,-0.3,141
-2.85,-0.15,143
-2.85,0.0,140
-2.85,0.15,132
-2.85,0.3,118
-2.85,0.45,102
-2.85,0.6,84
-2.85,0.75,65
-2.85,0.9,45
-2.85,1.05,27
-2.85,1.2,11
-2.85,1.35,2
-2.85,1.5,0
-2.7,-1.5,14
-2.7,-1.35,21
-2.7,-1.2,38
-2.7,-1.05,62
-2.7,-0.9,91
-2.7,-0.75,118
-2.7,-0.6,140
-2.7,-0.45,155
-2.7,-0.3,163
-2.7,-0.15,163
-2.7,0.0,158
-2.7,0.15,147
-2.7,0.3,130
-2.7,0.45,113
-2.7,0.6,95
-2.7,0.75,75
-2.7,0.9,55
-2.7,1.05,36
-2.7,1.2,21
-2.7,1.35,11
-2.7,1.5,7
-2.55,-1.5,35
-2.55,-1.35,44
-2.55,-1.2,62
-2.55,-1.05,87
-2.55,-0.9,115
-2.55,-0.75,143
-2.55,-0.6,166
-2.55,-0.45,182
-2.55,-0.3,188
-2.55,-0.15,186
-2.55,0.0,178
-2.55,0.15,165
-2.55,0.3,145
-2.55,0.45,126
-2.55,0.6,107
-2.55,0.75,87
-2.55,0.9,67
-2.55,1.05,50
-2.55,1.2,35
-2.55,1.35,25
-2.55,1.5,21
-2.4,-1.5,59
-2.4,-1.35,70
-2.4,-1.2,89
-2.4,-1.05,113
-2.4,-0.9,142
-2.4,-0.75,171
-2.4,-0.6,195
-2.4,-0.45,211
-2.4,-0.3,217
-2.4,-0.15,212
-2.4,0.0,200
-2.4,0.15,182
-2.4,0.3,159
-2.4,0.45,139
-2.4,0.6,119
-2.4,0.75,99
-2.4,0.9,81
-2.4,1.05,65
-2.4,1.2,51
-2.4,1.35,42
-2.4,1.5,36
-2.25,-1.5,82
-2.25,-1.35,94
-2.25,-1.2,113
-2.25,-1.05,137
-2.25,-0.9,166
-2.25,-0.75,195
-2.25,-0.6,222
-2.25,-0.45,240
-2.25,-0.3,245
-2.25,-0.15,237
-2.25,0.0,220
-2.25,0.15,198
-2.25,0.3,172
-2.25,0.45,150
-2.25,0.6,129
-2.25,0.75,111
-2.25,0.9,94
-2.25,1.05,79
-2.25,1.2,67
-2.25,1.35,58
-2.25,1.5,52
-2.1,-1.5,101
-2.1,-1.35,113
-2.1,-1.2,131
-2.1,-1.05,155
-2.1,-0.9,183
-2.1,-0.75,213
-2.1,-0.6,242
-2.1,-0.45,255
-2.1,-0.3,255
-2.1,-0.15,255
-2.1,0.0,235
-2.1,0.15,208
-2.1,0.3,181
-2.1,0.45,158
-2.1,0.6,138
-2.1,0.75,120
-2.1,0.9,104
-2.1,1.05,91
-2.1,1.2,80
-2.1,1.35,72
-2.1,1.5,66
-1.95,-1.5,114
-1.95,-1.35,127
-1.95,-1.2,143
-1.95,-1.05,165
-1.95,-0.9,191
-1.95,-0.75,221
-1.95,-0.6,249
-1.95,-0.45,255
-1.95,-0.3,255
-1.95,-0.15,255
-1.95,0.0,240
-1.95,0.15,212
-1.95,0.3,185
-1.95,0.45,162
-1.95,0.6,142
-1.95,0.75,126
-1.95,0.9,112
-1.95,1.05,101
-1.95,1.2,91
-1.95,1.35,83
-1.95,1.5,77
-1.8,-1.5,123
-1.8,-1.35,134
-1.8,-1.2,149
-1.8,-1.05,168
-1.8,-0.9,191
-1.8,-0.75,217
-1.8,-0.6,243
-1.8,-0.45,255
-1.8,-0.3,255
-1.8,-0.15,255
-1.8,0.0,234
-1.8,0.15,207
-1.8,0.3,182
-1.8,0.45,161
-1.8,0.6,144
-1.8,0.75,129
-1.8,0.9,117
-1.8,1.05,107
-1.8,1.2,99
-1.8,1.35,92
-1.8,1.5,86
-1.65,-1.5,128
-1.65,-1.35,138
-1.65,-1.2,150
-1.65,-1.05,165
-1.65,-0.9,184
-1.65,-0.75,204
-1.65,-0.6,225
-1.65,-0.45,240
-1.65,-0.3,243
-1.65,-0.15,235
-1.65,0.0,217
-1.65,0.15,195
-1.65,0.3,174
-1.65,0.45,156
-1.65,0.6,142
-1.65,0.75,130
-1.65,0.9,120
-1.65,1.05,111
-1.65,1.2,104
-1.65,1.35,98
-1.65,1.5,93
-1.5,-1.5,134
-1.5,-1.35,142
-1.5,-1.2,151
-1.5,-1.05,159
-1.5,-0.9,173
-1.5,-0.75,188
-1.5,-0.6,202
-1.5,-0.45,211
-1.5,-0.3,214
-1.5,-0.15,208
-1.5,0.0,196
-1.5,0.15,179
-1.5,0.3,163
-1.5,0.45,150
-1.5,0.6,138
-1.5,0.75,129
-1.5,0.9,121
-1.5,1.05,113
-1.5,1.2,107
-1.5,1.35,102
-1.5,1.5,102
-1.35,-1.5,134
-1.35,-1.35,140
-1.35,-1.2,147
-1.35,-1.05,155
-1.35,-0.9,164
-1.35,-0.75,174
-1.35,-0.6,179
-1.35,-0.45,185
-1.35,-0.3,186
-1.35,-0.15,183
-1.35,0.0,175
-1.35,0.15,163
-1.35,0.3,151
-1.35,0.45,142
-1.35,0.6,134
-1.35,0.75,127
-1.35,0.9,125
-1.35,1.05,119
-1.35,1.2,114
-1.35,1.35,109
-1.35,1.5,105
-1.2,-1.5,132
-1.2,-1.35,137
-1.2,-1.2,142
-1.2,-1.05,147
-1.2,-0.9,153
-1.2,-0.75,159
-1.2,-0.6,164
-1.2,-0.45,167
-1.2,-0.3,165
-1.2,-0.15,163
-1.2,0.0,158
-1.2,0.15,149
-1.2,0.3,141
-1.2,0.45,139
-1.2,0.6,133
-1.2,0.75,128
-1.2,0.9,123
-1.2,1.05,118
-1.2,1.2,114
-1.2,1.35,110
-1.2,1.5,107
-1.05,-1.5,130
-1.05,-1.35,134
-1.05,-1.2,137
-1.05,-1.05,140
-1.05,-0.9,144
-1.05,-0.75,147
-1.05,-0.6,150
-1.05,-0.45,152
-1.05,-0.3,152
-1.05,-0.15,152
-1.05,0.0,152
-1.05,0.15,141
-1.05,0.3,137
-1.05,0.45,133
-1.05,0.6,129
-1.05,0.75,125
-1.05,0.9,121
-1.05,1.05,117
-1.05,1.2,113
-1.05,1.35,110
-1.05,1.5,107
-0.9,-1.5,128
-0.9,-1.35,130
-0.9,-1.2,133
-0.9,-1.05,135
-0.9,-0.9,137
-0.9,-0.75,139
-0.9,-0.6,140
-0.9,-0.45,143
-0.9,-0.3,143
-0.9,-0.15,143
-0.9,0.0,142
-0.9,0.15,141
-0.9,0.3,139
-0.9,0.45,129
-0.9,0.6,125
-0.9,0.75,122
-0.9,0.9,119
-0.9,1.05,116
-0.9,1.2,113
-0.9,1.35,110
-0.9,1.5,107
-0.75,-1.5,127
-0.75,-1.35,128
-0.75,-1.2,129
-0.75,-1.05,130
-0.75,-0.9,133
-0.75,-0.75,134
-0.75,-0.6,134
-0.75,-0.45,135
-0.75,-0.3,136
-0.75,-0.15,137
-0.75,0.0,137
-0.75,0.15,137
-0.75,0.3,135
-0.75,0.45,133
-0.75,0.6,131
-0.75,0.75,120
-0.75,0.9,117
-0.75,1.05,114
-0.75,1.2,111
-0.75,1.35,109
-0.75,1.5,107
-0.6,-1.5,127
-0.6,-1.35,128
-0.6,-1.2,128
-0.6,-1.05,128
-0.6,-0.9,128
-0.6,-0.75,128
-0.6,-0.6,129
-0.6,-0.45,130
-0.6,-0.3,132
-0.6,-0.15,134
-0.6,0.0,135
-0.6,0.15,135
-0.6,0.3,134
-0.6,0.45,131
-0.6,0.6,128
-0.6,0.75,120
-0.6,0.9,117
-0.6,1.05,115
-0.6,1.2,113
-0.6,1.35,108
-0.6,1.5,107
-0.45,-1.5,124
-0.45,-1.35,124
-0.45,-1.2,124
-0.45,-1.05,124
-0.45,-0.9,124
-0.45,-0.75,124
-0.45,-0.6,124
-0.45,-0.45,126
-0.45,-0.3,130
-0.45,-0.15,134
-0.45,0.0,137
-0.45,0.15,137
-0.45,0.3,135
-0.45,0.45,131
-0.45,0.6,121
-0.45,0.75,117
-0.45,0.9,114
-0.45,1.05,112
-0.45,1.2,110
-0.45,1.35,108
-0.45,1.5,107
-0.3,-1.5,122
-0.3,-1.35,122
-0.3,-1.2,122
-0.3,-1.05,122
-0.3,-0.9,121
-0.3,-0.75,120
-0.3,-0.6,119
-0.3,-0.45,121
-0.3,-0.3,127
-0.3,-0.15,137
-0.3,0.0,144
-0.3,0.15,144
-0.3,0.3,138
-0.3,0.45,131
-0.3,0.6,120
-0.3,0.75,115
-0.3,0.9,112
-0.3,1.05,99
-0.3,1.2,97
-0.3,1.35,95
-0.3,1.5,93
-0.15,-1.5,109
-0.15,-1.35,110
-0.15,-1.2,111
-0.15,-1.05,112
-0.15,-0.9,112
-0.15,-0.75,112
-0.15,-0.6,109
-0.15,-0.45,108
-0.15,-0.3,118
-0.15,-0.15,141
-0.15,0.0,159
-0.15,0.15,155
-0.15,0.3,139
-0.15,0.45,126
-0.15,0.6,112
-0.15,0.75,106
-0.15,0.9,101
-0.15,1.05,98
-0.15,1.2,95
-0.15,1.35,93
-0.15,1.5,92
0.0,-1.5,108
0.0,-1.35,109
0.0,-1.2,111
0.0,-1.05,112
0.0,-0.9,112
0.0,-0.75,111
0.0,-0.6,103
0.0,-0.45,86
0.0,-0.3,95
0.0,-0.15,153
0.0,0.0,198
0.0,0.15,176
0.0,0.3,142
0.0,0.45,123
0.0,0.6,109
0.0,0.75,103
0.0,0.9,98
0.0,1.05,95
0.0,1.2,93
0.0,1.35,91
0.0,1.5,90
0.15,-1.5,108
0.15,-1.35,109
0.15,-1.2,110
0.15,-1.05,112
0.15,-0.9,113
0.15,-0.75,113
0.15,-0.6,107
0.15,-0.45,77
0.15,-0.3,87
0.15,-0.15,162
0.15,0.0,201
0.15,0.15,165
0.15,0.3,127
0.15,0.45,110
0.15,0.6,102
0.15,0.75,98
0.15,0.9,94
0.15,1.05,92
0.15,1.2,90
0.15,1.35,89
0.15,1.5,88
0.3,-1.5,107
0.3,-1.35,108
0.3,-1.2,110
0.3,-1.05,111
0.3,-0.9,113
0.3,-0.75,116
0.3,-0.6,123
0.3,-0.45,147
0.3,-0.3,255
0.3,-0.15,201
0.3,0.0,123
0.3,0.15,89
0.3,0.3,96
0.3,0.45,95
0.3,0.6,93
0.3,0.75,91
0.3,0.9,90
0.3,1.05,89
0.3,1.2,88
0.3,1.35,87
0.3,1.5,86
0.45,-1.5,106
0.45,-1.35,107
0.45,-1.2,109
0.45,-1.05,110
0.45,-0.9,112
0.45,-0.75,115
0.45,-0.6,122
0.45,-0.45,134
0.45,-0.3,112
0.45,-0.15,105
0.45,0.0,83
0.45,0.15,60
0.45,0.3,75
0.45,0.45,82
0.45,0.6,84
0.45,0.75,85
0.45,0.9,85
0.45,1.05,85
0.45,1.2,84
0.45,1.35,84
0.45,1.5,84
0.6,-1.5,105
0.6,-1.35,106
0.6,-1.2,107
0.6,-1.05,108
0.6,-0.9,110
0.6,-0.75,110
0.6,-0.6,110
0.6,-0.45,100
0.6,-0.3,57
0.6,-0.15,65
0.6,0.0,75
0.6,0.15,60
0.6,0.3,65
0.6,0.45,73
0.6,0.6,77
0.6,0.75,79
0.6,0.9,80
0.6,1.05,81
0.6,1.2,81
0.6,1.35,81
0.6,1.5,78
0.75,-1.5,94
0.75,-1.35,95
0.75,-1.2,97
0.75,-1.05,98
0.75,-0.9,99
0.75,-0.75,99
0.75,-0.6,96
0.75,-0.45,95
0.75,-0.3,82
0.75,-0.15,75
0.75,0.0,68
0.75,0.15,55
0.75,0.3,61
0.75,0.45,68
0.75,0.6,72
0.75,0.75,72
0.75,0.9,76
0.75,1.05,77
0.75,1.2,60
0.75,1.35,61
0.75,1.5,61
0.9,-1.5,90
0.9,-1.35,94
0.9,-1.2,96
0.9,-1.05,98
0.9,-0.9,100
0.9,-0.75,101
0.9,-0.6,99
0.9,-0.45,91
0.9,-0.3,78
0.9,-0.15,65
0.9,0.0,56
0.9,0.15,57
0.9,0.3,54
0.9,0.45,56
0.9,0.6,53
0.9,0.75,54
0.9,0.9,54
0.9,1.05,58
0.9,1.2,62
0.9,1.35,62
0.9,1.5,62
1.05,-1.5,88
1.05,-1.35,90
1.05,-1.2,95
1.05,-1.05,98
1.05,-0.9,99
1.05,-0.75,105
1.05,-0.6,111
1.05,-0.45,104
1.05,-0.3,70
1.05,-0.15,48
1.05,0.0,48
1.05,0.15,46
1.05,0.3,45
1.05,0.45,47
1.05,0.6,47
1.05,0.75,47
1.05,0.9,47
1.05,1.05,47
1.05,1.2,47
1.05,1.35,47
1.05,1.5,47
1.2,-1.5,83
1.2,-1.35,84
1.2,-1.2,71
1.2,-1.05,77
1.2,-0.9,86
1.2,-0.75,104
1.2,-0.6,138
1.2,-0.45,145
1.2,-0.3,82
1.2,-0.15,36
1.2,0.0,18
1.2,0.15,41
1.2,0.3,45
1.2,0.45,44
1.2,0.6,44
1.2,0.75,47
1.2,0.9,47
1.2,1.05,47
1.2,1.2,47
1.2,1.35,44
1.2,1.5,44
1.35,-1.5,63
1.35,-1.35,63
1.35,-1.2,66
1.35,-1.05,72
1.35,-0.9,81
1.35,-0.75,99
1.35,-0.6,150
1.35,-0.45,189
1.35,-0.3,84
1.35,-0.15,106
1.35,0.0,51
1.35,0.15,46
1.35,0.3,44
1.35,0.45,44
1.35,0.6,43
1.35,0.75,47
1.35,0.9,47
1.35,1.05,43
1.35,1.2,44
1.35,1.35,44
1.35,1.5,44
1.5,-1.5,63
1.5,-1.35,63
1.5,-1.2,62
1.5,-1.05,66
1.5,-0.9,71
1.5,-0.75,78
1.5,-0.6,77
1.5,-0.45,69
1.5,-0.3,56
1.5,-0.15,51
1.5,0.0,48
1.5,0.15,48
1.5,0.3,43
1.5,0.45,44
1.5,0.6,43
1.5,0.75,43
1.5,0.9,43
1.5,1.05,43
1.5,1.2,44
1.5,1.35,44
1.5,1.5,44
1.65,-1.5,63
1.65,-1.35,63
1.65,-1.2,64
1.65,-1.05,62
1.65,-0.9,63
1.65,-0.75,63
1.65,-0.6,58
1.65,-0.45,54
1.65,-0.3,49
1.65,-0.15,32
1.65,0.0,13
1.65,0.15,43
1.65,0.3,43
1.65,0.45,43
1.65,0.6,43
1.65,0.75,43
1.65,0.9,43
1.65,1.05,43
1.65,1.2,43
1.65,1.35,45
1.65,1.5,44
1.8,-1.5,59
1.8,-1.35,55
1.8,-1.2,55
1.8,-1.05,55
1.8,-0.9,54
1.8,-0.75,51
1.8,-0.6,46
1.8,-0.45,41
1.8,-0.3,29
1.8,-0.15,10
1.8,0.0,32
1.8,0.15,45
1.8,0.3,45
1.8,0.45,43
1.8,0.6,43
1.8,0.75,43
1.8,0.9,43
1.8,1.05,43
1.8,1.2,54
1.8,1.35,55
1.8,1.5,56
1.95,-1.5,68
1.95,-1.35,67
1.95,-1.2,55
1.95,-1.05,53
1.95,-0.9,46
1.95,-0.75,41
1.95,-0.6,28
1.95,-0.45,27
1.95,-0.3,31
1.95,-0.15,45
1.95,0.0,41
1.95,0.15,45
1.95,0.3,45
1.95,0.45,44
1.95,0.6,44
1.95,0.75,45
1.95,0.9,54
1.95,1.05,55
1.95,1.2,56
1.95,1.35,56
1.95,1.5,57
2.1,-1.5,66
2.1,-1.35,65
2.1,-1.2,63
2.1,-1.05,60
2.1,-0.9,45
2.1,-0.75,40
2.1,-0.6,25
2.1,-0.45,2
2.1,-0.3,44
2.1,-0.15,50
2.1,0.0,51
2.1,0.15,51
2.1,0.3,47
2.1,0.45,45
2.1,0.6,54
2.1,0.75,53
2.1,0.9,54
2.1,1.05,56
2.1,1.2,62
2.1,1.35,64
2.1,1.5,65
2.25,-1.5,64
2.25,-1.35,53
2.25,-1.2,52
2.25,-1.05,48
2.25,-0.9,47
2.25,-0.75,45
2.25,-0.6,40
2.25,-0.45,42
2.25,-0.3,53
2.25,-0.15,71
2.25,0.0,65
2.25,0.15,58
2.25,0.3,59
2.25,0.45,61
2.25,0.6,60
2.25,0.75,53
2.25,0.9,55
2.25,1.05,61
2.25,1.2,64
2.25,1.35,68
2.25,1.5,69
2.4,-1.5,53
2.4,-1.35,53
2.4,-1.2,52
2.4,-1.05,52
2.4,-0.9,52
2.4,-0.75,52
2.4,-0.6,54
2.4,-0.45,54
2.4,-0.3,89
2.4,-0.15,160
2.4,0.0,83
2.4,0.15,77
2.4,0.3,75
2.4,0.45,73
2.4,0.6,70
2.4,0.75,64
2.4,0.9,63
2.4,1.05,65
2.4,1.2,74
2.4,1.35,76
2.4,1.5,77
2.55,-1.5,64
2.55,-1.35,63
2.55,-1.2,50
2.55,-1.05,50
2.55,-0.9,52
2.55,-0.75,53
2.55,-0.6,54
2.55,-0.45,52
2.55,-0.3,78
2.55,-0.15,82
2.55,0.0,66
2.55,0.15,76
2.55,0.3,96
2.55,0.45,94
2.55,0.6,85
2.55,0.75,84
2.55,0.9,79
2.55,1.05,78
2.55,1.2,78
2.55,1.35,85
2.55,1.5,78
2.7,-1.5,50
2.7,-1.35,65
2.7,-1.2,63
2.7,-1.05,60
2.7,-0.9,50
2.7,-0.75,47
2.7,-0.6,47
2.7,-0.45,48
2.7,-0.3,54
2.7,-0.15,51
2.7,0.0,50
2.7,0.15,68
2.7,0.3,141
2.7,0.45,128
2.7,0.6,104
2.7,0.75,92
2.7,0.9,86
2.7,1.05,92
2.7,1.2,87
2.7,1.35,94
2.7,1.5,104
2.85,-1.5,69
2.85,-1.35,68
2.85,-1.2,67
2.85,-1.05,64
2.85,-0.9,73
2.85,-0.75,51
2.85,-0.6,36
2.85,-0.45,2
2.85,-0.3,37
2.85,-0.15,47
2.85,0.0,40
2.85,0.15,43
2.85,0.3,100
2.85,0.45,122
2.85,0.6,109
2.85,0.75,101
2.85,0.9,97
2.85,1.05,108
2.85,1.2,106
2.85,1.35,105
2.85,1.5,105
3.0,-1.5,76
3.0,-1.35,76
3.0,-1.2,82
3.0,-1.05,83
3.0,-0.9,79
3.0,-0.75,69
3.0,-0.6,58
3.0,-0.45,49
3.0,-0.3,55
3.0,-0.15,63
3.0,0.0,33
3.0,0.15,51
3.0,0.3,102
3.0,0.45,102
3.0,0.6,106
3.0,0.75,109
3.0,0.9,108
3.0,1.05,107
3.0,1.2,105
3.0,1.35,104
3.0,1.5,104
3.15,-1.5,79
3.15,-1.35,79
3.15,-1.2,80
3.15,-1.05,87
3.15,-0.9,82
3.15,-0.75,81
3.15,-0.6,74
3.15,-0.45,58
3.15,-0.3,67
3.15,-0.15,68
3.15,0.0,52
3.15,0.15,52
3.15,0.3,133
3.15,0.45,83
3.15,0.6,95
3.15,0.75,97
3.15,0.9,98
3.15,1.05,98
3.15,1.2,98
3.15,1.35,98
3.15,1.5,98
3.3,-1.5,80
3.3,-1.35,81
3.3,-1.2,87
3.3,-1.05,90
3.3,-0.9,100
3.3,-0.75,102
3.3,-0.6,93
3.3,-0.45,87
3.3,-0.3,54
3.3,-0.15,90
3.3,0.0,93
3.3,0.15,122
3.3,0.3,170
3.3,0.45,89
3.3,0.6,79
3.3,0.75,81
3.3,0.9,81
3.3,1.05,90
3.3,1.2,83
3.3,1.35,84
3.3,1.5,95
3.45,-1.5,110
3.45,-1.35,93
3.45,-1.2,95
3.45,-1.05,99
3.45,-0.9,105
3.45,-0.75,122
3.45,-0.6,163
3.45,-0.45,18
3.45,-0.3,85
3.45,-0.15,74
3.45,0.0,234
3.45,0.15,77
3.45,0.3,61
3.45,0.45,128
3.45,0.6,57
3.45,0.75,67
3.45,0.9,69
3.45,1.05,73
3.45,1.2,72
3.45,1.35,74
3.45,1.5,75
3.6,-1.5,119
3.6,-1.35,119
3.6,-1.2,119
3.6,-1.05,119
3.6,-0.9,124
3.6,-0.75,138
3.6,-0.6,167
3.6,-0.45,97
3.6,-0.3,69
3.6,-0.15,46
3.6,0.0,39
3.6,0.15,46
3.6,0.3,61
3.6,0.45,106
3.6,0.6,53
3.6,0.75,25
3.6,0.9,49
3.6,1.05,57
3.6,1.2,60
3.6,1.35,62
3.6,1.5,64
3.75,-1.5,97
3.75,-1.35,97
3.75,-1.2,102
3.75,-1.05,118
3.75,-0.9,116
3.75,-0.75,123
3.75,-0.6,134
3.75,-0.45,69
3.75,-0.3,102
3.75,-0.15,110
3.75,0.0,52
3.75,0.15,16
3.75,0.3,57
3.75,0.45,63
3.75,0.6,41
3.75,0.75,30
3.75,0.9,44
3.75,1.05,51
3.75,1.2,51
3.75,1.35,52
3.75,1.5,53
3.9,-1.5,119
3.9,-1.35,116
3.9,-1.2,95
3.9,-1.05,99
3.9,-0.9,83
3.9,-0.75,61
3.9,-0.6,108
3.9,-0.45,122
3.9,-0.3,99
3.9,-0.15,0
3.9,0.0,39
3.9,0.15,51
3.9,0.3,51
3.9,0.45,38
3.9,0.6,50
3.9,0.75,50
3.9,0.9,47
3.9,1.05,48
3.9,1.2,53
3.9,1.35,55
3.9,1.5,56
4.05,-1.5,119
4.05,-1.35,116
4.05,-1.2,96
4.05,-1.05,88
4.05,-0.9,66
4.05,-0.75,31
4.05,-0.6,127
4.05,-0.45,82
4.05,-0.3,49
4.05,-0.15,31
4.05,0.0,31
4.05,0.15,0
4.05,0.3,60
4.05,0.45,10
4.05,0.6,50
4.05,0.75,45
4.05,0.9,46
4.05,1.05,46
4.05,1.2,56
4.05,1.35,57
4.05,1.5,59
4.2,-1.5,99
4.2,-1.35,98
4.2,-1.2,98
4.2,-1.05,97
4.2,-0.9,96
4.2,-0.75,102
4.2,-0.6,144
4.2,-0.45,38
4.2,-0.3,31
4.2,-0.15,141
4.2,0.0,52
4.2,0.15,24
4.2,0.3,0
4.2,0.45,36
4.2,0.6,45
4.2,0.75,48
4.2,0.9,60
4.2,1.05,61
4.2,1.2,72
4.2,1.35,77
4.2,1.5,79
4.35,-1.5,102
4.35,-1.35,98
4.35,-1.2,104
4.35,-1.05,101
4.35,-0.9,102
4.35,-0.75,111
4.35,-0.6,125
4.35,-0.45,38
4.35,-0.3,32
4.35,-0.15,151
4.35,0.0,25
4.35,0.15,20
4.35,0.3,56
4.35,0.45,73
4.35,0.6,69
4.35,0.75,67
4.35,0.9,77
4.35,1.05,77
4.35,1.2,77
4.35,1.35,81
4.35,1.5,81
4.5,-1.5,109
4.5,-1.35,123
4.5,-1.2,114
4.5,-1.05,115
4.5,-0.9,116
4.5,-0.75,116
4.5,-0.6,125
4.5,-0.45,98
4.5,-0.3,88
4.5,-0.15,8
4.5,0.0,255
4.5,0.15,75
4.5,0.3,159
4.5,0.45,124
4.5,0.6,138
4.5,0.75,104
4.5,0.9,90
4.5,1.05,87
4.5,1.2,82
4.5,1.35,77
4.5,1.5,77
4.65,-1.5,101
4.65,-1.35,101
4.65,-1.2,109
4.65,-1.05,108
4.65,-0.9,109
4.65,-0.75,104
4.65,-0.6,93
4.65,-0.45,75
4.65,-0.3,75
4.65,-0.15,25
4.65,0.0,41
4.65,0.15,118
4.65,0.3,170
4.65,0.45,153
4.65,0.6,147
4.65,0.75,141
4.65,0.9,140
4.65,1.05,126
4.65,1.2,99
4.65,1.35,81
4.65,1.5,77
4.8,-1.5,119
4.8,-1.35,110
4.8,-1.2,94
4.8,-1.05,92
4.8,-0.9,84
4.8,-0.75,76
4.8,-0.6,77
4.8,-0.45,209
4.8,-0.3,46
4.8,-0.15,74
4.8,0.0,37
4.8,0.15,27
4.8,0.3,51
4.8,0.45,127
4.8,0.6,154
4.8,0.75,136
4.8,0.9,127
4.8,1.05,100
4.8,1.2,84
4.8,1.35,85
4.8,1.5,83
4.95,-1.5,104
4.95,-1.35,103
4.95,-1.2,102
4.95,-1.05,96
4.95,-0.9,93
4.95,-0.75,85
4.95,-0.6,51
4.95,-0.45,74
4.95,-0.3,51
4.95,-0.15,45
4.95,0.0,0
4.95,0.15,59
4.95,0.3,56
4.95,0.45,121
4.95,0.6,168
4.95,0.75,117
4.95,0.9,121
4.95,1.05,117
4.95,1.2,115
4.95,1.35,114
4.95,1.5,97
5.1,-1.5,87
5.1,-1.35,87
5.1,-1.2,87
5.1,-1.05,91
5.1,-0.9,87
5.1,-0.75,82
5.1,-0.6,16
5.1,-0.45,108
5.1,-0.3,105
5.1,-0.15,15
5.1,0.0,6
5.1,0.15,66
5.1,0.3,87
5.1,0.45,57
5.1,0.6,92
5.1,0.75,90
5.1,0.9,86
5.1,1.05,83
5.1,1.2,92
5.1,1.35,92
5.1,1.5,91
5.25,-1.5,86
5.25,-1.35,82
5.25,-1.2,82
5.25,-1.05,82
5.25,-0.9,82
5.25,-0.75,82
5.25,-0.6,137
5.25,-0.45,49
5.25,-0.3,51
5.25,-0.15,13
5.25,0.0,31
5.25,0.15,33
5.25,0.3,56
5.25,0.45,48
5.25,0.6,64
5.25,0.75,75
5.25,0.9,83
5.25,1.05,85
5.25,1.2,86
5.25,1.35,85
5.25,1.5,85
5.4,-1.5,55
5.4,-1.35,75
5.4,-1.2,75
5.4,-1.05,74
5.4,-0.9,61
5.4,-0.75,63
5.4,-0.6,54
5.4,-0.45,237
5.4,-0.3,43
5.4,-0.15,135
5.4,0.0,13
5.4,0.15,13
5.4,0.3,20
5.4,0.45,4
5.4,0.6,21
5.4,0.75,43
5.4,0.9,45
5.4,1.05,63
5.4,1.2,64
5.4,1.35,64
5.4,1.5,64
5.55,-1.5,54
5.55,-1.35,54
5.55,-1.2,53
5.55,-1.05,52
5.55,-0.9,52
5.55,-0.75,44
5.55,-0.6,9
5.55,-0.45,27
5.55,-0.3,10
5.55,-0.15,26
5.55,0.0,92
5.55,0.15,44
5.55,0.3,35
5.55,0.45,48
5.55,0.6,51
5.55,0.75,55
5.55,0.9,68
5.55,1.05,68
5.55,1.2,63
5.55,1.35,67
5.55,1.5,67
5.7,-1.5,28
5.7,-1.35,27
5.7,-1.2,30
5.7,-1.05,13
5.7,-0.9,12
5.7,-0.75,7
5.7,-0.6,0
5.7,-0.45,0
5.7,-0.3,26
5.7,-0.15,52
5.7,0.0,24
5.7,0.15,75
5.7,0.3,71
5.7,0.45,79
5.7,0.6,74
5.7,0.75,69
5.7,0.9,64
5.7,1.05,63
5.7,1.2,68
5.7,1.35,66
5.7,1.5,66
5.85,-1.5,14
5.85,-1.35,14
5.85,-1.2,14
5.85,-1.05,13
5.85,-0.9,28
5.85,-0.75,37
5.85,-0.6,41
5.85,-0.45,32
5.85,-0.3,38
5.85,-0.15,36
5.85,0.0,15
5.85,0.15,60
5.85,0.3,183
5.85,0.45,82
5.85,0.6,106
5.85,0.75,75
5.85,0.9,66
5.85,1.05,65
5.85,1.2,63
5.85,1.35,63
5.85,1.5,63
6.0,-1.5,18
6.0,-1.35,34
6.0,-1.2,34
6.0,-1.05,46
6.0,-0.9,74
6.0,-0.75,74
6.0,-0.6,93
6.0,-0.45,126
6.0,-0.3,14
6.0,-0.15,32
6.0,0.0,45
6.0,0.15,93
6.0,0.3,54
6.0,0.45,6
6.0,0.6,64
6.0,0.75,69
6.0,0.9,66
6.0,1.05,63
6.0,1.2,63
6.0,1.35,63
6.0,1.5,63
6.15,-1.5,35
6.15,-1.35,34
6.15,-1.2,18
6.15,-1.05,33
6.15,-0.9,47
6.15,-0.75,46
6.15,-0.6,41
6.15,-0.45,189
6.15,-0.3,61
6.15,-0.15,41
6.15,0.0,13
6.15,0.15,49
6.15,0.3,32
6.15,0.45,33
6.15,0.6,48
6.15,0.75,58
6.15,0.9,69
6.15,1.05,63
6.15,1.2,63
6.15,1.35,63
6.15,1.5,63
6.3,-1.5,36
6.3,-1.35,31
6.3,-1.2,31
6.3,-1.05,33
6.3,-0.9,20
6.3,-0.75,22
6.3,-0.6,34
6.3,-0.45,51
6.3,-0.3,72
6.3,-0.15,48
6.3,0.0,24
6.3,0.15,39
6.3,0.3,83
6.3,0.45,68
6.3,0.6,58
6.3,0.75,55
6.3,0.9,69
6.3,1.05,69
6.3,1.2,69
6.3,1.35,69
6.3,1.5,69
6.45,-1.5,37
6.45,-1.35,37
6.45,-1.2,40
6.45,-1.05,38
6.45,-0.9,33
6.45,-0.75,15
6.45,-0.6,22
6.45,-0.45,110
6.45,-0.3,67
6.45,-0.15,84
6.45,0.0,68
6.45,0.15,255
6.45,0.3,92
6.45,0.45,70
6.45,0.6,50
6.45,0.75,49
6.45,0.9,50
6.45,1.05,52
6.45,1.2,54
6.45,1.35,67
6.45,1.5,69
6.6,-1.5,41
6.6,-1.35,41
6.6,-1.2,41
6.6,-1.05,53
6.6,-0.9,51
6.6,-0.75,45
6.6,-0.6,92
6.6,-0.45,56
6.6,-0.3,53
6.6,-0.15,52
6.6,0.0,49
6.6,0.15,37
6.6,0.3,57
6.6,0.45,56
6.6,0.6,18
6.6,0.75,30
6.6,0.9,41
6.6,1.05,52
6.6,1.2,54
6.6,1.35,56
6.6,1.5,57
6.75,-1.5,40
6.75,-1.35,40
6.75,-1.2,52
6.75,-1.05,50
6.75,-0.9,56
6.75,-0.75,66
6.75,-0.6,70
6.75,-0.45,107
6.75,-0.3,47
6.75,-0.15,115
6.75,0.0,24
6.75,0.15,51
6.75,0.3,48
6.75,0.45,50
6.75,0.6,10
6.75,0.75,33
6.75,0.9,50
6.75,1.05,57
6.75,1.2,61
6.75,1.35,64
6.75,1.5,57
6.9,-1.5,41
6.9,-1.35,41
6.9,-1.2,40
6.9,-1.05,40
6.9,-0.9,51
6.9,-0.75,62
6.9,-0.6,76
6.9,-0.45,35
6.9,-0.3,35
6.9,-0.15,58
6.9,0.0,158
6.9,0.15,82
6.9,0.3,72
6.9,0.45,55
6.9,0.6,43
6.9,0.75,49
6.9,0.9,54
6.9,1.05,50
6.9,1.2,66
6.9,1.35,67
6.9,1.5,57
7.05,-1.5,48
7.05,-1.35,48
7.05,-1.2,48
7.05,-1.05,39
7.05,-0.9,32
7.05,-0.75,30
7.05,-0.6,35
7.05,-0.45,46
7.05,-0.3,38
7.05,-0.15,41
7.05,0.0,83
7.05,0.15,79
7.05,0.3,29
7.05,0.45,42
7.05,0.6,55
7.05,0.75,52
7.05,0.9,53
7.05,1.05,58
7.05,1.2,61
7.05,1.35,56
7.05,1.5,54
7.2,-1.5,48
7.2,-1.35,48
7.2,-1.2,47
7.2,-1.05,45
7.2,-0.9,37
7.2,-0.75,13
7.2,-0.6,50
7.2,-0.45,131
7.2,-0.3,58
7.2,-0.15,40
7.2,0.0,60
7.2,0.15,103
7.2,0.3,74
7.2,0.45,65
7.2,0.6,54
7.2,0.75,53
7.2,0.9,53
7.2,1.05,53
7.2,1.2,53
7.2,1.35,54
7.2,1.5,56
7.35,-1.5,48
7.35,-1.35,47
7.35,-1.2,48
7.35,-1.05,53
7.35,-0.9,53
7.35,-0.75,54
7.35,-0.6,171
7.35,-0.45,27
7.35,-0.3,83
7.35,-0.15,25
7.35,0.0,53
7.35,0.15,66
7.35,0.3,64
7.35,0.45,63
7.35,0.6,60
7.35,0.75,56
7.35,0.9,55
7.35,1.05,55
7.35,1.2,55
7.35,1.35,55
7.35,1.5,55
7.5,-1.5,48
7.5,-1.35,48
7.5,-1.2,49
7.5,-1.05,51
7.5,-0.9,52
7.5,-0.75,61
7.5,-0.6,81
7.5,-0.45,85
7.5,-0.3,77
7.5,-0.15,41
7.5,0.0,46
7.5,0.15,54
7.5,0.3,64
7.5,0.45,61
7.5,0.6,52
7.5,0.75,57
7.5,0.9,56
7.5,1.05,56
7.5,1.2,56
7.5,1.35,56
7.5,1.5,56
7.65,-1.5,61
7.65,-1.35,61
7.65,-1.2,60
7.65,-1.05,60
7.65,-0.9,77
7.65,-0.75,72
7.65,-0.6,95
7.65,-0.45,167
7.65,-0.3,104
7.65,-0.15,52
7.65,0.0,48
7.65,0.15,52
7.65,0.3,52
7.65,0.45,53
7.65,0.6,52
7.65,0.75,52
7.65,0.9,52
7.65,1.05,52
7.65,1.2,56
7.65,1.35,56
7.65,1.5,56
7.8,-1.5,63
7.8,-1.35,60
7.8,-1.2,60
7.8,-1.05,64
7.8,-0.9,88
7.8,-0.75,88
7.8,-0.6,70
7.8,-0.45,150
7.8,-0.3,128
7.8,-0.15,56
7.8,0.0,57
7.8,0.15,52
7.8,0.3,52
7.8,0.45,52
7.8,0.6,53
7.8,0.75,52
7.8,0.9,52
7.8,1.05,52
7.8,1.2,52
7.8,1.35,52
7.8,1.5,56
7.95,-1.5,61
7.95,-1.35,81
7.95,-1.2,84
7.95,-1.05,88
7.95,-0.9,86
7.95,-0.75,86
7.95,-0.6,53
7.95,-0.45,91
7.95,-0.3,88
7.95,-0.15,65
7.95,0.0,52
7.95,0.15,52
7.95,0.3,52
7.95,0.45,52
7.95,0.6,52
7.95,0.75,52
7.95,0.9,52
7.95,1.05,52
7.95,1.2,52
7.95,1.35,52
7.95,1.5,52
8.1,-1.5,77
8.1,-1.35,77
8.1,-1.2,78
8.1,-1.05,79
8.1,-0.9,88
8.1,-0.75,65
8.1,-0.6,122
8.1,-0.45,34
8.1,-0.3,68
8.1,-0.15,57
8.1,0.0,58
8.1,0.15,67
8.1,0.3,69
8.1,0.45,69
8.1,0.6,68
8.1,0.75,68
8.1,0.9,68
8.1,1.05,71
8.1,1.2,52
8.1,1.35,52
8.1,1.5,52
8.25,-1.5,76
8.25,-1.35,76
8.25,-1.2,76
8.25,-1.05,78
8.25,-0.9,79
8.25,-0.75,83
8.25,-0.6,119
8.25,-0.45,255
8.25,-0.3,155
8.25,-0.15,173
8.25,0.0,95
8.25,0.15,76
8.25,0.3,73
8.25,0.45,71
8.25,0.6,69
8.25,0.75,68
8.25,0.9,71
8.25,1.05,71
8.25,1.2,71
8.25,1.35,67
8.25,1.5,67
8.4,-1.5,78
8.4,-1.35,78
8.4,-1.2,78
8.4,-1.05,72
8.4,-0.9,73
8.4,-0.75,77
8.4,-0.6,102
8.4,-0.45,95
8.4,-0.3,80
8.4,-0.15,138
8.4,0.0,108
8.4,0.15,94
8.4,0.3,74
8.4,0.45,74
8.4,0.6,82
8.4,0.75,81
8.4,0.9,81
8.4,1.05,81
8.4,1.2,81
8.4,1.35,85
8.4,1.5,85
8.55,-1.5,78
8.55,-1.35,77
8.55,-1.2,73
8.55,-1.05,73
8.55,-0.9,67
8.55,-0.75,61
8.55,-0.6,62
8.55,-0.45,7
8.55,-0.3,27
8.55,-0.15,74
8.55,0.0,89
8.55,0.15,98
8.55,0.3,99
8.55,0.45,83
8.55,0.6,83
8.55,0.75,96
8.55,0.9,96
8.55,1.05,96
8.55,1.2,96
8.55,1.35,96
8.55,1.5,95
8.7,-1.5,73
8.7,-1.35,72
8.7,-1.2,73
8.7,-1.05,70
8.7,-0.9,62
8.7,-0.75,61
8.7,-0.6,61
8.7,-0.45,50
8.7,-0.3,55
8.7,-0.15,74
8.7,0.0,87
8.7,0.15,93
8.7,0.3,99
8.7,0.45,99
8.7,0.6,99
8.7,0.75,99
8.7,0.9,98
8.7,1.05,101
8.7,1.2,100
8.7,1.35,100
8.7,1.5,99
8.85,-1.5,72
8.85,-1.35,74
8.85,-1.2,72
8.85,-1.05,69
8.85,-0.9,71
8.85,-0.75,69
8.85,-0.6,78
8.85,-0.45,76
8.85,-0.3,74
8.85,-0.15,66
8.85,0.0,78
8.85,0.15,100
8.85,0.3,109
8.85,0.45,110
8.85,0.6,110
8.85,0.75,108
8.85,0.9,103
8.85,1.05,101
8.85,1.2,100
8.85,1.35,103
8.85,1.5,102
9.0,-1.5,75
9.0,-1.35,73
9.0,-1.2,82
9.0,-1.05,79
9.0,-0.9,77
9.0,-0.75,82
9.0,-0.6,78
9.0,-0.45,75
9.0,-0.3,87
9.0,-0.15,84
9.0,0.0,110
9.0,0.15,136
9.0,0.3,127
9.0,0.45,121
9.0,0.6,117
9.0,0.75,114
9.0,0.9,111
9.0,1.05,113
9.0,1.2,107
9.0,1.35,106
9.0,1.5,104
9.15,-1.5,87
9.15,-1.35,86
9.15,-1.2,84
9.15,-1.05,83
9.15,-0.9,82
9.15,-0.75,87
9.15,-0.6,80
9.15,-0.45,77
9.15,-0.3,107
9.15,-0.15,153
9.15,0.0,214
9.15,0.15,175
9.15,0.3,147
9.15,0.45,133
9.15,0.6,124
9.15,0.75,119
9.15,0.9,115
9.15,1.05,112
9.15,1.2,110
9.15,1.35,112
9.15,1.5,110
9.3,-1.5,87
9.3,-1.35,87
9.3,-1.2,87
9.3,-1.05,87
9.3,-0.9,96
9.3,-0.75,96
9.3,-0.6,96
9.3,-0.45,107
9.3,-0.3,141
9.3,-0.15,196
9.3,0.0,204
9.3,0.15,184
9.3,0.3,156
9.3,0.45,140
9.3,0.6,129
9.3,0.75,123
9.3,0.9,118
9.3,1.05,115
9.3,1.2,112
9.3,1.35,110
9.3,1.5,110
9.45,-1.5,70
9.45,-1.35,72
9.45,-1.2,87
9.45,-1.05,88
9.45,-0.9,90
9.45,-0.75,93
9.45,-0.6,101
9.45,-0.45,117
9.45,-0.3,150
9.45,-0.15,196
9.45,0.0,198
9.45,0.15,173
9.45,0.3,153
9.45,0.45,139
9.45,0.6,129
9.45,0.75,122
9.45,0.9,120
9.45,1.05,117
9.45,1.2,114
9.45,1.35,111
9.45,1.5,110
9.6,-1.5,71
9.6,-1.35,88
9.6,-1.2,88
9.6,-1.05,90
9.6,-0.9,92
9.6,-0.75,97
9.6,-0.6,105
9.6,-0.45,119
9.6,-0.3,141
9.6,-0.15,163
9.6,0.0,167
9.6,0.15,158
9.6,0.3,145
9.6,0.45,135
9.6,0.6,127
9.6,0.75,121
9.6,0.9,117
9.6,1.05,113
9.6,1.2,110
9.6,1.35,108
9.6,1.5,110
9.75,-1.5,87
9.75,-1.35,87
9.75,-1.2,88
9.75,-1.05,89
9.75,-0.9,92
9.75,-0.75,96
9.75,-0.6,103
9.75,-0.45,113
9.75,-0.3,126
9.75,-0.15,138
9.75,0.0,143
9.75,0.15,140
9.75,0.3,134
9.75,0.45,128
9.75,0.6,123
9.75,0.75,118
9.75,0.9,115
9.75,1.05,112
9.75,1.2,109
9.75,1.35,108
9.75,1.5,106
9.9,-1.5,86
9.9,-1.35,86
9.9,-1.2,86
9.9,-1.05,87
9.9,-0.9,88
9.9,-0.75,90
9.9,-0.6,94
9.9,-0.45,100
9.9,-0.3,109
9.9,-0.15,117
9.9,0.0,122
9.9,0.15,124
9.9,0.3,122
9.9,0.45,120
9.9,0.6,117
9.9,0.75,114
9.9,0.9,112
9.9,1.05,110
9.9,1.2,108
9.9,1.35,106
9.9,1.5,105
10.05,-1.5,84
10.05,-1.35,84
10.05,-1.2,83
10.05,-1.05,82
10.05,-0.9,80
10.05,-0.75,79
10.05,-0.6,79
10.05,-0.45,80
10.05,-0.3,86
10.05,-0.15,94
10.05,0.0,101
10.05,0.15,107
10.05,0.3,110
10.05,0.45,110
10.05,0.6,110
10.05,0.75,109
10.05,0.9,108
10.05,1.05,107
10.05,1.2,106
10.05,1.35,105
10.05,1.5,104
10.2,-1.5,82
10.2,-1.35,81
10.2,-1.2,78
10.2,-1.05,75
10.2,-0.9,70
10.2,-0.75,64
10.2,-0.6,56
10.2,-0.45,52
10.2,-0.3,55
10.2,-0.15,66
10.2,0.0,79
10.2,0.15,90
10.2,0.3,97
10.2,0.45,101
10.2,0.6,103
10.2,0.75,104
10.2,0.9,104
10.2,1.05,104
10.2,1.2,103
10.2,1.35,103
10.2,1.5,102
10.35,-1.5,80
10.35,-1.35,77
10.35,-1.2,73
10.35,-1.05,68
10.35,-0.9,59
10.35,-0.75,47
10.35,-0.6,31
10.35,-0.45,20
10.35,-0.3,22
10.35,-0.15,38
10.35,0.0,58
10.35,0.15,74
10.35,0.3,85
10.35,0.45,92
10.35,0.6,96
10.35,0.75,99
10.35,0.9,100
10.35,1.05,101
10.35,1.2,101
10.35,1.35,98
10.35,1.5,97
10.5,-1.5,78
10.5,-1.35,74
10.5,-1.2,69
10.5,-1.05,62
10.5,-0.9,51
10.5,-0.75,35
10.5,-0.6,15
10.5,-0.45,0
10.5,-0.3,1
10.5,-0.15,20
10.5,0.0,43
10.5,0.15,62
10.5,0.3,76
10.5,0.45,84
10.5,0.6,90
10.5,0.75,94
10.5,0.9,96
10.5,1.05,95
10.5,1.2,95
10.5,1.35,95
10.5,1.5,94
10.65,-1.5,59
10.65,-1.35,57
10.65,-1.2,53
10.65,-1.05,47
10.65,-0.9,38
10.65,-0.75,31
10.65,-0.6,13
10.65,-0.45,0
10.65,-0.3,1
10.65,-0.15,17
10.65,0.0,38
10.65,0.15,56
10.65,0.3,69
10.65,0.45,79
10.65,0.6,85
10.65,0.75,87
10.65,0.9,89
10.65,1.05,91
10.65,1.2,91
10.65,1.35,91
10.65,1.5,91
10.8,-1.5,57
10.8,-1.35,55
10.8,-1.2,51
10.8,-1.05,46
10.8,-0.9,38
10.8,-0.75,28
10.8,-0.6,17
10.8,-0.45,10
10.8,-0.3,11
10.8,-0.15,25
10.8,0.0,40
10.8,0.15,55
10.8,0.3,55
10.8,0.45,62
10.8,0.6,67
10.8,0.75,70
10.8,0.9,85
10.8,1.05,87
10.8,1.2,88
10.8,1.35,88
10.8,1.5,88
10.95,-1.5,55
10.95,-1.35,53
10.95,-1.2,50
10.95,-1.05,46
10.95,-0.9,40
10.95,-0.75,33
10.95,-0.6,26
10.95,-0.45,22
10.95,-0.3,23
10.95,-0.15,29
10.95,0.0,36
10.95,0.15,45
10.95,0.3,54
10.95,0.45,60
10.95,0.6,64
10.95,0.75,67
10.95,0.9,82
10.95,1.05,83
10.95,1.2,84
10.95,1.35,84
10.95,1.5,84
11.1,-1.5,54
11.1,-1.35,52
11.1,-1.2,50
11.1,-1.05,46
11.1,-0.9,42
11.1,-0.75,38
11.1,-0.6,34
11.1,-0.45,31
11.1,-0.3,31
11.1,-0.15,35
11.1,0.0,40
11.1,0.15,46
11.1,0.3,52
11.1,0.45,56
11.1,0.6,59
11.1,0.75,61
11.1,0.9,65
11.1,1.05,80
11.1,1.2,80
11.1,1.35,80
11.1,1.5,80
11.25,-1.5,52
11.25,-1.35,51
11.25,-1.2,49
11.25,-1.05,47
11.25,-0.9,44
11.25,-0.75,40
11.25,-0.6,38
11.25,-0.45,37
11.25,-0.3,38
11.25,-0.15,40
11.25,0.0,43
11.25,0.15,47
11.25,0.3,51
11.25,0.45,54
11.25,0.6,57
11.25,0.75,58
11.25,0.9,59
11.25,1.05,60
11.25,1.2,60
11.25,1.35,59
11.25,1.5,76
11.4,-1.5,50
11.4,-1.35,49
11.4,-1.2,46
11.4,-1.05,45
11.4,-0.9,43
11.4,-0.75,42
11.4,-0.6,41
11.4,-0.45,41
11.4,-0.3,41
11.4,-0.15,43
11.4,0.0,45
11.4,0.15,48
11.4,0.3,50
11.4,0.45,53
11.4,0.6,54
11.4,0.75,55
11.4,0.9,56
11.4,1.05,56
11.4,1.2,56
11.4,1.35,55
11.4,1.5,55
11.55,-1.5,45
11.55,-1.35,44
11.55,-1.2,44
11.55,-1.05,44
11.55,-0.9,43
11.55,-0.75,43
11.55,-0.6,42
11.55,-0.45,43
11.55,-0.3,43
11.55,-0.15,45
11.55,0.0,46
11.55,0.15,48
11.55,0.3,49
11.55,0.45,51
11.55,0.6,51
11.55,0.75,52
11.55,0.9,52
11.55,1.05,52
11.55,1.2,51
11.55,1.35,50
11.55,1.5,50
11.7,-1.5,41
11.7,-1.35,41
11.7,-1.2,41
11.7,-1.05,41
11.7,-0.9,42
11.7,-0.75,42
11.7,-0.6,42
11.7,-0.45,43
11.7,-0.3,44
11.7,-0.15,45
11.7,0.0,46
11.7,0.15,47
11.7,0.3,48
11.7,0.45,48
11.7,0.6,48
11.7,0.75,48
11.7,0.9,48
11.7,1.05,47
11.7,1.2,46
11.7,1.35,45
11.7,1.5,44
11.85,-1.5,36
11.85,-1.35,37
11.85,-1.2,37
11.85,-1.05,38
11.85,-0.9,39
11.85,-0.75,40
11.85,-0.6,41
11.85,-0.45,42
11.85,-0.3,43
11.85,-0.15,44
11.85,0.0,45
11.85,0.15,45
11.85,0.3,46
11.85,0.45,46
11.85,0.6,45
11.85,0.75,44
11.85,0.9,43
11.85,1.05,42
11.85,1.2,40
11.85,1.35,39
11.85,1.5,38
12.0,-1.5,31
12.0,-1.35,31
12.0,-1.2,33
12.0,-1.05,34
12.0,-0.9,36
12.0,-0.75,37
12.0,-0.6,39
12.0,-0.45,40
12.0,-0.3,41
12.0,-0.15,42
12.0,0.0,43
12.0,0.15,43
12.0,0.3,43
12.0,0.45,42
12.0,0.6,41
12.0,0.75,40
12.0,0.9,38
12.0,1.05,36
12.0,1.2,34
12.0,1.35,32
12.0,1.5,31
12.15,-1.5,24
12.15,-1.35,25
12.15,-1.2,27
12.15,-1.05,29
12.15,-0.9,31
12.15,-0.75,34
12.15,-0.6,36
12.15,-0.45,38
12.15,-0.3,39
12.15,-0.15,40
12.15,0.0,41
12.15,0.15,41
12.15,0.3,40
12.15,0.45,39
12.15,0.6,37
12.15,0.75,35
12.15,0.9,32
12.15,1.05,30
12.15,1.2,27
12.15,1.35,25
12.15,1.5,24
12.3,-1.5,17
12.3,-1.35,18
12.3,-1.2,20
12.3,-1.05,23
12.3,-0.9,26
12.3,-0.75,30
12.3,-0.6,32
12.3,-0.45,35
12.3,-0.3,36
12.3,-0.15,38
12.3,0.0,38
12.3,0.15,38
12.3,0.3,37
12.3,0.45,35
12.3,0.6,33
12.3,0.75,30
12.3,0.9,27
12.3,1.05,23
12.3,1.2,20
12.3,1.35,18
12.3,1.5,17
12.45,-1.5,10
12.45,-1.35,11
12.45,-1.2,14
12.45,-1.05,17
12.45,-0.9,21
12.45,-0.75,25
12.45,-0.6,29
12.45,-0.45,32
12.45,-0.3,34
12.45,-0.15,35
12.45,0.0,36
12.45,0.15,35
12.45,0.3,34
12.45,0.45,32
12.45,0.6,29
12.45,0.75,25
12.45,0.9,21
12.45,1.05,17
12.45,1.2,13
12.45,1.35,10
12.45,1.5,9
12.6,-1.5,4
12.6,-1.35,5
12.6,-1.2,8
12.6,-1.05,12
12.6,-0.9,17
12.6,-0.75,21
12.6,-0.6,25
12.6,-0.45,29
12.6,-0.3,31
12.6,-0.15,33
12.6,0.0,33
12.6,0.15,33
12.6,0.3,31
12.6,0.45,29
12.6,0.6,25
12.6,0.75,21
12.6,0.9,16
12.6,1.05,11
12.6,1.2,7
12.6,1.35,4
12.6,1.5,3
12.75,-1.5,0
12.75,-1.35,0
12.75,-1.2,3
12.75,-1.05,8
12.75,-0.9,13
12.75,-0.75,18
12.75,-0.6,23
12.75,-0.45,26
12.75,-0.3,29
12.75,-0.15,31
12.75,0.0,31
12.75,0.15,31
12.75,0.3,29
12.75,0.45,26
12.75,0.6,22
12.75,0.75,18
12.75,0.9,12
12.75,1.05,7
12.75,1.2,3
12.75,1.35,0
12.75,1.5,0
12.9,-1.5,0
12.9,-1.35,0
12.9,-1.2,0
12.9,-1.05,5
12.9,-0.9,10
12.9,-0.75,16
12.9,-0.6,20
12.9,-0.45,24
12.9,-0.3,27
12.9,-0.15,29
12.9,0.0,29
12.9,0.15,29
12.9,0.3,27
12.9,0.45,24
12.9,0.6,20
12.9,0.75,15
12.9,0.9,10
12.9,1.05,5
12.9,1.2,0
12.9,1.35,0
12.9,1.5,0
13.05,-1.5,0
13.05,-1.35,0
13.05,-1.2,0
13.05,-1.05,4
13.05,-0.9,9
13.05,-0.75,14
13.05,-0.6,19
13.05,-0.45,23
13.05,-0.3,26
13.05,-0.15,27
13.05,0.0,28
13.05,0.15,27
13.05,0.3,26
13.05,0.45,23
13.05,0.6,19
13.05,0.75,14
13.05,0.9,9
13.05,1.05,4
13.05,1.2,0
13.05,1.35,0
13.05,1.5,0
