-3.0,-1.5,0
-3.0,-1.35,15
-3.0,-1.2,69
-3.0,-1.05,114
-3.0,-0.9,148
-3.0,-0.75,178
-3.0,-0.6,206
-3.0,-0.45,220
-3.0,-0.3,206
-3.0,-0.15,188
-3.0,0.0,174
-3.0,0.15,171
-3.0,0.3,158
-3.0,0.45,141
-3.0,0.6,119
-3.0,0.75,93
-3.0,0.9,75
-3.0,1.05,57
-3.0,1.2,32
-3.0,1.35,5
-3.0,1.5,0
-2.85,-1.5,17
-2.85,-1.35,44
-2.85,-1.2,91
-2.85,-1.05,130
-2.85,-0.9,153
-2.85,-0.75,177
-2.85,-0.6,206
-2.85,-0.45,221
-2.85,-0.3,205
-2.85,-0.15,189
-2.85,0.0,193
-2.85,0.15,190
-2.85,0.3,173
-2.85,0.45,142
-2.85,0.6,115
-2.85,0.75,90
-2.85,0.9,72
-2.85,1.05,59
-2.85,1.2,41
-2.85,1.35,17
-2.85,1.5,4
-2.7,-1.5,74
-2.7,-1.35,105
-2.7,-1.2,138
-2.7,-1.05,156
-2.7,-0.9,159
-2.7,-0.75,168
-2.7,-0.6,182
-2.7,-0.45,191
-2.7,-0.3,185
-2.7,-0.15,186
-2.7,0.0,208
-2.7,0.15,217
-2.7,0.3,189
-2.7,0.45,147
-2.7,0.6,112
-2.7,0.75,83
-2.7,0.9,64
-2.7,1.05,57
-2.7,1.2,52
-2.7,1.35,39
-2.7,1.5,29
-2.55,-1.5,125
-2.55,-1.35,163
-2.55,-1.2,193
-2.55,-1.05,185
-2.55,-0.9,168
-2.55,-0.75,157
-2.55,-0.6,157
-2.55,-0.45,159
-2.55,-0.3,161
-2.55,-0.15,175
-2.55,0.0,204
-2.55,0.15,217
-2.55,0.3,185
-2.55,0.45,143
-2.55,0.6,108
-2.55,0.75,77
-2.55,0.9,55
-2.55,1.05,52
-2.55,1.2,56
-2.55,1.35,51
-2.55,1.5,45
-2.4,-1.5,149
-2.4,-1.35,190
-2.4,-1.2,223
-2.4,-1.05,207
-2.4,-0.9,171
-2.4,-0.75,147
-2.4,-0.6,136
-2.4,-0.45,132
-2.4,-0.3,137
-2.4,-0.15,149
-2.4,0.0,167
-2.4,0.15,174
-2.4,0.3,156
-2.4,0.45,128
-2.4,0.6,104
-2.4,0.75,80
-2.4,0.9,60
-2.4,1.05,56
-2.4,1.2,59
-2.4,1.35,59
-2.4,1.5,61
-2.25,-1.5,149
-2.25,-1.35,179
-2.25,-1.2,201
-2.25,-1.05,191
-2.25,-0.9,158
-2.25,-0.75,132
-2.25,-0.6,115
-2.25,-0.45,110
-2.25,-0.3,111
-2.25,-0.15,118
-2.25,0.0,130
-2.25,0.15,134
-2.25,0.3,125
-2.25,0.45,113
-2.25,0.6,102
-2.25,0.75,83
-2.25,0.9,72
-2.25,1.05,67
-2.25,1.2,66
-2.25,1.35,70
-2.25,1.5,69
-2.1,-1.5,140
-2.1,-1.35,154
-2.1,-1.2,161
-2.1,-1.05,151
-2.1,-0.9,137
-2.1,-0.75,118
-2.1,-0.6,100
-2.1,-0.45,79
-2.1,-0.3,80
-2.1,-0.15,96
-2.1,0.0,108
-2.1,0.15,109
-2.1,0.3,104
-2.1,0.45,101
-2.1,0.6,101
-2.1,0.75,89
-2.1,0.9,82
-2.1,1.05,76
-2.1,1.2,77
-2.1,1.35,75
-2.1,1.5,73
-1.95,-1.5,122
-1.95,-1.35,127
-1.95,-1.2,132
-1.95,-1.05,127
-1.95,-0.9,125
-1.95,-0.75,109
-1.95,-0.6,91
-1.95,-0.45,58
-1.95,-0.3,61
-1.95,-0.15,84
-1.95,0.0,96
-1.95,0.15,87
-1.95,0.3,80
-1.95,0.45,94
-1.95,0.6,100
-1.95,0.75,99
-1.95,0.9,87
-1.95,1.05,80
-1.95,1.2,80
-1.95,1.35,75
-1.95,1.5,68
-1.8,-1.5,112
-1.8,-1.35,114
-1.8,-1.2,109
-1.8,-1.05,121
-1.8,-0.9,120
-1.8,-0.75,115
-1.8,-0.6,95
-1.8,-0.45,73
-1.8,-0.3,59
-1.8,-0.15,81
-1.8,0.0,97
-1.8,0.15,74
-1.8,0.3,60
-1.8,0.45,93
-1.8,0.6,102
-1.8,0.75,101
-1.8,0.9,96
-1.8,1.05,87
-1.8,1.2,72
-1.8,1.35,65
-1.8,1.5,64
-1.65,-1.5,94
-1.65,-1.35,105
-1.65,-1.2,109
-1.65,-1.05,114
-1.65,-0.9,130
-1.65,-0.75,152
-1.65,-0.6,107
-1.65,-0.45,73
-1.65,-0.3,67
-1.65,-0.15,96
-1.65,0.0,86
-1.65,0.15,119
-1.65,0.3,104
-1.65,0.45,108
-1.65,0.6,108
-1.65,0.75,104
-1.65,0.9,103
-1.65,1.05,87
-1.65,1.2,71
-1.65,1.35,56
-1.65,1.5,57
-1.5,-1.5,93
-1.5,-1.35,95
-1.5,-1.2,99
-1.5,-1.05,108
-1.5,-0.9,129
-1.5,-0.75,188
-1.5,-0.6,57
-1.5,-0.45,44
-1.5,-0.3,93
-1.5,-0.15,134
-1.5,0.0,238
-1.5,0.15,246
-1.5,0.3,146
-1.5,0.45,114
-1.5,0.6,109
-1.5,0.75,108
-1.5,0.9,104
-1.5,1.05,88
-1.5,1.2,69
-1.5,1.35,52
-1.5,1.5,55
-1.35,-1.5,82
-1.35,-1.35,84
-1.35,-1.2,87
-1.35,-1.05,92
-1.35,-0.9,100
-1.35,-0.75,111
-1.35,-0.6,76
-1.35,-0.45,77
-1.35,-0.3,115
-1.35,-0.15,149
-1.35,0.0,182
-1.35,0.15,188
-1.35,0.3,138
-1.35,0.45,108
-1.35,0.6,101
-1.35,0.75,108
-1.35,0.9,104
-1.35,1.05,97
-1.35,1.2,76
-1.35,1.35,62
-1.35,1.5,62
-1.2,-1.5,66
-1.2,-1.35,71
-1.2,-1.2,71
-1.2,-1.05,70
-1.2,-0.9,77
-1.2,-0.75,85
-1.2,-0.6,57
-1.2,-0.45,87
-1.2,-0.3,139
-1.2,-0.15,182
-1.2,0.0,173
-1.2,0.15,146
-1.2,0.3,106
-1.2,0.45,65
-1.2,0.6,77
-1.2,0.75,99
-1.2,0.9,105
-1.2,1.05,92
-1.2,1.2,84
-1.2,1.35,79
-1.2,1.5,72
-1.05,-1.5,55
-1.05,-1.35,56
-1.05,-1.2,62
-1.05,-1.05,54
-1.05,-0.9,60
-1.05,-0.75,86
-1.05,-0.6,91
-1.05,-0.45,115
-1.05,-0.3,133
-1.05,-0.15,133
-1.05,0.0,157
-1.05,0.15,122
-1.05,0.3,83
-1.05,0.45,67
-1.05,0.6,81
-1.05,0.75,99
-1.05,0.9,100
-1.05,1.05,94
-1.05,1.2,82
-1.05,1.35,79
-1.05,1.5,77
-0.9,-1.5,53
-0.9,-1.35,54
-0.9,-1.2,62
-0.9,-1.05,62
-0.9,-0.9,71
-0.9,-0.75,103
-0.9,-0.6,123
-0.9,-0.45,121
-0.9,-0.3,128
-0.9,-0.15,126
-0.9,0.0,125
-0.9,0.15,110
-0.9,0.3,75
-0.9,0.45,76
-0.9,0.6,95
-0.9,0.75,100
-0.9,0.9,108
-0.9,1.05,94
-0.9,1.2,76
-0.9,1.35,77
-0.9,1.5,77
-0.75,-1.5,59
-0.75,-1.35,61
-0.75,-1.2,62
-0.75,-1.05,67
-0.75,-0.9,80
-0.75,-0.75,127
-0.75,-0.6,186
-0.75,-0.45,155
-0.75,-0.3,125
-0.75,-0.15,132
-0.75,0.0,89
-0.75,0.15,100
-0.75,0.3,163
-0.75,0.45,141
-0.75,0.6,114
-0.75,0.75,110
-0.75,0.9,126
-0.75,1.05,115
-0.75,1.2,53
-0.75,1.35,74
-0.75,1.5,72
-0.6,-1.5,64
-0.6,-1.35,63
-0.6,-1.2,67
-0.6,-1.05,63
-0.6,-0.9,63
-0.6,-0.75,106
-0.6,-0.6,190
-0.6,-0.45,137
-0.6,-0.3,102
-0.6,-0.15,132
-0.6,0.0,164
-0.6,0.15,85
-0.6,0.3,115
-0.6,0.45,129
-0.6,0.6,120
-0.6,0.75,120
-0.6,0.9,144
-0.6,1.05,223
-0.6,1.2,109
-0.6,1.35,71
-0.6,1.5,62
-0.45,-1.5,64
-0.45,-1.35,62
-0.45,-1.2,60
-0.45,-1.05,49
-0.45,-0.9,18
-0.45,-0.75,34
-0.45,-0.6,82
-0.45,-0.45,59
-0.45,-0.3,41
-0.45,-0.15,85
-0.45,0.0,79
-0.45,0.15,10
-0.45,0.3,12
-0.45,0.45,87
-0.45,0.6,153
-0.45,0.75,134
-0.45,0.9,97
-0.45,1.05,113
-0.45,1.2,91
-0.45,1.35,60
-0.45,1.5,60
-0.3,-1.5,66
-0.3,-1.35,64
-0.3,-1.2,58
-0.3,-1.05,48
-0.3,-0.9,24
-0.3,-0.75,34
-0.3,-0.6,59
-0.3,-0.45,51
-0.3,-0.3,55
-0.3,-0.15,104
-0.3,0.0,66
-0.3,0.15,44
-0.3,0.3,49
-0.3,0.45,77
-0.3,0.6,116
-0.3,0.75,81
-0.3,0.9,66
-0.3,1.05,49
-0.3,1.2,56
-0.3,1.35,62
-0.3,1.5,62
-0.15,-1.5,68
-0.15,-1.35,67
-0.15,-1.2,64
-0.15,-1.05,63
-0.15,-0.9,58
-0.15,-0.75,55
-0.15,-0.6,63
-0.15,-0.45,68
-0.15,-0.3,136
-0.15,-0.15,103
-0.15,0.0,57
-0.15,0.15,50
-0.15,0.3,44
-0.15,0.45,67
-0.15,0.6,73
-0.15,0.75,63
-0.15,0.9,54
-0.15,1.05,3
-0.15,1.2,41
-0.15,1.35,57
-0.15,1.5,62
0.0,-1.5,68
0.0,-1.35,68
0.0,-1.2,74
0.0,-1.05,74
0.0,-0.9,69
0.0,-0.75,68
0.0,-0.6,79
0.0,-0.45,70
0.0,-0.3,23
0.0,-0.15,53
0.0,0.0,46
0.0,0.15,52
0.0,0.3,51
0.0,0.45,64
0.0,0.6,77
0.0,0.75,79
0.0,0.9,63
0.0,1.05,48
0.0,1.2,51
0.0,1.35,55
0.0,1.5,60
0.15,-1.5,64
0.15,-1.35,64
0.15,-1.2,67
0.15,-1.05,68
0.15,-0.9,76
0.15,-0.75,102
0.15,-0.6,170
0.15,-0.45,84
0.15,-0.3,45
0.15,-0.15,23
0.15,0.0,25
0.15,0.15,48
0.15,0.3,60
0.15,0.45,58
0.15,0.6,81
0.15,0.75,94
0.15,0.9,68
0.15,1.05,55
0.15,1.2,52
0.15,1.35,55
0.15,1.5,59
0.3,-1.5,64
0.3,-1.35,66
0.3,-1.2,65
0.3,-1.05,66
0.3,-0.9,72
0.3,-0.75,95
0.3,-0.6,133
0.3,-0.45,57
0.3,-0.3,36
0.3,-0.15,2
0.3,0.0,37
0.3,0.15,49
0.3,0.3,82
0.3,0.45,69
0.3,0.6,70
0.3,0.75,73
0.3,0.9,68
0.3,1.05,58
0.3,1.2,51
0.3,1.35,52
0.3,1.5,54
0.45,-1.5,62
0.45,-1.35,63
0.45,-1.2,65
0.45,-1.05,63
0.45,-0.9,66
0.45,-0.75,73
0.45,-0.6,79
0.45,-0.45,63
0.45,-0.3,46
0.45,-0.15,48
0.45,0.0,52
0.45,0.15,56
0.45,0.3,62
0.45,0.45,69
0.45,0.6,63
0.45,0.75,61
0.45,0.9,57
0.45,1.05,52
0.45,1.2,51
0.45,1.35,50
0.45,1.5,48
0.6,-1.5,59
0.6,-1.35,63
0.6,-1.2,63
0.6,-1.05,66
0.6,-0.9,73
0.6,-0.75,65
0.6,-0.6,70
0.6,-0.45,68
0.6,-0.3,89
0.6,-0.15,165
0.6,0.0,62
0.6,0.15,54
0.6,0.3,54
0.6,0.45,50
0.6,0.6,50
0.6,0.75,50
0.6,0.9,50
0.6,1.05,48
0.6,1.2,48
0.6,1.35,48
0.6,1.5,45
0.75,-1.5,55
0.75,-1.35,56
0.75,-1.2,57
0.75,-1.05,59
0.75,-0.9,59
0.75,-0.75,57
0.75,-0.6,55
0.75,-0.45,66
0.75,-0.3,92
0.75,-0.15,79
0.75,0.0,68
0.75,0.15,60
0.75,0.3,37
0.75,0.45,30
0.75,0.6,32
0.75,0.75,36
0.75,0.9,40
0.75,1.05,45
0.75,1.2,47
0.75,1.35,43
0.75,1.5,44
0.9,-1.5,53
0.9,-1.35,52
0.9,-1.2,44
0.9,-1.05,42
0.9,-0.9,34
0.9,-0.75,14
0.9,-0.6,48
0.9,-0.45,62
0.9,-0.3,74
0.9,-0.15,64
0.9,0.0,70
0.9,0.15,57
0.9,0.3,11
0.9,0.45,27
0.9,0.6,20
0.9,0.75,17
0.9,0.9,34
0.9,1.05,47
0.9,1.2,47
0.9,1.35,43
0.9,1.5,40
1.05,-1.5,41
1.05,-1.35,40
1.05,-1.2,38
1.05,-1.05,34
1.05,-0.9,28
1.05,-0.75,18
1.05,-0.6,44
1.05,-0.45,65
1.05,-0.3,99
1.05,-0.15,57
1.05,0.0,95
1.05,0.15,68
1.05,0.3,51
1.05,0.45,41
1.05,0.6,8
1.05,0.75,13
1.05,0.9,35
1.05,1.05,43
1.05,1.2,45
1.05,1.35,42
1.05,1.5,40
1.2,-1.5,41
1.2,-1.35,41
1.2,-1.2,31
1.2,-1.05,26
1.2,-0.9,27
1.2,-0.75,31
1.2,-0.6,47
1.2,-0.45,53
1.2,-0.3,57
1.2,-0.15,65
1.2,0.0,91
1.2,0.15,59
1.2,0.3,56
1.2,0.45,51
1.2,0.6,43
1.2,0.75,35
1.2,0.9,44
1.2,1.05,44
1.2,1.2,36
1.2,1.35,35
1.2,1.5,35
1.35,-1.5,37
1.35,-1.35,30
1.35,-1.2,31
1.35,-1.05,25
1.35,-0.9,11
1.35,-0.75,6
1.35,-0.6,55
1.35,-0.45,59
1.35,-0.3,53
1.35,-0.15,50
1.35,0.0,56
1.35,0.15,67
1.35,0.3,63
1.35,0.45,55
1.35,0.6,47
1.35,0.75,36
1.35,0.9,27
1.35,1.05,17
1.35,1.2,23
1.35,1.35,29
1.35,1.5,38
1.5,-1.5,30
1.5,-1.35,30
1.5,-1.2,30
1.5,-1.05,38
1.5,-0.9,6
1.5,-0.75,20
1.5,-0.6,68
1.5,-0.45,62
1.5,-0.3,67
1.5,-0.15,35
1.5,0.0,46
1.5,0.15,78
1.5,0.3,76
1.5,0.45,60
1.5,0.6,46
1.5,0.75,35
1.5,0.9,12
1.5,1.05,0
1.5,1.2,18
1.5,1.35,31
1.5,1.5,40
1.65,-1.5,31
1.65,-1.35,31
1.65,-1.2,34
1.65,-1.05,44
1.65,-0.9,27
1.65,-0.75,41
1.65,-0.6,90
1.65,-0.45,146
1.65,-0.3,40
1.65,-0.15,74
1.65,0.0,121
1.65,0.15,107
1.65,0.3,68
1.65,0.45,65
1.65,0.6,56
1.65,0.75,37
1.65,0.9,23
1.65,1.05,21
1.65,1.2,30
1.65,1.35,38
1.65,1.5,44
1.8,-1.5,26
1.8,-1.35,23
1.8,-1.2,25
1.8,-1.05,29
1.8,-0.9,26
1.8,-0.75,33
1.8,-0.6,29
1.8,-0.45,45
1.8,-0.3,62
1.8,-0.15,76
1.8,0.0,81
1.8,0.15,64
1.8,0.3,58
1.8,0.45,61
1.8,0.6,48
1.8,0.75,42
1.8,0.9,45
1.8,1.05,43
1.8,1.2,44
1.8,1.35,47
1.8,1.5,50
1.95,-1.5,30
1.95,-1.35,27
1.95,-1.2,23
1.95,-1.05,18
1.95,-0.9,12
1.95,-0.75,17
1.95,-0.6,28
1.95,-0.45,31
1.95,-0.3,48
1.95,-0.15,93
1.95,0.0,29
1.95,0.15,49
1.95,0.3,49
1.95,0.45,47
1.95,0.6,46
1.95,0.75,51
1.95,0.9,53
1.95,1.05,54
1.95,1.2,55
1.95,1.35,65
1.95,1.5,66
2.1,-1.5,36
2.1,-1.35,34
2.1,-1.2,29
2.1,-1.05,17
2.1,-0.9,2
2.1,-0.75,7
2.1,-0.6,25
2.1,-0.45,24
2.1,-0.3,51
2.1,-0.15,56
2.1,0.0,66
2.1,0.15,54
2.1,0.3,49
2.1,0.45,39
2.1,0.6,47
2.1,0.75,52
2.1,0.9,63
2.1,1.05,70
2.1,1.2,72
2.1,1.35,72
2.1,1.5,73
2.25,-1.5,45
2.25,-1.35,45
2.25,-1.2,34
2.25,-1.05,26
2.25,-0.9,27
2.25,-0.75,42
2.25,-0.6,20
2.25,-0.45,27
2.25,-0.3,51
2.25,-0.15,53
2.25,0.0,47
2.25,0.15,15
2.25,0.3,35
2.25,0.45,8
2.25,0.6,37
2.25,0.75,58
2.25,0.9,71
2.25,1.05,79
2.25,1.2,76
2.25,1.35,75
2.25,1.5,74
2.4,-1.5,45
2.4,-1.35,45
2.4,-1.2,37
2.4,-1.05,32
2.4,-0.9,40
2.4,-0.75,37
2.4,-0.6,55
2.4,-0.45,74
2.4,-0.3,39
2.4,-0.15,51
2.4,0.0,98
2.4,0.15,55
2.4,0.3,36
2.4,0.45,20
2.4,0.6,45
2.4,0.75,46
2.4,0.9,91
2.4,1.05,78
2.4,1.2,75
2.4,1.35,77
2.4,1.5,77
2.55,-1.5,45
2.55,-1.35,41
2.55,-1.2,42
2.55,-1.05,37
2.55,-0.9,39
2.55,-0.75,40
2.55,-0.6,48
2.55,-0.45,45
2.55,-0.3,0
2.55,-0.15,47
2.55,0.0,53
2.55,0.15,49
2.55,0.3,32
2.55,0.45,33
2.55,0.6,51
2.55,0.75,77
2.55,0.9,171
2.55,1.05,93
2.55,1.2,78
2.55,1.35,81
2.55,1.5,80
2.7,-1.5,46
2.7,-1.35,47
2.7,-1.2,50
2.7,-1.05,45
2.7,-0.9,39
2.7,-0.75,41
2.7,-0.6,33
2.7,-0.45,33
2.7,-0.3,52
2.7,-0.15,53
2.7,0.0,50
2.7,0.15,42
2.7,0.3,29
2.7,0.45,4
2.7,0.6,39
2.7,0.75,97
2.7,0.9,136
2.7,1.05,107
2.7,1.2,87
2.7,1.35,80
2.7,1.5,89
2.85,-1.5,50
2.85,-1.35,50
2.85,-1.2,49
2.85,-1.05,46
2.85,-0.9,34
2.85,-0.75,0
2.85,-0.6,46
2.85,-0.45,59
2.85,-0.3,132
2.85,-0.15,84
2.85,0.0,2
2.85,0.15,40
2.85,0.3,10
2.85,0.45,27
2.85,0.6,42
2.85,0.75,95
2.85,0.9,177
2.85,1.05,100
2.85,1.2,89
2.85,1.35,88
2.85,1.5,89
3.0,-1.5,65
3.0,-1.35,50
3.0,-1.2,58
3.0,-1.05,57
3.0,-0.9,55
3.0,-0.75,119
3.0,-0.6,153
3.0,-0.45,111
3.0,-0.3,147
3.0,-0.15,112
3.0,0.0,48
3.0,0.15,55
3.0,0.3,14
3.0,0.45,47
3.0,0.6,27
3.0,0.75,43
3.0,0.9,52
3.0,1.05,27
3.0,1.2,74
3.0,1.35,89
3.0,1.5,95
3.15,-1.5,82
3.15,-1.35,89
3.15,-1.2,76
3.15,-1.05,65
3.15,-0.9,81
3.15,-0.75,106
3.15,-0.6,102
3.15,-0.45,141
3.15,-0.3,184
3.15,-0.15,137
3.15,0.0,108
3.15,0.15,56
3.15,0.3,37
3.15,0.45,47
3.15,0.6,50
3.15,0.75,35
3.15,0.9,71
3.15,1.05,49
3.15,1.2,79
3.15,1.35,92
3.15,1.5,95
3.3,-1.5,89
3.3,-1.35,99
3.3,-1.2,91
3.3,-1.05,74
3.3,-0.9,59
3.3,-0.75,66
3.3,-0.6,81
3.3,-0.45,127
3.3,-0.3,158
3.3,-0.15,142
3.3,0.0,76
3.3,0.15,59
3.3,0.3,64
3.3,0.45,63
3.3,0.6,137
3.3,0.75,255
3.3,0.9,131
3.3,1.05,97
3.3,1.2,92
3.3,1.35,92
3.3,1.5,114
3.45,-1.5,92
3.45,-1.35,101
3.45,-1.2,99
3.45,-1.05,70
3.45,-0.9,61
3.45,-0.75,59
3.45,-0.6,107
3.45,-0.45,76
3.45,-0.3,106
3.45,-0.15,79
3.45,0.0,46
3.45,0.15,98
3.45,0.3,96
3.45,0.45,50
3.45,0.6,132
3.45,0.75,157
3.45,0.9,129
3.45,1.05,101
3.45,1.2,114
3.45,1.35,114
3.45,1.5,114
3.6,-1.5,103
3.6,-1.35,107
3.6,-1.2,113
3.6,-1.05,111
3.6,-0.9,77
3.6,-0.75,56
3.6,-0.6,68
3.6,-0.45,71
3.6,-0.3,80
3.6,-0.15,72
3.6,0.0,46
3.6,0.15,75
3.6,0.3,108
3.6,0.45,82
3.6,0.6,95
3.6,0.75,104
3.6,0.9,115
3.6,1.05,114
3.6,1.2,113
3.6,1.35,113
3.6,1.5,113
3.75,-1.5,106
3.75,-1.35,120
3.75,-1.2,152
3.75,-1.05,205
3.75,-0.9,133
3.75,-0.75,46
3.75,-0.6,88
3.75,-0.45,49
3.75,-0.3,92
3.75,-0.15,144
3.75,0.0,62
3.75,0.15,28
3.75,0.3,192
3.75,0.45,86
3.75,0.6,53
3.75,0.75,88
3.75,0.9,100
3.75,1.05,107
3.75,1.2,116
3.75,1.35,120
3.75,1.5,120
3.9,-1.5,103
3.9,-1.35,115
3.9,-1.2,147
3.9,-1.05,247
3.9,-0.9,158
3.9,-0.75,55
3.9,-0.6,78
3.9,-0.45,137
3.9,-0.3,137
3.9,-0.15,122
3.9,0.0,61
3.9,0.15,56
3.9,0.3,53
3.9,0.45,56
3.9,0.6,1
3.9,0.75,68
3.9,0.9,94
3.9,1.05,82
3.9,1.2,126
3.9,1.35,125
3.9,1.5,122
4.05,-1.5,94
4.05,-1.35,93
4.05,-1.2,92
4.05,-1.05,83
4.05,-0.9,66
4.05,-0.75,53
4.05,-0.6,115
4.05,-0.45,125
4.05,-0.3,82
4.05,-0.15,77
4.05,0.0,105
4.05,0.15,43
4.05,0.3,65
4.05,0.45,32
4.05,0.6,44
4.05,0.75,92
4.05,0.9,201
4.05,1.05,206
4.05,1.2,158
4.05,1.35,144
4.05,1.5,144
4.2,-1.5,83
4.2,-1.35,77
4.2,-1.2,63
4.2,-1.05,50
4.2,-0.9,39
4.2,-0.75,68
4.2,-0.6,119
4.2,-0.45,76
4.2,-0.3,40
4.2,-0.15,86
4.2,0.0,105
4.2,0.15,103
4.2,0.3,120
4.2,0.45,164
4.2,0.6,86
4.2,0.75,100
4.2,0.9,179
4.2,1.05,225
4.2,1.2,167
4.2,1.35,143
4.2,1.5,133
4.35,-1.5,75
4.35,-1.35,69
4.35,-1.2,59
4.35,-1.05,49
4.35,-0.9,37
4.35,-0.75,50
4.35,-0.6,91
4.35,-0.45,50
4.35,-0.3,12
4.35,-0.15,33
4.35,0.0,54
4.35,0.15,116
4.35,0.3,175
4.35,0.45,145
4.35,0.6,120
4.35,0.75,75
4.35,0.9,97
4.35,1.05,146
4.35,1.2,154
4.35,1.35,147
4.35,1.5,142
4.5,-1.5,66
4.5,-1.35,52
4.5,-1.2,48
4.5,-1.05,48
4.5,-0.9,42
4.5,-0.75,38
4.5,-0.6,129
4.5,-0.45,116
4.5,-0.3,39
4.5,-0.15,22
4.5,0.0,63
4.5,0.15,59
4.5,0.3,86
4.5,0.45,107
4.5,0.6,85
4.5,0.75,117
4.5,0.9,142
4.5,1.05,145
4.5,1.2,151
4.5,1.35,152
4.5,1.5,142
4.65,-1.5,62
4.65,-1.35,54
4.65,-1.2,52
4.65,-1.05,52
4.65,-0.9,58
4.65,-0.75,51
4.65,-0.6,72
4.65,-0.45,172
4.65,-0.3,77
4.65,-0.15,75
4.65,0.0,49
4.65,0.15,50
4.65,0.3,53
4.65,0.45,53
4.65,0.6,165
4.65,0.75,241
4.65,0.9,182
4.65,1.05,164
4.65,1.2,164
4.65,1.35,164
4.65,1.5,164
4.8,-1.5,82
4.8,-1.35,82
4.8,-1.2,83
4.8,-1.05,71
4.8,-0.9,60
4.8,-0.75,51
4.8,-0.6,53
4.8,-0.45,53
4.8,-0.3,197
4.8,-0.15,37
4.8,0.0,129
4.8,0.15,150
4.8,0.3,128
4.8,0.45,255
4.8,0.6,195
4.8,0.75,207
4.8,0.9,184
4.8,1.05,173
4.8,1.2,157
4.8,1.35,155
4.8,1.5,153
4.95,-1.5,95
4.95,-1.35,94
4.95,-1.2,96
4.95,-1.05,88
4.95,-0.9,51
4.95,-0.75,61
4.95,-0.6,88
4.95,-0.45,53
4.95,-0.3,97
4.95,-0.15,54
4.95,0.0,97
4.95,0.15,89
4.95,0.3,194
4.95,0.45,217
4.95,0.6,181
4.95,0.75,167
4.95,0.9,161
4.95,1.05,154
4.95,1.2,148
4.95,1.35,146
4.95,1.5,150
5.1,-1.5,112
5.1,-1.35,98
5.1,-1.2,107
5.1,-1.05,135
5.1,-0.9,125
5.1,-0.75,98
5.1,-0.6,89
5.1,-0.45,166
5.1,-0.3,84
5.1,-0.15,58
5.1,0.0,117
5.1,0.15,255
5.1,0.3,255
5.1,0.45,171
5.1,0.6,130
5.1,0.75,140
5.1,0.9,141
5.1,1.05,145
5.1,1.2,144
5.1,1.35,124
5.1,1.5,131
5.25,-1.5,110
5.25,-1.35,114
5.25,-1.2,132
5.25,-1.05,152
5.25,-0.9,177
5.25,-0.75,255
5.25,-0.6,84
5.25,-0.45,39
5.25,-0.3,47
5.25,-0.15,22
5.25,0.0,84
5.25,0.15,102
5.25,0.3,26
5.25,0.45,0
5.25,0.6,46
5.25,0.75,82
5.25,0.9,84
5.25,1.05,114
5.25,1.2,97
5.25,1.35,107
5.25,1.5,112
5.4,-1.5,107
5.4,-1.35,108
5.4,-1.2,110
5.4,-1.05,109
5.4,-0.9,95
5.4,-0.75,86
5.4,-0.6,18
5.4,-0.45,57
5.4,-0.3,55
5.4,-0.15,203
5.4,0.0,57
5.4,0.15,36
5.4,0.3,30
5.4,0.45,24
5.4,0.6,45
5.4,0.75,67
5.4,0.9,57
5.4,1.05,58
5.4,1.2,59
5.4,1.35,77
5.4,1.5,79
5.55,-1.5,93
5.55,-1.35,93
5.55,-1.2,93
5.55,-1.05,82
5.55,-0.9,66
5.55,-0.75,0
5.55,-0.6,76
5.55,-0.45,44
5.55,-0.3,223
5.55,-0.15,29
5.55,0.0,63
5.55,0.15,38
5.55,0.3,24
5.55,0.45,57
5.55,0.6,87
5.55,0.75,53
5.55,0.9,58
5.55,1.05,60
5.55,1.2,60
5.55,1.35,59
5.55,1.5,59
5.7,-1.5,103
5.7,-1.35,104
5.7,-1.2,97
5.7,-1.05,89
5.7,-0.9,85
5.7,-0.75,255
5.7,-0.6,95
5.7,-0.45,73
5.7,-0.3,29
5.7,-0.15,35
5.7,0.0,70
5.7,0.15,44
5.7,0.3,63
5.7,0.45,151
5.7,0.6,132
5.7,0.75,76
5.7,0.9,62
5.7,1.05,60
5.7,1.2,59
5.7,1.35,59
5.7,1.5,63
5.85,-1.5,96
5.85,-1.35,85
5.85,-1.2,85
5.85,-1.05,85
5.85,-0.9,84
5.85,-0.75,62
5.85,-0.6,58
5.85,-0.45,58
5.85,-0.3,9
5.85,-0.15,37
5.85,0.0,26
5.85,0.15,70
5.85,0.3,108
5.85,0.45,143
5.85,0.6,111
5.85,0.75,64
5.85,0.9,48
5.85,1.05,57
5.85,1.2,60
5.85,1.35,62
5.85,1.5,63
6.0,-1.5,85
6.0,-1.35,85
6.0,-1.2,85
6.0,-1.05,97
6.0,-0.9,86
6.0,-0.75,61
6.0,-0.6,3
6.0,-0.45,47
6.0,-0.3,54
6.0,-0.15,80
6.0,0.0,20
6.0,0.15,59
6.0,0.3,109
6.0,0.45,63
6.0,0.6,91
6.0,0.75,12
6.0,0.9,21
6.0,1.05,48
6.0,1.2,58
6.0,1.35,63
6.0,1.5,65
6.15,-1.5,112
6.15,-1.35,110
6.15,-1.2,89
6.15,-1.05,88
6.15,-0.9,97
6.15,-0.75,103
6.15,-0.6,36
6.15,-0.45,27
6.15,-0.3,30
6.15,-0.15,80
6.15,0.0,80
6.15,0.15,123
6.15,0.3,71
6.15,0.45,56
6.15,0.6,61
6.15,0.75,49
6.15,0.9,45
6.15,1.05,57
6.15,1.2,69
6.15,1.35,74
6.15,1.5,77
6.3,-1.5,105
6.3,-1.35,102
6.3,-1.2,97
6.3,-1.05,86
6.3,-0.9,92
6.3,-0.75,159
6.3,-0.6,178
6.3,-0.45,34
6.3,-0.3,2
6.3,-0.15,51
6.3,0.0,38
6.3,0.15,21
6.3,0.3,51
6.3,0.45,58
6.3,0.6,61
6.3,0.75,60
6.3,0.9,56
6.3,1.05,64
6.3,1.2,68
6.3,1.35,71
6.3,1.5,74
6.45,-1.5,104
6.45,-1.35,100
6.45,-1.2,89
6.45,-1.05,70
6.45,-0.9,80
6.45,-0.75,98
6.45,-0.6,61
6.45,-0.45,80
6.45,-0.3,30
6.45,-0.15,48
6.45,0.0,52
6.45,0.15,83
6.45,0.3,124
6.45,0.45,42
6.45,0.6,59
6.45,0.75,53
6.45,0.9,50
6.45,1.05,54
6.45,1.2,61
6.45,1.35,66
6.45,1.5,59
6.6,-1.5,98
6.6,-1.35,95
6.6,-1.2,91
6.6,-1.05,81
6.6,-0.9,70
6.6,-0.75,58
6.6,-0.6,95
6.6,-0.45,49
6.6,-0.3,41
6.6,-0.15,45
6.6,0.0,56
6.6,0.15,78
6.6,0.3,41
6.6,0.45,73
6.6,0.6,73
6.6,0.75,73
6.6,0.9,52
6.6,1.05,50
6.6,1.2,48
6.6,1.35,47
6.6,1.5,55
6.75,-1.5,90
6.75,-1.35,88
6.75,-1.2,86
6.75,-1.05,84
6.75,-0.9,60
6.75,-0.75,51
6.75,-0.6,73
6.75,-0.45,60
6.75,-0.3,15
6.75,-0.15,208
6.75,0.0,55
6.75,0.15,6
6.75,0.3,2
6.75,0.45,28
6.75,0.6,37
6.75,0.75,44
6.75,0.9,48
6.75,1.05,48
6.75,1.2,37
6.75,1.35,55
6.75,1.5,55
6.9,-1.5,90
6.9,-1.35,90
6.9,-1.2,85
6.9,-1.05,81
6.9,-0.9,74
6.9,-0.75,63
6.9,-0.6,139
6.9,-0.45,5
6.9,-0.3,113
6.9,-0.15,0
6.9,0.0,48
6.9,0.15,28
6.9,0.3,33
6.9,0.45,30
6.9,0.6,17
6.9,0.75,26
6.9,0.9,35
6.9,1.05,37
6.9,1.2,38
6.9,1.35,38
6.9,1.5,23
7.05,-1.5,81
7.05,-1.35,82
7.05,-1.2,82
7.05,-1.05,61
7.05,-0.9,59
7.05,-0.75,53
7.05,-0.6,39
7.05,-0.45,15
7.05,-0.3,44
7.05,-0.15,0
7.05,0.0,87
7.05,0.15,148
7.05,0.3,64
7.05,0.45,26
7.05,0.6,27
7.05,0.75,33
7.05,0.9,37
7.05,1.05,40
7.05,1.2,53
7.05,1.35,70
7.05,1.5,56
7.2,-1.5,67
7.2,-1.35,79
7.2,-1.2,65
7.2,-1.05,81
7.2,-0.9,83
7.2,-0.75,83
7.2,-0.6,255
7.2,-0.45,17
7.2,-0.3,35
7.2,-0.15,37
7.2,0.0,76
7.2,0.15,102
7.2,0.3,7
7.2,0.45,9
7.2,0.6,34
7.2,0.75,36
7.2,0.9,44
7.2,1.05,48
7.2,1.2,50
7.2,1.35,52
7.2,1.5,53
7.35,-1.5,79
7.35,-1.35,78
7.35,-1.2,78
7.35,-1.05,79
7.35,-0.9,81
7.35,-0.75,69
7.35,-0.6,86
7.35,-0.45,26
7.35,-0.3,3
7.35,-0.15,26
7.35,0.0,2
7.35,0.15,16
7.35,0.3,39
7.35,0.45,31
7.35,0.6,29
7.35,0.75,54
7.35,0.9,53
7.35,1.05,55
7.35,1.2,56
7.35,1.35,56
7.35,1.5,56
7.5,-1.5,79
7.5,-1.35,79
7.5,-1.2,79
7.5,-1.05,61
7.5,-0.9,66
7.5,-0.75,112
7.5,-0.6,19
7.5,-0.45,19
7.5,-0.3,34
7.5,-0.15,26
7.5,0.0,46
7.5,0.15,56
7.5,0.3,209
7.5,0.45,50
7.5,0.6,59
7.5,0.75,78
7.5,0.9,73
7.5,1.05,74
7.5,1.2,62
7.5,1.35,61
7.5,1.5,60
7.65,-1.5,55
7.65,-1.35,65
7.65,-1.2,64
7.65,-1.05,60
7.65,-0.9,60
7.65,-0.75,65
7.65,-0.6,59
7.65,-0.45,52
7.65,-0.3,47
7.65,-0.15,103
7.65,0.0,61
7.65,0.15,166
7.65,0.3,24
7.65,0.45,73
7.65,0.6,85
7.65,0.75,90
7.65,0.9,77
7.65,1.05,72
7.65,1.2,68
7.65,1.35,65
7.65,1.5,63
7.8,-1.5,55
7.8,-1.35,55
7.8,-1.2,62
7.8,-1.05,62
7.8,-0.9,63
7.8,-0.75,60
7.8,-0.6,47
7.8,-0.45,43
7.8,-0.3,51
7.8,-0.15,37
7.8,0.0,46
7.8,0.15,54
7.8,0.3,42
7.8,0.45,61
7.8,0.6,118
7.8,0.75,118
7.8,0.9,97
7.8,1.05,83
7.8,1.2,76
7.8,1.35,68
7.8,1.5,65
7.95,-1.5,55
7.95,-1.35,55
7.95,-1.2,55
7.95,-1.05,57
7.95,-0.9,54
7.95,-0.75,48
7.95,-0.6,35
7.95,-0.45,58
7.95,-0.3,58
7.95,-0.15,48
7.95,0.0,33
7.95,0.15,49
7.95,0.3,8
7.95,0.45,62
7.95,0.6,211
7.95,0.75,158
7.95,0.9,115
7.95,1.05,99
7.95,1.2,91
7.95,1.35,87
7.95,1.5,85
8.1,-1.5,81
8.1,-1.35,80
8.1,-1.2,67
8.1,-1.05,55
8.1,-0.9,65
8.1,-0.75,47
8.1,-0.6,39
8.1,-0.45,48
8.1,-0.3,58
8.1,-0.15,54
8.1,0.0,26
8.1,0.15,30
8.1,0.3,30
8.1,0.45,70
8.1,0.6,111
8.1,0.75,121
8.1,0.9,103
8.1,1.05,90
8.1,1.2,93
8.1,1.35,89
8.1,1.5,86
8.25,-1.5,66
8.25,-1.35,66
8.25,-1.2,67
8.25,-1.05,68
8.25,-0.9,68
8.25,-0.75,63
8.25,-0.6,75
8.25,-0.45,53
8.25,-0.3,111
8.25,-0.15,48
8.25,0.0,26
8.25,0.15,37
8.25,0.3,46
8.25,0.45,68
8.25,0.6,82
8.25,0.75,93
8.25,0.9,98
8.25,1.05,87
8.25,1.2,82
8.25,1.35,74
8.25,1.5,71
8.4,-1.5,71
8.4,-1.35,67
8.4,-1.2,64
8.4,-1.05,65
8.4,-0.9,70
8.4,-0.75,72
8.4,-0.6,120
8.4,-0.45,44
8.4,-0.3,178
8.4,-0.15,15
8.4,0.0,12
8.4,0.15,0
8.4,0.3,124
8.4,0.45,111
8.4,0.6,95
8.4,0.75,90
8.4,0.9,87
8.4,1.05,101
8.4,1.2,101
8.4,1.35,80
8.4,1.5,78
8.55,-1.5,83
8.55,-1.35,65
8.55,-1.2,65
8.55,-1.05,64
8.55,-0.9,57
8.55,-0.75,56
8.55,-0.6,29
8.55,-0.45,40
8.55,-0.3,32
8.55,-0.15,85
8.55,0.0,111
8.55,0.15,68
8.55,0.3,160
8.55,0.45,143
8.55,0.6,114
8.55,0.75,101
8.55,0.9,101
8.55,1.05,101
8.55,1.2,98
8.55,1.35,102
8.55,1.5,101
8.7,-1.5,69
8.7,-1.35,59
8.7,-1.2,58
8.7,-1.05,59
8.7,-0.9,39
8.7,-0.75,24
8.7,-0.6,29
8.7,-0.45,42
8.7,-0.3,79
8.7,-0.15,64
8.7,0.0,49
8.7,0.15,85
8.7,0.3,113
8.7,0.45,114
8.7,0.6,104
8.7,0.75,98
8.7,0.9,100
8.7,1.05,98
8.7,1.2,99
8.7,1.35,99
8.7,1.5,103
8.85,-1.5,53
8.85,-1.35,49
8.85,-1.2,49
8.85,-1.05,45
8.85,-0.9,56
8.85,-0.75,45
8.85,-0.6,44
8.85,-0.45,124
8.85,-0.3,34
8.85,-0.15,54
8.85,0.0,38
8.85,0.15,45
8.85,0.3,149
8.85,0.45,91
8.85,0.6,67
8.85,0.75,81
8.85,0.9,84
8.85,1.05,101
8.85,1.2,104
8.85,1.35,106
8.85,1.5,107
9.0,-1.5,66
9.0,-1.35,64
9.0,-1.2,65
9.0,-1.05,66
9.0,-0.9,66
9.0,-0.75,63
9.0,-0.6,37
9.0,-0.45,34
9.0,-0.3,124
9.0,-0.15,19
9.0,0.0,24
9.0,0.15,90
9.0,0.3,113
9.0,0.45,41
9.0,0.6,26
9.0,0.75,70
9.0,0.9,88
9.0,1.05,97
9.0,1.2,101
9.0,1.35,113
9.0,1.5,115
9.15,-1.5,65
9.15,-1.35,66
9.15,-1.2,68
9.15,-1.05,72
9.15,-0.9,83
9.15,-0.75,144
9.15,-0.6,110
9.15,-0.45,131
9.15,-0.3,103
9.15,-0.15,106
9.15,0.0,40
9.15,0.15,62
9.15,0.3,75
9.15,0.45,45
9.15,0.6,33
9.15,0.75,62
9.15,0.9,78
9.15,1.05,94
9.15,1.2,97
9.15,1.35,99
9.15,1.5,100
9.3,-1.5,65
9.3,-1.35,66
9.3,-1.2,68
9.3,-1.05,86
9.3,-0.9,86
9.3,-0.75,79
9.3,-0.6,75
9.3,-0.45,30
9.3,-0.3,74
9.3,-0.15,89
9.3,0.0,68
9.3,0.15,98
9.3,0.3,80
9.3,0.45,67
9.3,0.6,66
9.3,0.75,75
9.3,0.9,87
9.3,1.05,94
9.3,1.2,93
9.3,1.35,97
9.3,1.5,100
9.45,-1.5,79
9.45,-1.35,82
9.45,-1.2,82
9.45,-1.05,81
9.45,-0.9,79
9.45,-0.75,67
9.45,-0.6,62
9.45,-0.45,71
9.45,-0.3,41
9.45,-0.15,60
9.45,0.0,79
9.45,0.15,89
9.45,0.3,82
9.45,0.45,66
9.45,0.6,79
9.45,0.75,88
9.45,0.9,103
9.45,1.05,103
9.45,1.2,97
9.45,1.35,92
9.45,1.5,92
9.6,-1.5,70
9.6,-1.35,69
9.6,-1.2,68
9.6,-1.05,77
9.6,-0.9,74
9.6,-0.75,61
9.6,-0.6,67
9.6,-0.45,173
9.6,-0.3,47
9.6,-0.15,151
9.6,0.0,90
9.6,0.15,88
9.6,0.3,91
9.6,0.45,85
9.6,0.6,82
9.6,0.75,94
9.6,0.9,106
9.6,1.05,105
9.6,1.2,98
9.6,1.35,93
9.6,1.5,90
9.75,-1.5,68
9.75,-1.35,67
9.75,-1.2,57
9.75,-1.05,66
9.75,-0.9,51
9.75,-0.75,48
9.75,-0.6,0
9.75,-0.45,61
9.75,-0.3,86
9.75,-0.15,80
9.75,0.0,100
9.75,0.15,99
9.75,0.3,94
9.75,0.45,94
9.75,0.6,87
9.75,0.75,91
9.75,0.9,96
9.75,1.05,100
9.75,1.2,97
9.75,1.35,95
9.75,1.5,90
9.9,-1.5,53
9.9,-1.35,63
9.9,-1.2,46
9.9,-1.05,46
9.9,-0.9,46
9.9,-0.75,43
9.9,-0.6,39
9.9,-0.45,55
9.9,-0.3,74
9.9,-0.15,86
9.9,0.0,61
9.9,0.15,67
9.9,0.3,78
9.9,0.45,85
9.9,0.6,89
9.9,0.75,85
9.9,0.9,88
9.9,1.05,90
9.9,1.2,81
9.9,1.35,76
9.9,1.5,89
10.05,-1.5,84
10.05,-1.35,82
10.05,-1.2,80
10.05,-1.05,77
10.05,-0.9,64
10.05,-0.75,49
10.05,-0.6,52
10.05,-0.45,7
10.05,-0.3,47
10.05,-0.15,47
10.05,0.0,52
10.05,0.15,47
10.05,0.3,50
10.05,0.45,56
10.05,0.6,84
10.05,0.75,84
10.05,0.9,76
10.05,1.05,72
10.05,1.2,73
10.05,1.35,72
10.05,1.5,71
10.2,-1.5,106
10.2,-1.35,105
10.2,-1.2,108
10.2,-1.05,107
10.2,-0.9,111
10.2,-0.75,105
10.2,-0.6,79
10.2,-0.45,131
10.2,-0.3,184
10.2,-0.15,47
10.2,0.0,47
10.2,0.15,71
10.2,0.3,70
10.2,0.45,74
10.2,0.6,81
10.2,0.75,73
10.2,0.9,69
10.2,1.05,74
10.2,1.2,74
10.2,1.35,68
10.2,1.5,68
10.35,-1.5,110
10.35,-1.35,111
10.35,-1.2,116
10.35,-1.05,139
10.35,-0.9,139
10.35,-0.75,149
10.35,-0.6,158
10.35,-0.45,202
10.35,-0.3,199
10.35,-0.15,129
10.35,0.0,79
10.35,0.15,76
10.35,0.3,78
10.35,0.45,79
10.35,0.6,81
10.35,0.75,81
10.35,0.9,73
10.35,1.05,52
10.35,1.2,38
10.35,1.35,71
10.35,1.5,72
10.5,-1.5,113
10.5,-1.35,126
10.5,-1.2,127
10.5,-1.05,143
10.5,-0.9,147
10.5,-0.75,155
10.5,-0.6,178
10.5,-0.45,174
10.5,-0.3,193
10.5,-0.15,81
10.5,0.0,86
10.5,0.15,71
10.5,0.3,64
10.5,0.45,65
10.5,0.6,65
10.5,0.75,75
10.5,0.9,64
10.5,1.05,75
10.5,1.2,78
10.5,1.35,81
10.5,1.5,71
10.65,-1.5,105
10.65,-1.35,107
10.65,-1.2,116
10.65,-1.05,120
10.65,-0.9,134
10.65,-0.75,145
10.65,-0.6,150
10.65,-0.45,58
10.65,-0.3,33
10.65,-0.15,48
10.65,0.0,82
10.65,0.15,89
10.65,0.3,91
10.65,0.45,80
10.65,0.6,85
10.65,0.75,94
10.65,0.9,80
10.65,1.05,84
10.65,1.2,87
10.65,1.35,89
10.65,1.5,90
10.8,-1.5,108
10.8,-1.35,105
10.8,-1.2,106
10.8,-1.05,114
10.8,-0.9,127
10.8,-0.75,133
10.8,-0.6,135
10.8,-0.45,100
10.8,-0.3,144
10.8,-0.15,108
10.8,0.0,96
10.8,0.15,98
10.8,0.3,97
10.8,0.45,97
10.8,0.6,123
10.8,0.75,123
10.8,0.9,127
10.8,1.05,113
10.8,1.2,114
10.8,1.35,94
10.8,1.5,94
10.95,-1.5,128
10.95,-1.35,128
10.95,-1.2,134
10.95,-1.05,119
10.95,-0.9,117
10.95,-0.75,116
10.95,-0.6,92
10.95,-0.45,79
10.95,-0.3,113
10.95,-0.15,102
10.95,0.0,110
10.95,0.15,104
10.95,0.3,101
10.95,0.45,125
10.95,0.6,128
10.95,0.75,133
10.95,0.9,136
10.95,1.05,138
10.95,1.2,142
10.95,1.35,142
10.95,1.5,117
11.1,-1.5,126
11.1,-1.35,119
11.1,-1.2,119
11.1,-1.05,134
11.1,-0.9,131
11.1,-0.75,129
11.1,-0.6,114
11.1,-0.45,104
11.1,-0.3,172
11.1,-0.15,120
11.1,0.0,97
11.1,0.15,93
11.1,0.3,116
11.1,0.45,127
11.1,0.6,137
11.1,0.75,143
11.1,0.9,146
11.1,1.05,146
11.1,1.2,165
11.1,1.35,149
11.1,1.5,148
11.25,-1.5,155
11.25,-1.35,146
11.25,-1.2,145
11.25,-1.05,145
11.25,-0.9,136
11.25,-0.75,118
11.25,-0.6,129
11.25,-0.45,116
11.25,-0.3,70
11.25,-0.15,70
11.25,0.0,57
11.25,0.15,83
11.25,0.3,105
11.25,0.45,121
11.25,0.6,138
11.25,0.75,143
11.25,0.9,159
11.25,1.05,157
11.25,1.2,136
11.25,1.35,133
11.25,1.5,126
11.4,-1.5,151
11.4,-1.35,134
11.4,-1.2,134
11.4,-1.05,132
11.4,-0.9,136
11.4,-0.75,161
11.4,-0.6,165
11.4,-0.45,145
11.4,-0.3,82
11.4,-0.15,28
11.4,0.0,42
11.4,0.15,66
11.4,0.3,101
11.4,0.45,140
11.4,0.6,176
11.4,0.75,171
11.4,0.9,155
11.4,1.05,144
11.4,1.2,136
11.4,1.35,125
11.4,1.5,118
11.55,-1.5,133
11.55,-1.35,132
11.55,-1.2,130
11.55,-1.05,125
11.55,-0.9,122
11.55,-0.75,146
11.55,-0.6,219
11.55,-0.45,208
11.55,-0.3,86
11.55,-0.15,21
11.55,0.0,40
11.55,0.15,73
11.55,0.3,133
11.55,0.45,246
11.55,0.6,254
11.55,0.75,209
11.55,0.9,175
11.55,1.05,155
11.55,1.2,138
11.55,1.35,130
11.55,1.5,122
11.7,-1.5,113
11.7,-1.35,112
11.7,-1.2,109
11.7,-1.05,128
11.7,-0.9,92
11.7,-0.75,80
11.7,-0.6,174
11.7,-0.45,175
11.7,-0.3,57
11.7,-0.15,32
11.7,0.0,36
11.7,0.15,74
11.7,0.3,176
11.7,0.45,255
11.7,0.6,255
11.7,0.75,229
11.7,0.9,194
11.7,1.05,171
11.7,1.2,155
11.7,1.35,142
11.7,1.5,133
11.85,-1.5,118
11.85,-1.35,115
11.85,-1.2,103
11.85,-1.05,96
11.85,-0.9,92
11.85,-0.75,100
11.85,-0.6,136
11.85,-0.45,101
11.85,-0.3,53
11.85,-0.15,43
11.85,0.0,45
11.85,0.15,83
11.85,0.3,157
11.85,0.45,240
11.85,0.6,255
11.85,0.75,220
11.85,0.9,192
11.85,1.05,171
11.85,1.2,155
11.85,1.35,141
11.85,1.5,133
12.0,-1.5,122
12.0,-1.35,120
12.0,-1.2,118
12.0,-1.05,114
12.0,-0.9,103
12.0,-0.75,109
12.0,-0.6,42
12.0,-0.45,110
12.0,-0.3,129
12.0,-0.15,52
12.0,0.0,70
12.0,0.15,110
12.0,0.3,158
12.0,0.45,200
12.0,0.6,213
12.0,0.75,208
12.0,0.9,195
12.0,1.05,178
12.0,1.2,163
12.0,1.35,150
12.0,1.5,142
12.15,-1.5,87
12.15,-1.35,107
12.15,-1.2,108
12.15,-1.05,110
12.15,-0.9,108
12.15,-0.75,87
12.15,-0.6,115
12.15,-0.45,181
12.15,-0.3,53
12.15,-0.15,79
12.15,0.0,75
12.15,0.15,111
12.15,0.3,203
12.15,0.45,247
12.15,0.6,228
12.15,0.75,209
12.15,0.9,182
12.15,1.05,166
12.15,1.2,151
12.15,1.35,137
12.15,1.5,125
12.3,-1.5,90
12.3,-1.35,98
12.3,-1.2,121
12.3,-1.05,129
12.3,-0.9,150
12.3,-0.75,115
12.3,-0.6,89
12.3,-0.45,58
12.3,-0.3,139
12.3,-0.15,209
12.3,0.0,57
12.3,0.15,120
12.3,0.3,255
12.3,0.45,255
12.3,0.6,246
12.3,0.75,199
12.3,0.9,176
12.3,1.05,157
12.3,1.2,140
12.3,1.35,125
12.3,1.5,112
12.45,-1.5,103
12.45,-1.35,115
12.45,-1.2,125
12.45,-1.05,154
12.45,-0.9,185
12.45,-0.75,255
12.45,-0.6,99
12.45,-0.45,92
12.45,-0.3,60
12.45,-0.15,77
12.45,0.0,70
12.45,0.15,120
12.45,0.3,205
12.45,0.45,255
12.45,0.6,224
12.45,0.75,186
12.45,0.9,162
12.45,1.05,142
12.45,1.2,122
12.45,1.35,103
12.45,1.5,90
12.6,-1.5,80
12.6,-1.35,95
12.6,-1.2,114
12.6,-1.05,133
12.6,-0.9,153
12.6,-0.75,143
12.6,-0.6,118
12.6,-0.45,53
12.6,-0.3,41
12.6,-0.15,49
12.6,0.0,38
12.6,0.15,77
12.6,0.3,117
12.6,0.45,146
12.6,0.6,161
12.6,0.75,150
12.6,0.9,132
12.6,1.05,123
12.6,1.2,98
12.6,1.35,74
12.6,1.5,60
12.75,-1.5,47
12.75,-1.35,68
12.75,-1.2,86
12.75,-1.05,102
12.75,-0.9,108
12.75,-0.75,107
12.75,-0.6,120
12.75,-0.45,22
12.75,-0.3,1
12.75,-0.15,23
12.75,0.0,30
12.75,0.15,61
12.75,0.3,94
12.75,0.45,113
12.75,0.6,107
12.75,0.75,101
12.75,0.9,109
12.75,1.05,88
12.75,1.2,61
12.75,1.35,34
12.75,1.5,21
12.9,-1.5,5
12.9,-1.35,31
12.9,-1.2,70
12.9,-1.05,83
12.9,-0.9,81
12.9,-0.75,57
12.9,-0.6,45
12.9,-0.45,16
12.9,-0.3,25
12.9,-0.15,35
12.9,0.0,30
12.9,0.15,33
12.9,0.3,61
12.9,0.45,81
12.9,0.6,85
12.9,0.75,94
12.9,0.9,82
12.9,1.05,81
12.9,1.2,40
12.9,1.35,10
12.9,1.5,0
13.05,-1.5,0
13.05,-1.35,20
13.05,-1.2,57
13.05,-1.05,71
13.05,-0.9,64
13.05,-0.75,40
13.05,-0.6,18
13.05,-0.45,37
13.05,-0.3,37
13.05,-0.15,37
13.05,0.0,32
13.05,0.15,34
13.05,0.3,55
13.05,0.45,63
13.05,0.6,73
13.05,0.75,71
13.05,0.9,63
13.05,1.05,54
13.05,1.2,37
13.05,1.35,6
13.05,1.5,0
