-3.0,-1.5,0
-3.0,-1.35,0
-3.0,-1.2,10
-3.0,-1.05,23
-3.0,-0.9,37
-3.0,-0.75,50
-3.0,-0.6,60
-3.0,-0.45,67
-3.0,-0.3,72
-3.0,-0.15,76
-3.0,0.0,78
-3.0,0.15,78
-3.0,0.3,77
-3.0,0.45,73
-3.0,0.6,67
-3.0,0.75,57
-3.0,0.9,44
-3.0,1.05,28
-3.0,1.2,13
-3.0,1.35,1
-3.0,1.5,0
-2.85,-1.5,0
-2.85,-1.35,4
-2.85,-1.2,14
-2.85,-1.05,27
-2.85,-0.9,41
-2.85,-0.75,54
-2.85,-0.6,63
-2.85,-0.45,70
-2.85,-0.3,76
-2.85,-0.15,79
-2.85,0.0,81
-2.85,0.15,82
-2.85,0.3,81
-2.85,0.45,78
-2.85,0.6,72
-2.85,0.75,63
-2.85,0.9,50
-2.85,1.05,34
-2.85,1.2,18
-2.85,1.35,6
-2.85,1.5,1
-2.7,-1.5,10
-2.7,-1.35,14
-2.7,-1.2,23
-2.7,-1.05,36
-2.7,-0.9,48
-2.7,-0.75,59
-2.7,-0.6,68
-2.7,-0.45,74
-2.7,-0.3,79
-2.7,-0.15,82
-2.7,0.0,84
-2.7,0.15,85
-2.7,0.3,85
-2.7,0.45,83
-2.7,0.6,79
-2.7,0.75,71
-2.7,0.9,60
-2.7,1.05,46
-2.7,1.2,31
-2.7,1.35,19
-2.7,1.5,14
-2.55,-1.5,24
-2.55,-1.35,28
-2.55,-1.2,36
-2.55,-1.05,47
-2.55,-0.9,57
-2.55,-0.75,66
-2.55,-0.6,73
-2.55,-0.45,78
-2.55,-0.3,82
-2.55,-0.15,85
-2.55,0.0,88
-2.55,0.15,89
-2.55,0.3,90
-2.55,0.45,89
-2.55,0.6,86
-2.55,0.75,81
-2.55,0.9,72
-2.55,1.05,61
-2.55,1.2,49
-2.55,1.35,39
-2.55,1.5,34
-2.4,-1.5,39
-2.4,-1.35,43
-2.4,-1.2,50
-2.4,-1.05,58
-2.4,-0.9,66
-2.4,-0.75,72
-2.4,-0.6,78
-2.4,-0.45,82
-2.4,-0.3,85
-2.4,-0.15,87
-2.4,0.0,90
-2.4,0.15,92
-2.4,0.3,94
-2.4,0.45,95
-2.4,0.6,94
-2.4,0.75,91
-2.4,0.9,86
-2.4,1.05,78
-2.4,1.2,68
-2.4,1.35,60
-2.4,1.5,55
-2.25,-1.5,53
-2.25,-1.35,56
-2.25,-1.2,62
-2.25,-1.05,67
-2.25,-0.9,73
-2.25,-0.75,78
-2.25,-0.6,81
-2.25,-0.45,84
-2.25,-0.3,86
-2.25,-0.15,88
-2.25,0.0,91
-2.25,0.15,94
-2.25,0.3,98
-2.25,0.45,101
-2.25,0.6,102
-2.25,0.75,102
-2.25,0.9,99
-2.25,1.05,93
-2.25,1.2,87
-2.25,1.35,82
-2.25,1.5,76
-2.1,-1.5,66
-2.1,-1.35,69
-2.1,-1.2,73
-2.1,-1.05,75
-2.1,-0.9,79
-2.1,-0.75,82
-2.1,-0.6,84
-2.1,-0.45,85
-2.1,-0.3,85
-2.1,-0.15,87
-2.1,0.0,90
-2.1,0.15,94
-2.1,0.3,100
-2.1,0.45,106
-2.1,0.6,111
-2.1,0.75,113
-2.1,0.9,112
-2.1,1.05,110
-2.1,1.2,105
-2.1,1.35,99
-2.1,1.5,93
-1.95,-1.5,75
-1.95,-1.35,77
-1.95,-1.2,80
-1.95,-1.05,83
-1.95,-0.9,85
-1.95,-0.75,84
-1.95,-0.6,85
-1.95,-0.45,84
-1.95,-0.3,83
-1.95,-0.15,83
-1.95,0.0,86
-1.95,0.15,92
-1.95,0.3,101
-1.95,0.45,111
-1.95,0.6,120
-1.95,0.75,126
-1.95,0.9,127
-1.95,1.05,124
-1.95,1.2,119
-1.95,1.35,113
-1.95,1.5,107
-1.8,-1.5,81
-1.8,-1.35,83
-1.8,-1.2,85
-1.8,-1.05,87
-1.8,-0.9,88
-1.8,-0.75,88
-1.8,-0.6,86
-1.8,-0.45,83
-1.8,-0.3,78
-1.8,-0.15,76
-1.8,0.0,80
-1.8,0.15,88
-1.8,0.3,100
-1.8,0.45,117
-1.8,0.6,132
-1.8,0.75,141
-1.8,0.9,143
-1.8,1.05,139
-1.8,1.2,132
-1.8,1.35,125
-1.8,1.5,118
-1.65,-1.5,86
-1.65,-1.35,87
-1.65,-1.2,89
-1.65,-1.05,90
-1.65,-0.9,90
-1.65,-0.75,89
-1.65,-0.6,86
-1.65,-0.45,81
-1.65,-0.3,73
-1.65,-0.15,68
-1.65,0.0,74
-1.65,0.15,82
-1.65,0.3,96
-1.65,0.45,124
-1.65,0.6,151
-1.65,0.75,164
-1.65,0.9,163
-1.65,1.05,155
-1.65,1.2,145
-1.65,1.35,135
-1.65,1.5,127
-1.5,-1.5,89
-1.5,-1.35,91
-1.5,-1.2,92
-1.5,-1.05,92
-1.5,-0.9,92
-1.5,-0.75,91
-1.5,-0.6,88
-1.5,-0.45,83
-1.5,-0.3,75
-1.5,-0.15,69
-1.5,0.0,74
-1.5,0.15,74
-1.5,0.3,88
-1.5,0.45,140
-1.5,0.6,187
-1.5,0.75,199
-1.5,0.9,188
-1.5,1.05,170
-1.5,1.2,155
-1.5,1.35,143
-1.5,1.5,133
-1.35,-1.5,92
-1.35,-1.35,93
-1.35,-1.2,94
-1.35,-1.05,94
-1.35,-0.9,94
-1.35,-0.75,93
-1.35,-0.6,91
-1.35,-0.45,88
-1.35,-0.3,84
-1.35,-0.15,81
-1.35,0.0,80
-1.35,0.15,74
-1.35,0.3,99
-1.35,0.45,176
-1.35,0.6,244
-1.35,0.75,243
-1.35,0.9,211
-1.35,1.05,183
-1.35,1.2,162
-1.35,1.35,148
-1.35,1.5,137
-1.2,-1.5,94
-1.2,-1.35,95
-1.2,-1.2,95
-1.2,-1.05,96
-1.2,-0.9,96
-1.2,-0.75,95
-1.2,-0.6,96
-1.2,-0.45,94
-1.2,-0.3,93
-1.2,-0.15,93
-1.2,0.0,95
-1.2,0.15,101
-1.2,0.3,130
-1.2,0.45,199
-1.2,0.6,255
-1.2,0.75,255
-1.2,0.9,218
-1.2,1.05,186
-1.2,1.2,163
-1.2,1.35,149
-1.2,1.5,138
-1.05,-1.5,96
-1.05,-1.35,96
-1.05,-1.2,96
-1.05,-1.05,96
-1.05,-0.9,96
-1.05,-0.75,96
-1.05,-0.6,96
-1.05,-0.45,96
-1.05,-0.3,97
-1.05,-0.15,101
-1.05,0.0,107
-1.05,0.15,117
-1.05,0.3,140
-1.05,0.45,180
-1.05,0.6,220
-1.05,0.75,222
-1.05,0.9,198
-1.05,1.05,175
-1.05,1.2,159
-1.05,1.35,148
-1.05,1.5,138
-0.9,-1.5,96
-0.9,-1.35,96
-0.9,-1.2,96
-0.9,-1.05,96
-0.9,-0.9,96
-0.9,-0.75,96
-0.9,-0.6,95
-0.9,-0.45,93
-0.9,-0.3,93
-0.9,-0.15,101
-0.9,0.0,112
-0.9,0.15,122
-0.9,0.3,135
-0.9,0.45,153
-0.9,0.6,171
-0.9,0.75,176
-0.9,0.9,169
-0.9,1.05,158
-0.9,1.2,149
-0.9,1.35,141
-0.9,1.5,138
-0.75,-1.5,96
-0.75,-1.35,96
-0.75,-1.2,96
-0.75,-1.05,96
-0.75,-0.9,96
-0.75,-0.75,96
-0.75,-0.6,92
-0.75,-0.45,84
-0.75,-0.3,78
-0.75,-0.15,94
-0.75,0.0,116
-0.75,0.15,127
-0.75,0.3,131
-0.75,0.45,136
-0.75,0.6,142
-0.75,0.75,146
-0.75,0.9,146
-0.75,1.05,142
-0.75,1.2,138
-0.75,1.35,138
-0.75,1.5,145
-0.6,-1.5,84
-0.6,-1.35,96
-0.6,-1.2,96
-0.6,-1.05,96
-0.6,-0.9,96
-0.6,-0.75,96
-0.6,-0.6,92
-0.6,-0.45,81
-0.6,-0.3,67
-0.6,-0.15,94
-0.6,0.0,131
-0.6,0.15,138
-0.6,0.3,131
-0.6,0.45,127
-0.6,0.6,127
-0.6,0.75,129
-0.6,0.9,143
-0.6,1.05,145
-0.6,1.2,145
-0.6,1.35,145
-0.6,1.5,145
-0.45,-1.5,84
-0.45,-1.35,84
-0.45,-1.2,84
-0.45,-1.05,88
-0.45,-0.9,89
-0.45,-0.75,90
-0.45,-0.6,96
-0.45,-0.45,93
-0.45,-0.3,95
-0.45,-0.15,125
-0.45,0.0,171
-0.45,0.15,157
-0.45,0.3,130
-0.45,0.45,125
-0.45,0.6,126
-0.45,0.75,130
-0.45,0.9,134
-0.45,1.05,137
-0.45,1.2,140
-0.45,1.35,141
-0.45,1.5,142
-0.3,-1.5,84
-0.3,-1.35,84
-0.3,-1.2,84
-0.3,-1.05,85
-0.3,-0.9,89
-0.3,-0.75,91
-0.3,-0.6,93
-0.3,-0.45,106
-0.3,-0.3,115
-0.3,-0.15,142
-0.3,0.0,197
-0.3,0.15,81
-0.3,0.3,118
-0.3,0.45,112
-0.3,0.6,116
-0.3,0.75,123
-0.3,0.9,129
-0.3,1.05,133
-0.3,1.2,136
-0.3,1.35,156
-0.3,1.5,159
-0.15,-1.5,84
-0.15,-1.35,85
-0.15,-1.2,85
-0.15,-1.05,86
-0.15,-0.9,87
-0.15,-0.75,99
-0.15,-0.6,100
-0.15,-0.45,102
-0.15,-0.3,109
-0.15,-0.15,122
-0.15,0.0,138
-0.15,0.15,131
-0.15,0.3,97
-0.15,0.45,89
-0.15,0.6,114
-0.15,0.75,129
-0.15,0.9,138
-0.15,1.05,146
-0.15,1.2,151
-0.15,1.35,156
-0.15,1.5,159
0.0,-1.5,95
0.0,-1.35,83
0.0,-1.2,83
0.0,-1.05,84
0.0,-0.9,84
0.0,-0.75,85
0.0,-0.6,96
0.0,-0.45,95
0.0,-0.3,93
0.0,-0.15,91
0.0,0.0,102
0.0,0.15,114
0.0,0.3,100
0.0,0.45,99
0.0,0.6,116
0.0,0.75,131
0.0,0.9,143
0.0,1.05,150
0.0,1.2,156
0.0,1.35,160
0.0,1.5,163
0.15,-1.5,95
0.15,-1.35,94
0.15,-1.2,80
0.15,-1.05,81
0.15,-0.9,81
0.15,-0.75,96
0.15,-0.6,85
0.15,-0.45,89
0.15,-0.3,83
0.15,-0.15,68
0.15,0.0,78
0.15,0.15,102
0.15,0.3,111
0.15,0.45,117
0.15,0.6,125
0.15,0.75,133
0.15,0.9,140
0.15,1.05,144
0.15,1.2,160
0.15,1.35,163
0.15,1.5,165
0.3,-1.5,95
0.3,-1.35,93
0.3,-1.2,92
0.3,-1.05,90
0.3,-0.9,96
0.3,-0.75,94
0.3,-0.6,93
0.3,-0.45,89
0.3,-0.3,83
0.3,-0.15,76
0.3,0.0,86
0.3,0.15,85
0.3,0.3,112
0.3,0.45,122
0.3,0.6,132
0.3,0.75,143
0.3,0.9,149
0.3,1.05,151
0.3,1.2,153
0.3,1.35,153
0.3,1.5,157
0.45,-1.5,86
0.45,-1.35,104
0.45,-1.2,104
0.45,-1.05,109
0.45,-0.9,121
0.45,-0.75,121
0.45,-0.6,107
0.45,-0.45,105
0.45,-0.3,96
0.45,-0.15,103
0.45,0.0,97
0.45,0.15,85
0.45,0.3,125
0.45,0.45,86
0.45,0.6,134
0.45,0.75,155
0.45,0.9,160
0.45,1.05,150
0.45,1.2,148
0.45,1.35,157
0.45,1.5,157
0.6,-1.5,74
0.6,-1.35,73
0.6,-1.2,93
0.6,-1.05,91
0.6,-0.9,88
0.6,-0.75,106
0.6,-0.6,102
0.6,-0.45,100
0.6,-0.3,100
0.6,-0.15,112
0.6,0.0,131
0.6,0.15,171
0.6,0.3,255
0.6,0.45,184
0.6,0.6,171
0.6,0.75,171
0.6,0.9,165
0.6,1.05,156
0.6,1.2,150
0.6,1.35,145
0.6,1.5,142
0.75,-1.5,71
0.75,-1.35,71
0.75,-1.2,74
0.75,-1.05,72
0.75,-0.9,89
0.75,-0.75,83
0.75,-0.6,95
0.75,-0.45,87
0.75,-0.3,81
0.75,-0.15,102
0.75,0.0,143
0.75,0.15,219
0.75,0.3,255
0.75,0.45,255
0.75,0.6,223
0.75,0.75,187
0.75,0.9,172
0.75,1.05,160
0.75,1.2,152
0.75,1.35,147
0.75,1.5,138
0.9,-1.5,68
0.9,-1.35,69
0.9,-1.2,68
0.9,-1.05,72
0.9,-0.9,89
0.9,-0.75,84
0.9,-0.6,72
0.9,-0.45,52
0.9,-0.3,37
0.9,-0.15,69
0.9,0.0,110
0.9,0.15,255
0.9,0.3,255
0.9,0.45,255
0.9,0.6,217
0.9,0.75,185
0.9,0.9,163
0.9,1.05,152
0.9,1.2,147
0.9,1.35,140
0.9,1.5,136
1.05,-1.5,66
1.05,-1.35,67
1.05,-1.2,72
1.05,-1.05,73
1.05,-0.9,88
1.05,-0.75,83
1.05,-0.6,71
1.05,-0.45,46
1.05,-0.3,7
1.05,-0.15,53
1.05,0.0,28
1.05,0.15,170
1.05,0.3,255
1.05,0.45,219
1.05,0.6,186
1.05,0.75,164
1.05,0.9,155
1.05,1.05,146
1.05,1.2,139
1.05,1.35,135
1.05,1.5,131
1.2,-1.5,68
1.2,-1.35,70
1.2,-1.2,72
1.2,-1.05,76
1.2,-0.9,79
1.2,-0.75,79
1.2,-0.6,87
1.2,-0.45,70
1.2,-0.3,60
1.2,-0.15,65
1.2,0.0,80
1.2,0.15,87
1.2,0.3,134
1.2,0.45,153
1.2,0.6,151
1.2,0.75,142
1.2,0.9,135
1.2,1.05,127
1.2,1.2,124
1.2,1.35,122
1.2,1.5,120
1.35,-1.5,78
1.35,-1.35,81
1.35,-1.2,76
1.35,-1.05,83
1.35,-0.9,92
1.35,-0.75,105
1.35,-0.6,113
1.35,-0.45,90
1.35,-0.3,64
1.35,-0.15,66
1.35,0.0,70
1.35,0.15,69
1.35,0.3,97
1.35,0.45,108
1.35,0.6,109
1.35,0.75,105
1.35,0.9,106
1.35,1.05,108
1.35,1.2,114
1.35,1.35,116
1.35,1.5,117
1.5,-1.5,80
1.5,-1.35,83
1.5,-1.2,87
1.5,-1.05,95
1.5,-0.9,110
1.5,-0.75,140
1.5,-0.6,202
1.5,-0.45,168
1.5,-0.3,64
1.5,-0.15,54
1.5,0.0,56
1.5,0.15,56
1.5,0.3,62
1.5,0.45,70
1.5,0.6,65
1.5,0.75,71
1.5,0.9,99
1.5,1.05,114
1.5,1.2,118
1.5,1.35,123
1.5,1.5,126
1.65,-1.5,96
1.65,-1.35,100
1.65,-1.2,88
1.65,-1.05,95
1.65,-0.9,109
1.65,-0.75,141
1.65,-0.6,213
1.65,-0.45,170
1.65,-0.3,44
1.65,-0.15,32
1.65,0.0,54
1.65,0.15,57
1.65,0.3,56
1.65,0.45,33
1.65,0.6,13
1.65,0.75,47
1.65,0.9,69
1.65,1.05,82
1.65,1.2,108
1.65,1.35,115
1.65,1.5,120
1.8,-1.5,97
1.8,-1.35,98
1.8,-1.2,100
1.8,-1.05,103
1.8,-0.9,97
1.8,-0.75,111
1.8,-0.6,122
1.8,-0.45,85
1.8,-0.3,23
1.8,-0.15,11
1.8,0.0,70
1.8,0.15,70
1.8,0.3,44
1.8,0.45,45
1.8,0.6,14
1.8,0.75,45
1.8,0.9,64
1.8,1.05,74
1.8,1.2,98
1.8,1.35,104
1.8,1.5,108
1.95,-1.5,97
1.95,-1.35,96
1.95,-1.2,96
1.95,-1.05,96
1.95,-0.9,96
1.95,-0.75,96
1.95,-0.6,87
1.95,-0.45,80
1.95,-0.3,52
1.95,-0.15,5
1.95,0.0,215
1.95,0.15,63
1.95,0.3,73
1.95,0.45,70
1.95,0.6,61
1.95,0.75,62
1.95,0.9,71
1.95,1.05,72
1.95,1.2,83
1.95,1.35,86
1.95,1.5,75
2.1,-1.5,116
2.1,-1.35,116
2.1,-1.2,116
2.1,-1.05,111
2.1,-0.9,108
2.1,-0.75,102
2.1,-0.6,95
2.1,-0.45,81
2.1,-0.3,81
2.1,-0.15,102
2.1,0.0,151
2.1,0.15,114
2.1,0.3,85
2.1,0.45,86
2.1,0.6,81
2.1,0.75,77
2.1,0.9,76
2.1,1.05,84
2.1,1.2,87
2.1,1.35,88
2.1,1.5,90
2.25,-1.5,119
2.25,-1.35,120
2.25,-1.2,115
2.25,-1.05,115
2.25,-0.9,113
2.25,-0.75,93
2.25,-0.6,90
2.25,-0.45,105
2.25,-0.3,105
2.25,-0.15,106
2.25,0.0,192
2.25,0.15,119
2.25,0.3,119
2.25,0.45,97
2.25,0.6,76
2.25,0.75,76
2.25,0.9,76
2.25,1.05,76
2.25,1.2,76
2.25,1.35,93
2.25,1.5,94
2.4,-1.5,137
2.4,-1.35,119
2.4,-1.2,109
2.4,-1.05,109
2.4,-0.9,109
2.4,-0.75,110
2.4,-0.6,92
2.4,-0.45,46
2.4,-0.3,98
2.4,-0.15,63
2.4,0.0,33
2.4,0.15,82
2.4,0.3,106
2.4,0.45,98
2.4,0.6,85
2.4,0.75,83
2.4,0.9,81
2.4,1.05,89
2.4,1.2,99
2.4,1.35,119
2.4,1.5,119
2.55,-1.5,116
2.55,-1.35,116
2.55,-1.2,119
2.55,-1.05,122
2.55,-0.9,116
2.55,-0.75,140
2.55,-0.6,160
2.55,-0.45,69
2.55,-0.3,154
2.55,-0.15,57
2.55,0.0,50
2.55,0.15,61
2.55,0.3,92
2.55,0.45,105
2.55,0.6,113
2.55,0.75,138
2.55,0.9,141
2.55,1.05,142
2.55,1.2,141
2.55,1.35,126
2.55,1.5,125
2.7,-1.5,143
2.7,-1.35,126
2.7,-1.2,124
2.7,-1.05,124
2.7,-0.9,133
2.7,-0.75,164
2.7,-0.6,243
2.7,-0.45,94
2.7,-0.3,38
2.7,-0.15,47
2.7,0.0,90
2.7,0.15,241
2.7,0.3,120
2.7,0.45,136
2.7,0.6,147
2.7,0.75,150
2.7,0.9,151
2.7,1.05,151
2.7,1.2,150
2.7,1.35,150
2.7,1.5,144
2.85,-1.5,124
2.85,-1.35,108
2.85,-1.2,111
2.85,-1.05,117
2.85,-0.9,117
2.85,-0.75,118
2.85,-0.6,119
2.85,-0.45,90
2.85,-0.3,57
2.85,-0.15,47
2.85,0.0,97
2.85,0.15,141
2.85,0.3,151
2.85,0.45,144
2.85,0.6,151
2.85,0.75,152
2.85,0.9,150
2.85,1.05,162
2.85,1.2,157
2.85,1.35,156
2.85,1.5,160
3.0,-1.5,112
3.0,-1.35,113
3.0,-1.2,114
3.0,-1.05,115
3.0,-0.9,119
3.0,-0.75,107
3.0,-0.6,73
3.0,-0.45,121
3.0,-0.3,92
3.0,-0.15,107
3.0,0.0,112
3.0,0.15,140
3.0,0.3,159
3.0,0.45,165
3.0,0.6,173
3.0,0.75,171
3.0,0.9,149
3.0,1.05,168
3.0,1.2,162
3.0,1.35,161
3.0,1.5,160
3.15,-1.5,116
3.15,-1.35,116
3.15,-1.2,116
3.15,-1.05,116
3.15,-0.9,116
3.15,-0.75,119
3.15,-0.6,149
3.15,-0.45,176
3.15,-0.3,82
3.15,-0.15,1
3.15,0.0,51
3.15,0.15,69
3.15,0.3,93
3.15,0.45,255
3.15,0.6,171
3.15,0.75,155
3.15,0.9,148
3.15,1.05,144
3.15,1.2,142
3.15,1.35,141
3.15,1.5,140
3.3,-1.5,116
3.3,-1.35,116
3.3,-1.2,116
3.3,-1.05,116
3.3,-0.9,106
3.3,-0.75,109
3.3,-0.6,107
3.3,-0.45,62
3.3,-0.3,44
3.3,-0.15,63
3.3,0.0,45
3.3,0.15,57
3.3,0.3,93
3.3,0.45,147
3.3,0.6,152
3.3,0.75,145
3.3,0.9,140
3.3,1.05,137
3.3,1.2,136
3.3,1.35,136
3.3,1.5,136
3.45,-1.5,101
3.45,-1.35,94
3.45,-1.2,94
3.45,-1.05,97
3.45,-0.9,101
3.45,-0.75,114
3.45,-0.6,178
3.45,-0.45,80
3.45,-0.3,44
3.45,-0.15,124
3.45,0.0,132
3.45,0.15,75
3.45,0.3,57
3.45,0.45,179
3.45,0.6,143
3.45,0.75,132
3.45,0.9,145
3.45,1.05,133
3.45,1.2,137
3.45,1.35,137
3.45,1.5,137
3.6,-1.5,116
3.6,-1.35,115
3.6,-1.2,100
3.6,-1.05,90
3.6,-0.9,90
3.6,-0.75,90
3.6,-0.6,103
3.6,-0.45,80
3.6,-0.3,66
3.6,-0.15,54
3.6,0.0,132
3.6,0.15,71
3.6,0.3,107
3.6,0.45,255
3.6,0.6,101
3.6,0.75,112
3.6,0.9,119
3.6,1.05,121
3.6,1.2,130
3.6,1.35,130
3.6,1.5,130
3.75,-1.5,91
3.75,-1.35,92
3.75,-1.2,96
3.75,-1.05,94
3.75,-0.9,93
3.75,-0.75,91
3.75,-0.6,81
3.75,-0.45,78
3.75,-0.3,116
3.75,-0.15,17
3.75,0.0,103
3.75,0.15,78
3.75,0.3,73
3.75,0.45,175
3.75,0.6,67
3.75,0.75,115
3.75,0.9,121
3.75,1.05,107
3.75,1.2,107
3.75,1.35,126
3.75,1.5,106
3.9,-1.5,89
3.9,-1.35,86
3.9,-1.2,93
3.9,-1.05,104
3.9,-0.9,104
3.9,-0.75,73
3.9,-0.6,71
3.9,-0.45,75
3.9,-0.3,123
3.9,-0.15,65
3.9,0.0,72
3.9,0.15,255
3.9,0.3,202
3.9,0.45,150
3.9,0.6,109
3.9,0.75,107
3.9,0.9,121
3.9,1.05,104
3.9,1.2,105
3.9,1.35,86
3.9,1.5,86
4.05,-1.5,66
4.05,-1.35,69
4.05,-1.2,69
4.05,-1.05,74
4.05,-0.9,83
4.05,-0.75,104
4.05,-0.6,93
4.05,-0.45,68
4.05,-0.3,51
4.05,-0.15,65
4.05,0.0,72
4.05,0.15,89
4.05,0.3,118
4.05,0.45,70
4.05,0.6,63
4.05,0.75,60
4.05,0.9,56
4.05,1.05,57
4.05,1.2,57
4.05,1.35,58
4.05,1.5,55
4.2,-1.5,64
4.2,-1.35,67
4.2,-1.2,71
4.2,-1.05,81
4.2,-0.9,101
4.2,-0.75,144
4.2,-0.6,108
4.2,-0.45,48
4.2,-0.3,42
4.2,-0.15,36
4.2,0.0,0
4.2,0.15,95
4.2,0.3,75
4.2,0.45,21
4.2,0.6,45
4.2,0.75,50
4.2,0.9,35
4.2,1.05,30
4.2,1.2,30
4.2,1.35,55
4.2,1.5,56
4.35,-1.5,62
4.35,-1.35,62
4.35,-1.2,64
4.35,-1.05,63
4.35,-0.9,86
4.35,-0.75,226
4.35,-0.6,98
4.35,-0.45,103
4.35,-0.3,66
4.35,-0.15,111
4.35,0.0,187
4.35,0.15,79
4.35,0.3,147
4.35,0.45,35
4.35,0.6,39
4.35,0.75,48
4.35,0.9,72
4.35,1.05,73
4.35,1.2,76
4.35,1.35,78
4.35,1.5,79
4.5,-1.5,78
4.5,-1.35,69
4.5,-1.2,48
4.5,-1.05,46
4.5,-0.9,43
4.5,-0.75,17
4.5,-0.6,34
4.5,-0.45,67
4.5,-0.3,194
4.5,-0.15,51
4.5,0.0,65
4.5,0.15,0
4.5,0.3,104
4.5,0.45,62
4.5,0.6,35
4.5,0.75,70
4.5,0.9,81
4.5,1.05,80
4.5,1.2,81
4.5,1.35,82
4.5,1.5,82
4.65,-1.5,78
4.65,-1.35,78
4.65,-1.2,75
4.65,-1.05,61
4.65,-0.9,22
4.65,-0.75,19
4.65,-0.6,38
4.65,-0.45,50
4.65,-0.3,121
4.65,-0.15,91
4.65,0.0,82
4.65,0.15,126
4.65,0.3,138
4.65,0.45,242
4.65,0.6,108
4.65,0.75,104
4.65,0.9,104
4.65,1.05,104
4.65,1.2,119
4.65,1.35,120
4.65,1.5,121
4.8,-1.5,76
4.8,-1.35,78
4.8,-1.2,61
4.8,-1.05,61
4.8,-0.9,56
4.8,-0.75,89
4.8,-0.6,107
4.8,-0.45,25
4.8,-0.3,61
4.8,-0.15,75
4.8,0.0,57
4.8,0.15,180
4.8,0.3,124
4.8,0.45,101
4.8,0.6,131
4.8,0.75,132
4.8,0.9,129
4.8,1.05,129
4.8,1.2,129
4.8,1.35,129
4.8,1.5,125
4.95,-1.5,77
4.95,-1.35,76
4.95,-1.2,99
4.95,-1.05,99
4.95,-0.9,93
4.95,-0.75,107
4.95,-0.6,19
4.95,-0.45,45
4.95,-0.3,54
4.95,-0.15,41
4.95,0.0,50
4.95,0.15,80
4.95,0.3,30
4.95,0.45,98
4.95,0.6,124
4.95,0.75,133
4.95,0.9,132
4.95,1.05,130
4.95,1.2,133
4.95,1.35,132
4.95,1.5,131
5.1,-1.5,97
5.1,-1.35,97
5.1,-1.2,98
5.1,-1.05,99
5.1,-0.9,92
5.1,-0.75,66
5.1,-0.6,192
5.1,-0.45,122
5.1,-0.3,189
5.1,-0.15,65
5.1,0.0,253
5.1,0.15,141
5.1,0.3,44
5.1,0.45,81
5.1,0.6,140
5.1,0.75,138
5.1,0.9,138
5.1,1.05,138
5.1,1.2,137
5.1,1.35,136
5.1,1.5,136
5.25,-1.5,87
5.25,-1.35,99
5.25,-1.2,99
5.25,-1.05,99
5.25,-0.9,122
5.25,-0.75,122
5.25,-0.6,45
5.25,-0.45,49
5.25,-0.3,55
5.25,-0.15,71
5.25,0.0,8
5.25,0.15,60
5.25,0.3,84
5.25,0.45,123
5.25,0.6,168
5.25,0.75,116
5.25,0.9,96
5.25,1.05,109
5.25,1.2,102
5.25,1.35,101
5.25,1.5,99
5.4,-1.5,87
5.4,-1.35,89
5.4,-1.2,94
5.4,-1.05,92
5.4,-0.9,119
5.4,-0.75,217
5.4,-0.6,60
5.4,-0.45,55
5.4,-0.3,64
5.4,-0.15,57
5.4,0.0,148
5.4,0.15,27
5.4,0.3,0
5.4,0.45,69
5.4,0.6,93
5.4,0.75,95
5.4,0.9,93
5.4,1.05,93
5.4,1.2,87
5.4,1.35,85
5.4,1.5,74
5.55,-1.5,75
5.55,-1.35,78
5.55,-1.2,86
5.55,-1.05,86
5.55,-0.9,87
5.55,-0.75,73
5.55,-0.6,64
5.55,-0.45,49
5.55,-0.3,157
5.55,-0.15,41
5.55,0.0,115
5.55,0.15,66
5.55,0.3,91
5.55,0.45,64
5.55,0.6,76
5.55,0.75,80
5.55,0.9,83
5.55,1.05,83
5.55,1.2,83
5.55,1.35,82
5.55,1.5,82
5.7,-1.5,65
5.7,-1.35,65
5.7,-1.2,84
5.7,-1.05,61
5.7,-0.9,41
5.7,-0.75,51
5.7,-0.6,68
5.7,-0.45,96
5.7,-0.3,49
5.7,-0.15,49
5.7,0.0,28
5.7,0.15,59
5.7,0.3,61
5.7,0.45,41
5.7,0.6,41
5.7,0.75,59
5.7,0.9,63
5.7,1.05,69
5.7,1.2,69
5.7,1.35,70
5.7,1.5,65
5.85,-1.5,94
5.85,-1.35,77
5.85,-1.2,52
5.85,-1.05,47
5.85,-0.9,47
5.85,-0.75,40
5.85,-0.6,18
5.85,-0.45,98
5.85,-0.3,42
5.85,-0.15,23
5.85,0.0,40
5.85,0.15,199
5.85,0.3,37
5.85,0.45,47
5.85,0.6,57
5.85,0.75,40
5.85,0.9,42
5.85,1.05,59
5.85,1.2,60
5.85,1.35,61
5.85,1.5,62
6.0,-1.5,59
6.0,-1.35,58
6.0,-1.2,57
6.0,-1.05,54
6.0,-0.9,46
6.0,-0.75,53
6.0,-0.6,108
6.0,-0.45,28
6.0,-0.3,8
6.0,-0.15,20
6.0,0.0,184
6.0,0.15,69
6.0,0.3,0
6.0,0.45,31
6.0,0.6,40
6.0,0.75,51
6.0,0.9,44
6.0,1.05,43
6.0,1.2,41
6.0,1.35,54
6.0,1.5,54
6.15,-1.5,64
6.15,-1.35,63
6.15,-1.2,66
6.15,-1.05,63
6.15,-0.9,55
6.15,-0.75,45
6.15,-0.6,56
6.15,-0.45,78
6.15,-0.3,62
6.15,-0.15,49
6.15,0.0,48
6.15,0.15,80
6.15,0.3,66
6.15,0.45,57
6.15,0.6,58
6.15,0.75,66
6.15,0.9,55
6.15,1.05,48
6.15,1.2,33
6.15,1.35,35
6.15,1.5,35
6.3,-1.5,81
6.3,-1.35,84
6.3,-1.2,83
6.3,-1.05,71
6.3,-0.9,77
6.3,-0.75,86
6.3,-0.6,45
6.3,-0.45,109
6.3,-0.3,29
6.3,-0.15,74
6.3,0.0,53
6.3,0.15,80
6.3,0.3,47
6.3,0.45,25
6.3,0.6,58
6.3,0.75,65
6.3,0.9,61
6.3,1.05,57
6.3,1.2,57
6.3,1.35,57
6.3,1.5,43
6.45,-1.5,127
6.45,-1.35,109
6.45,-1.2,105
6.45,-1.05,106
6.45,-0.9,105
6.45,-0.75,114
6.45,-0.6,146
6.45,-0.45,45
6.45,-0.3,56
6.45,-0.15,217
6.45,0.0,40
6.45,0.15,71
6.45,0.3,46
6.45,0.45,41
6.45,0.6,49
6.45,0.75,45
6.45,0.9,44
6.45,1.05,44
6.45,1.2,35
6.45,1.35,52
6.45,1.5,34
6.6,-1.5,126
6.6,-1.35,127
6.6,-1.2,127
6.6,-1.05,127
6.6,-0.9,129
6.6,-0.75,113
6.6,-0.6,73
6.6,-0.45,65
6.6,-0.3,65
6.6,-0.15,32
6.6,0.0,121
6.6,0.15,143
6.6,0.3,58
6.6,0.45,71
6.6,0.6,57
6.6,0.75,71
6.6,0.9,61
6.6,1.05,61
6.6,1.2,62
6.6,1.35,62
6.6,1.5,62
6.75,-1.5,105
6.75,-1.35,115
6.75,-1.2,115
6.75,-1.05,117
6.75,-0.9,106
6.75,-0.75,123
6.75,-0.6,89
6.75,-0.45,33
6.75,-0.3,50
6.75,-0.15,63
6.75,0.0,78
6.75,0.15,106
6.75,0.3,93
6.75,0.45,93
6.75,0.6,91
6.75,0.75,63
6.75,0.9,62
6.75,1.05,62
6.75,1.2,62
6.75,1.35,62
6.75,1.5,62
6.9,-1.5,92
6.9,-1.35,91
6.9,-1.2,104
6.9,-1.05,86
6.9,-0.9,84
6.9,-0.75,62
6.9,-0.6,20
6.9,-0.45,62
6.9,-0.3,33
6.9,-0.15,62
6.9,0.0,61
6.9,0.15,62
6.9,0.3,77
6.9,0.45,58
6.9,0.6,57
6.9,0.75,82
6.9,0.9,56
6.9,1.05,57
6.9,1.2,57
6.9,1.35,57
6.9,1.5,57
7.05,-1.5,76
7.05,-1.35,63
7.05,-1.2,63
7.05,-1.05,63
7.05,-0.9,74
7.05,-0.75,130
7.05,-0.6,31
7.05,-0.45,62
7.05,-0.3,109
7.05,-0.15,90
7.05,0.0,19
7.05,0.15,28
7.05,0.3,52
7.05,0.45,34
7.05,0.6,36
7.05,0.75,36
7.05,0.9,36
7.05,1.05,37
7.05,1.2,37
7.05,1.35,36
7.05,1.5,36
7.2,-1.5,73
7.2,-1.35,72
7.2,-1.2,81
7.2,-1.05,79
7.2,-0.9,62
7.2,-0.75,45
7.2,-0.6,51
7.2,-0.45,23
7.2,-0.3,47
7.2,-0.15,9
7.2,0.0,94
7.2,0.15,38
7.2,0.3,0
7.2,0.45,31
7.2,0.6,35
7.2,0.75,38
7.2,0.9,36
7.2,1.05,36
7.2,1.2,36
7.2,1.35,42
7.2,1.5,42
7.35,-1.5,88
7.35,-1.35,87
7.35,-1.2,86
7.35,-1.05,86
7.35,-0.9,69
7.35,-0.75,57
7.35,-0.6,23
7.35,-0.45,86
7.35,-0.3,14
7.35,-0.15,69
7.35,0.0,94
7.35,0.15,61
7.35,0.3,53
7.35,0.45,52
7.35,0.6,58
7.35,0.75,61
7.35,0.9,67
7.35,1.05,67
7.35,1.2,41
7.35,1.35,42
7.35,1.5,42
7.5,-1.5,91
7.5,-1.35,86
7.5,-1.2,87
7.5,-1.05,96
7.5,-0.9,136
7.5,-0.75,133
7.5,-0.6,125
7.5,-0.45,76
7.5,-0.3,71
7.5,-0.15,82
7.5,0.0,99
7.5,0.15,99
7.5,0.3,96
7.5,0.45,90
7.5,0.6,84
7.5,0.75,66
7.5,0.9,66
7.5,1.05,67
7.5,1.2,67
7.5,1.35,68
7.5,1.5,53
7.65,-1.5,101
7.65,-1.35,103
7.65,-1.2,122
7.65,-1.05,126
7.65,-0.9,153
7.65,-0.75,153
7.65,-0.6,87
7.65,-0.45,23
7.65,-0.3,34
7.65,-0.15,66
7.65,0.0,79
7.65,0.15,98
7.65,0.3,105
7.65,0.45,100
7.65,0.6,97
7.65,0.75,97
7.65,0.9,97
7.65,1.05,93
7.65,1.2,74
7.65,1.35,69
7.65,1.5,69
7.8,-1.5,120
7.8,-1.35,123
7.8,-1.2,128
7.8,-1.05,132
7.8,-0.9,135
7.8,-0.75,87
7.8,-0.6,160
7.8,-0.45,131
7.8,-0.3,20
7.8,-0.15,50
7.8,0.0,71
7.8,0.15,71
7.8,0.3,87
7.8,0.45,81
7.8,0.6,96
7.8,0.75,93
7.8,0.9,101
7.8,1.05,100
7.8,1.2,100
7.8,1.35,100
7.8,1.5,100
7.95,-1.5,118
7.95,-1.35,118
7.95,-1.2,125
7.95,-1.05,139
7.95,-0.9,132
7.95,-0.75,94
7.95,-0.6,87
7.95,-0.45,43
7.95,-0.3,63
7.95,-0.15,69
7.95,0.0,77
7.95,0.15,102
7.95,0.3,77
7.95,0.45,80
7.95,0.6,93
7.95,0.75,101
7.95,0.9,98
7.95,1.05,98
7.95,1.2,78
7.95,1.35,78
7.95,1.5,77
8.1,-1.5,100
8.1,-1.35,94
8.1,-1.2,91
8.1,-1.05,158
8.1,-0.9,209
8.1,-0.75,81
8.1,-0.6,18
8.1,-0.45,37
8.1,-0.3,68
8.1,-0.15,110
8.1,0.0,137
8.1,0.15,197
8.1,0.3,139
8.1,0.45,122
8.1,0.6,131
8.1,0.75,137
8.1,0.9,139
8.1,1.05,145
8.1,1.2,141
8.1,1.35,141
8.1,1.5,141
8.25,-1.5,100
8.25,-1.35,91
8.25,-1.2,70
8.25,-1.05,148
8.25,-0.9,215
8.25,-0.75,89
8.25,-0.6,40
8.25,-0.45,65
8.25,-0.3,95
8.25,-0.15,98
8.25,0.0,255
8.25,0.15,209
8.25,0.3,171
8.25,0.45,156
8.25,0.6,150
8.25,0.75,149
8.25,0.9,149
8.25,1.05,149
8.25,1.2,153
8.25,1.35,153
8.25,1.5,145
8.4,-1.5,98
8.4,-1.35,96
8.4,-1.2,94
8.4,-1.05,115
8.4,-0.9,118
8.4,-0.75,88
8.4,-0.6,83
8.4,-0.45,148
8.4,-0.3,80
8.4,-0.15,125
8.4,0.0,76
8.4,0.15,171
8.4,0.3,174
8.4,0.45,164
8.4,0.6,150
8.4,0.75,155
8.4,0.9,153
8.4,1.05,153
8.4,1.2,152
8.4,1.35,152
8.4,1.5,152
8.55,-1.5,94
8.55,-1.35,94
8.55,-1.2,94
8.55,-1.05,101
8.55,-0.9,96
8.55,-0.75,82
8.55,-0.6,71
8.55,-0.45,69
8.55,-0.3,89
8.55,-0.15,131
8.55,0.0,136
8.55,0.15,157
8.55,0.3,168
8.55,0.45,169
8.55,0.6,167
8.55,0.75,149
8.55,0.9,149
8.55,1.05,150
8.55,1.2,153
8.55,1.35,153
8.55,1.5,153
8.7,-1.5,100
8.7,-1.35,117
8.7,-1.2,117
8.7,-1.05,116
8.7,-0.9,115
8.7,-0.75,91
8.7,-0.6,79
8.7,-0.45,82
8.7,-0.3,100
8.7,-0.15,128
8.7,0.0,131
8.7,0.15,147
8.7,0.3,153
8.7,0.45,166
8.7,0.6,166
8.7,0.75,165
8.7,0.9,149
8.7,1.05,149
8.7,1.2,149
8.7,1.35,150
8.7,1.5,153
8.85,-1.5,117
8.85,-1.35,117
8.85,-1.2,117
8.85,-1.05,117
8.85,-0.9,115
8.85,-0.75,104
8.85,-0.6,91
8.85,-0.45,86
8.85,-0.3,117
8.85,-0.15,125
8.85,0.0,124
8.85,0.15,140
8.85,0.3,161
8.85,0.45,164
8.85,0.6,165
8.85,0.75,165
8.85,0.9,165
8.85,1.05,164
8.85,1.2,149
8.85,1.35,149
8.85,1.5,149
9.0,-1.5,117
9.0,-1.35,117
9.0,-1.2,117
9.0,-1.05,117
9.0,-0.9,113
9.0,-0.75,116
9.0,-0.6,109
9.0,-0.45,135
9.0,-0.3,135
9.0,-0.15,121
9.0,0.0,124
9.0,0.15,123
9.0,0.3,146
9.0,0.45,158
9.0,0.6,146
9.0,0.75,164
9.0,0.9,164
9.0,1.05,164
9.0,1.2,164
9.0,1.35,164
9.0,1.5,149
9.15,-1.5,117
9.15,-1.35,117
9.15,-1.2,117
9.15,-1.05,113
9.15,-0.9,117
9.15,-0.75,127
9.15,-0.6,155
9.15,-0.45,181
9.15,-0.3,142
9.15,-0.15,121
9.15,0.0,112
9.15,0.15,108
9.15,0.3,119
9.15,0.45,143
9.15,0.6,160
9.15,0.75,163
9.15,0.9,144
9.15,1.05,149
9.15,1.2,149
9.15,1.35,149
9.15,1.5,149
9.3,-1.5,110
9.3,-1.35,110
9.3,-1.2,113
9.3,-1.05,114
9.3,-0.9,114
9.3,-0.75,119
9.3,-0.6,126
9.3,-0.45,115
9.3,-0.3,102
9.3,-0.15,102
9.3,0.0,102
9.3,0.15,102
9.3,0.3,102
9.3,0.45,115
9.3,0.6,139
9.3,0.75,142
9.3,0.9,160
9.3,1.05,160
9.3,1.2,149
9.3,1.35,149
9.3,1.5,149
9.45,-1.5,110
9.45,-1.35,110
9.45,-1.2,110
9.45,-1.05,107
9.45,-0.9,106
9.45,-0.75,102
9.45,-0.6,85
9.45,-0.45,28
9.45,-0.3,29
9.45,-0.15,73
9.45,0.0,89
9.45,0.15,95
9.45,0.3,98
9.45,0.45,111
9.45,0.6,113
9.45,0.75,137
9.45,0.9,140
9.45,1.05,158
9.45,1.2,159
9.45,1.35,159
9.45,1.5,149
9.6,-1.5,109
9.6,-1.35,108
9.6,-1.2,107
9.6,-1.05,102
9.6,-0.9,98
9.6,-0.75,89
9.6,-0.6,69
9.6,-0.45,30
9.6,-0.3,33
9.6,-0.15,63
9.6,0.0,80
9.6,0.15,89
9.6,0.3,93
9.6,0.45,96
9.6,0.6,110
9.6,0.75,112
9.6,0.9,136
9.6,1.05,139
9.6,1.2,156
9.6,1.35,158
9.6,1.5,159
9.75,-1.5,107
9.75,-1.35,106
9.75,-1.2,104
9.75,-1.05,98
9.75,-0.9,93
9.75,-0.75,85
9.75,-0.6,73
9.75,-0.45,62
9.75,-0.3,64
9.75,-0.15,68
9.75,0.0,77
9.75,0.15,85
9.75,0.3,90
9.75,0.45,93
9.75,0.6,107
9.75,0.75,110
9.75,0.9,112
9.75,1.05,136
9.75,1.2,138
9.75,1.35,130
9.75,1.5,157
9.9,-1.5,106
9.9,-1.35,104
9.9,-1.2,102
9.9,-1.05,96
9.9,-0.9,91
9.9,-0.75,84
9.9,-0.6,77
9.9,-0.45,68
9.9,-0.3,66
9.9,-0.15,70
9.9,0.0,77
9.9,0.15,83
9.9,0.3,88
9.9,0.45,92
9.9,0.6,94
9.9,0.75,108
9.9,0.9,110
9.9,1.05,112
9.9,1.2,136
9.9,1.35,138
9.9,1.5,114
10.05,-1.5,105
10.05,-1.35,103
10.05,-1.2,101
10.05,-1.05,95
10.05,-0.9,91
10.05,-0.75,87
10.05,-0.6,80
10.05,-0.45,72
10.05,-0.3,71
10.05,-0.15,74
10.05,0.0,79
10.05,0.15,84
10.05,0.3,88
10.05,0.45,91
10.05,0.6,93
10.05,0.75,95
10.05,0.9,109
10.05,1.05,111
10.05,1.2,112
10.05,1.35,136
10.05,1.5,128
10.2,-1.5,104
10.2,-1.35,102
10.2,-1.2,97
10.2,-1.05,94
10.2,-0.9,91
10.2,-0.75,89
10.2,-0.6,85
10.2,-0.45,77
10.2,-0.3,77
10.2,-0.15,79
10.2,0.0,82
10.2,0.15,85
10.2,0.3,88
10.2,0.45,91
10.2,0.6,93
10.2,0.75,94
10.2,0.9,108
10.2,1.05,110
10.2,1.2,111
10.2,1.35,112
10.2,1.5,136
10.35,-1.5,103
10.35,-1.35,102
10.35,-1.2,97
10.35,-1.05,95
10.35,-0.9,92
10.35,-0.75,92
10.35,-0.6,89
10.35,-0.45,81
10.35,-0.3,82
10.35,-0.15,83
10.35,0.0,85
10.35,0.15,87
10.35,0.3,89
10.35,0.45,91
10.35,0.6,93
10.35,0.75,94
10.35,0.9,95
10.35,1.05,109
10.35,1.2,110
10.35,1.35,112
10.35,1.5,113
10.5,-1.5,103
10.5,-1.35,102
10.5,-1.2,97
10.5,-1.05,95
10.5,-0.9,93
10.5,-0.75,91
10.5,-0.6,82
10.5,-0.45,81
10.5,-0.3,81
10.5,-0.15,81
10.5,0.0,82
10.5,0.15,83
10.5,0.3,84
10.5,0.45,85
10.5,0.6,86
10.5,0.75,94
10.5,0.9,91
10.5,1.05,92
10.5,1.2,92
10.5,1.35,106
10.5,1.5,106
10.65,-1.5,84
10.65,-1.35,84
10.65,-1.2,83
10.65,-1.05,95
10.65,-0.9,93
10.65,-0.75,92
10.65,-0.6,83
10.65,-0.45,82
10.65,-0.3,81
10.65,-0.15,82
10.65,0.0,82
10.65,0.15,83
10.65,0.3,83
10.65,0.45,84
10.65,0.6,85
10.65,0.75,85
10.65,0.9,81
10.65,1.05,81
10.65,1.2,81
10.65,1.35,85
10.65,1.5,85
10.8,-1.5,81
10.8,-1.35,81
10.8,-1.2,81
10.8,-1.05,80
10.8,-0.9,80
10.8,-0.75,80
10.8,-0.6,79
10.8,-0.45,81
10.8,-0.3,81
10.8,-0.15,81
10.8,0.0,81
10.8,0.15,82
10.8,0.3,82
10.8,0.45,83
10.8,0.6,79
10.8,0.75,79
10.8,0.9,79
10.8,1.05,78
10.8,1.2,78
10.8,1.35,82
10.8,1.5,82
10.95,-1.5,78
10.95,-1.35,78
10.95,-1.2,78
10.95,-1.05,77
10.95,-0.9,77
10.95,-0.75,77
10.95,-0.6,77
10.95,-0.45,76
10.95,-0.3,76
10.95,-0.15,76
10.95,0.0,80
10.95,0.15,76
10.95,0.3,76
10.95,0.45,76
10.95,0.6,76
10.95,0.75,76
10.95,0.9,76
10.95,1.05,75
10.95,1.2,75
10.95,1.35,74
10.95,1.5,78
11.1,-1.5,74
11.1,-1.35,74
11.1,-1.2,74
11.1,-1.05,74
11.1,-0.9,73
11.1,-0.75,73
11.1,-0.6,73
11.1,-0.45,73
11.1,-0.3,72
11.1,-0.15,69
11.1,0.0,69
11.1,0.15,69
11.1,0.3,69
11.1,0.45,72
11.1,0.6,72
11.1,0.75,72
11.1,0.9,72
11.1,1.05,71
11.1,1.2,71
11.1,1.35,70
11.1,1.5,70
11.25,-1.5,70
11.25,-1.35,69
11.25,-1.2,69
11.25,-1.05,69
11.25,-0.9,68
11.25,-0.75,68
11.25,-0.6,68
11.25,-0.45,64
11.25,-0.3,64
11.25,-0.15,64
11.25,0.0,64
11.25,0.15,64
11.25,0.3,64
11.25,0.45,64
11.25,0.6,64
11.25,0.75,64
11.25,0.9,64
11.25,1.05,67
11.25,1.2,67
11.25,1.35,66
11.25,1.5,66
11.4,-1.5,64
11.4,-1.35,64
11.4,-1.2,64
11.4,-1.05,63
11.4,-0.9,62
11.4,-0.75,59
11.4,-0.6,58
11.4,-0.45,57
11.4,-0.3,57
11.4,-0.15,57
11.4,0.0,57
11.4,0.15,57
11.4,0.3,57
11.4,0.45,58
11.4,0.6,58
11.4,0.75,58
11.4,0.9,58
11.4,1.05,58
11.4,1.2,58
11.4,1.35,58
11.4,1.5,61
11.55,-1.5,59
11.55,-1.35,58
11.55,-1.2,54
11.55,-1.05,53
11.55,-0.9,52
11.55,-0.75,51
11.55,-0.6,50
11.55,-0.45,49
11.55,-0.3,49
11.55,-0.15,48
11.55,0.0,49
11.55,0.15,50
11.55,0.3,50
11.55,0.45,51
11.55,0.6,52
11.55,0.75,53
11.55,0.9,53
11.55,1.05,53
11.55,1.2,52
11.55,1.35,52
11.55,1.5,52
11.7,-1.5,49
11.7,-1.35,48
11.7,-1.2,47
11.7,-1.05,46
11.7,-0.9,45
11.7,-0.75,43
11.7,-0.6,42
11.7,-0.45,40
11.7,-0.3,39
11.7,-0.15,39
11.7,0.0,40
11.7,0.15,41
11.7,0.3,43
11.7,0.45,44
11.7,0.6,46
11.7,0.75,46
11.7,0.9,47
11.7,1.05,47
11.7,1.2,47
11.7,1.35,46
11.7,1.5,46
11.85,-1.5,42
11.85,-1.35,41
11.85,-1.2,40
11.85,-1.05,39
11.85,-0.9,37
11.85,-0.75,35
11.85,-0.6,33
11.85,-0.45,31
11.85,-0.3,29
11.85,-0.15,29
11.85,0.0,31
11.85,0.15,33
11.85,0.3,35
11.85,0.45,38
11.85,0.6,39
11.85,0.75,40
11.85,0.9,41
11.85,1.05,41
11.85,1.2,40
11.85,1.35,40
11.85,1.5,40
12.0,-1.5,35
12.0,-1.35,34
12.0,-1.2,33
12.0,-1.05,32
12.0,-0.9,30
12.0,-0.75,27
12.0,-0.6,24
12.0,-0.45,21
12.0,-0.3,19
12.0,-0.15,19
12.0,0.0,21
12.0,0.15,24
12.0,0.3,28
12.0,0.45,31
12.0,0.6,33
12.0,0.75,35
12.0,0.9,35
12.0,1.05,35
12.0,1.2,34
12.0,1.35,33
12.0,1.5,33
12.15,-1.5,28
12.15,-1.35,27
12.15,-1.2,27
12.15,-1.05,26
12.15,-0.9,24
12.15,-0.75,21
12.15,-0.6,16
12.15,-0.45,12
12.15,-0.3,10
12.15,-0.15,10
12.15,0.0,12
12.15,0.15,16
12.15,0.3,21
12.15,0.45,25
12.15,0.6,28
12.15,0.75,29
12.15,0.9,29
12.15,1.05,29
12.15,1.2,27
12.15,1.35,26
12.15,1.5,26
12.3,-1.5,20
12.3,-1.35,20
12.3,-1.2,20
12.3,-1.05,20
12.3,-0.9,19
12.3,-0.75,15
12.3,-0.6,10
12.3,-0.45,6
12.3,-0.3,2
12.3,-0.15,2
12.3,0.0,5
12.3,0.15,10
12.3,0.3,16
12.3,0.45,20
12.3,0.6,23
12.3,0.75,25
12.3,0.9,24
12.3,1.05,23
12.3,1.2,21
12.3,1.35,19
12.3,1.5,18
12.45,-1.5,13
12.45,-1.35,13
12.45,-1.2,15
12.45,-1.05,15
12.45,-0.9,15
12.45,-0.75,12
12.45,-0.6,7
12.45,-0.45,1
12.45,-0.3,0
12.45,-0.15,0
12.45,0.0,1
12.45,0.15,7
12.45,0.3,12
12.45,0.45,17
12.45,0.6,20
12.45,0.75,21
12.45,0.9,20
12.45,1.05,17
12.45,1.2,15
12.45,1.35,12
12.45,1.5,11
12.6,-1.5,6
12.6,-1.35,7
12.6,-1.2,9
12.6,-1.05,11
12.6,-0.9,12
12.6,-0.75,10
12.6,-0.6,5
12.6,-0.45,0
12.6,-0.3,0
12.6,-0.15,0
12.6,0.0,0
12.6,0.15,5
12.6,0.3,11
12.6,0.45,15
12.6,0.6,18
12.6,0.75,18
12.6,0.9,16
12.6,1.05,12
12.6,1.2,9
12.6,1.35,6
12.6,1.5,5
12.75,-1.5,0
12.75,-1.35,2
12.75,-1.2,5
12.75,-1.05,8
12.75,-0.9,10
12.75,-0.75,9
12.75,-0.6,6
12.75,-0.45,2
12.75,-0.3,0
12.75,-0.15,0
12.75,0.0,2
12.75,0.15,6
12.75,0.3,11
12.75,0.45,14
12.75,0.6,16
12.75,0.75,15
12.75,0.9,13
12.75,1.05,9
12.75,1.2,4
12.75,1.35,1
12.75,1.5,0
12.9,-1.5,0
12.9,-1.35,0
12.9,-1.2,2
12.9,-1.05,6
12.9,-0.9,9
12.9,-0.75,10
12.9,-0.6,8
12.9,-0.45,5
12.9,-0.3,4
12.9,-0.15,4
12.9,0.0,5
12.9,0.15,9
12.9,0.3,12
12.9,0.45,14
12.9,0.6,15
12.9,0.75,14
12.9,0.9,11
12.9,1.05,6
12.9,1.2,2
12.9,1.35,0
12.9,1.5,0
13.05,-1.5,0
13.05,-1.35,0
13.05,-1.2,1
13.05,-1.05,6
13.05,-0.9,9
13.05,-0.75,10
13.05,-0.6,10
13.05,-0.45,9
13.05,-0.3,8
13.05,-0.15,8
13.05,0.0,9
13.05,0.15,11
13.05,0.3,14
13.05,0.45,15
13.05,0.6,15
13.05,0.75,13
13.05,0.9,10
13.05,1.05,5
13.05,1.2,1
13.05,1.35,0
13.05,1.5,0
