-3.0,-1.5,0
-3.0,-1.35,30
-3.0,-1.2,114
-3.0,-1.05,187
-3.0,-0.9,216
-3.0,-0.75,200
-3.0,-0.6,167
-3.0,-0.45,127
-3.0,-0.3,90
-3.0,-0.15,75
-3.0,0.0,104
-3.0,0.15,125
-3.0,0.3,112
-3.0,0.45,84
-3.0,0.6,52
-3.0,0.75,51
-3.0,0.9,58
-3.0,1.05,55
-3.0,1.2,43
-3.0,1.35,13
-3.0,1.5,0
-2.85,-1.5,22
-2.85,-1.35,58
-2.85,-1.2,139
-2.85,-1.05,218
-2.85,-0.9,255
-2.85,-0.75,223
-2.85,-0.6,184
-2.85,-0.45,138
-2.85,-0.3,60
-2.85,-0.15,17
-2.85,0.0,102
-2.85,0.15,158
-2.85,0.3,133
-2.85,0.45,75
-2.85,0.6,16
-2.85,0.75,25
-2.85,0.9,52
-2.85,1.05,63
-2.85,1.2,52
-2.85,1.35,27
-2.85,1.5,13
-2.7,-1.5,66
-2.7,-1.35,97
-2.7,-1.2,150
-2.7,-1.05,204
-2.7,-0.9,229
-2.7,-0.75,214
-2.7,-0.6,219
-2.7,-0.45,180
-2.7,-0.3,82
-2.7,-0.15,32
-2.7,0.0,141
-2.7,0.15,250
-2.7,0.3,153
-2.7,0.45,83
-2.7,0.6,20
-2.7,0.75,30
-2.7,0.9,56
-2.7,1.05,73
-2.7,1.2,69
-2.7,1.35,55
-2.7,1.5,44
-2.55,-1.5,98
-2.55,-1.35,116
-2.55,-1.2,146
-2.55,-1.05,174
-2.55,-0.9,190
-2.55,-0.75,208
-2.55,-0.6,252
-2.55,-0.45,212
-2.55,-0.3,129
-2.55,-0.15,107
-2.55,0.0,137
-2.55,0.15,151
-2.55,0.3,108
-2.55,0.45,92
-2.55,0.6,66
-2.55,0.75,61
-2.55,0.9,77
-2.55,1.05,84
-2.55,1.2,84
-2.55,1.35,77
-2.55,1.5,71
-2.4,-1.5,105
-2.4,-1.35,118
-2.4,-1.2,134
-2.4,-1.05,151
-2.4,-0.9,163
-2.4,-0.75,178
-2.4,-0.6,194
-2.4,-0.45,164
-2.4,-0.3,117
-2.4,-0.15,101
-2.4,0.0,115
-2.4,0.15,97
-2.4,0.3,88
-2.4,0.45,92
-2.4,0.6,23
-2.4,0.75,71
-2.4,0.9,89
-2.4,1.05,96
-2.4,1.2,97
-2.4,1.35,94
-2.4,1.5,90
-2.25,-1.5,117
-2.25,-1.35,116
-2.25,-1.2,124
-2.25,-1.05,130
-2.25,-0.9,129
-2.25,-0.75,135
-2.25,-0.6,128
-2.25,-0.45,106
-2.25,-0.3,81
-2.25,-0.15,76
-2.25,0.0,96
-2.25,0.15,112
-2.25,0.3,66
-2.25,0.45,154
-2.25,0.6,60
-2.25,0.75,90
-2.25,0.9,107
-2.25,1.05,109
-2.25,1.2,109
-2.25,1.35,107
-2.25,1.5,104
-2.1,-1.5,119
-2.1,-1.35,122
-2.1,-1.2,126
-2.1,-1.05,130
-2.1,-0.9,118
-2.1,-0.75,118
-2.1,-0.6,100
-2.1,-0.45,78
-2.1,-0.3,52
-2.1,-0.15,28
-2.1,0.0,71
-2.1,0.15,100
-2.1,0.3,173
-2.1,0.45,206
-2.1,0.6,107
-2.1,0.75,112
-2.1,0.9,117
-2.1,1.05,120
-2.1,1.2,116
-2.1,1.35,112
-2.1,1.5,121
-1.95,-1.5,118
-1.95,-1.35,120
-1.95,-1.2,123
-1.95,-1.05,125
-1.95,-0.9,119
-1.95,-0.75,108
-1.95,-0.6,105
-1.95,-0.45,97
-1.95,-0.3,61
-1.95,-0.15,36
-1.95,0.0,73
-1.95,0.15,103
-1.95,0.3,196
-1.95,0.45,255
-1.95,0.6,107
-1.95,0.75,126
-1.95,0.9,132
-1.95,1.05,146
-1.95,1.2,140
-1.95,1.35,136
-1.95,1.5,132
-1.8,-1.5,116
-1.8,-1.35,116
-1.8,-1.2,119
-1.8,-1.05,116
-1.8,-0.9,107
-1.8,-0.75,104
-1.8,-0.6,107
-1.8,-0.45,124
-1.8,-0.3,82
-1.8,-0.15,68
-1.8,0.0,71
-1.8,0.15,98
-1.8,0.3,123
-1.8,0.45,146
-1.8,0.6,150
-1.8,0.75,161
-1.8,0.9,168
-1.8,1.05,165
-1.8,1.2,158
-1.8,1.35,150
-1.8,1.5,144
-1.65,-1.5,126
-1.65,-1.35,129
-1.65,-1.2,115
-1.65,-1.05,105
-1.65,-0.9,96
-1.65,-0.75,96
-1.65,-0.6,95
-1.65,-0.45,70
-1.65,-0.3,83
-1.65,-0.15,75
-1.65,0.0,64
-1.65,0.15,84
-1.65,0.3,102
-1.65,0.45,64
-1.65,0.6,145
-1.65,0.75,210
-1.65,0.9,200
-1.65,1.05,178
-1.65,1.2,166
-1.65,1.35,175
-1.65,1.5,165
-1.5,-1.5,113
-1.5,-1.35,106
-1.5,-1.2,106
-1.5,-1.05,106
-1.5,-0.9,96
-1.5,-0.75,99
-1.5,-0.6,96
-1.5,-0.45,75
-1.5,-0.3,88
-1.5,-0.15,82
-1.5,0.0,59
-1.5,0.15,60
-1.5,0.3,117
-1.5,0.45,122
-1.5,0.6,146
-1.5,0.75,246
-1.5,0.9,219
-1.5,1.05,191
-1.5,1.2,178
-1.5,1.35,172
-1.5,1.5,172
-1.35,-1.5,104
-1.35,-1.35,105
-1.35,-1.2,107
-1.35,-1.05,108
-1.35,-0.9,109
-1.35,-0.75,113
-1.35,-0.6,120
-1.35,-0.45,164
-1.35,-0.3,170
-1.35,-0.15,96
-1.35,0.0,52
-1.35,0.15,46
-1.35,0.3,213
-1.35,0.45,189
-1.35,0.6,68
-1.35,0.75,156
-1.35,0.9,182
-1.35,1.05,176
-1.35,1.2,167
-1.35,1.35,161
-1.35,1.5,161
-1.2,-1.5,98
-1.2,-1.35,100
-1.2,-1.2,106
-1.2,-1.05,107
-1.2,-0.9,109
-1.2,-0.75,112
-1.2,-0.6,125
-1.2,-0.45,154
-1.2,-0.3,175
-1.2,-0.15,67
-1.2,0.0,40
-1.2,0.15,120
-1.2,0.3,255
-1.2,0.45,255
-1.2,0.6,140
-1.2,0.75,149
-1.2,0.9,161
-1.2,1.05,154
-1.2,1.2,162
-1.2,1.35,159
-1.2,1.5,157
-1.05,-1.5,95
-1.05,-1.35,97
-1.05,-1.2,99
-1.05,-1.05,105
-1.05,-0.9,103
-1.05,-0.75,101
-1.05,-0.6,90
-1.05,-0.45,68
-1.05,-0.3,94
-1.05,-0.15,76
-1.05,0.0,86
-1.05,0.15,162
-1.05,0.3,197
-1.05,0.45,201
-1.05,0.6,169
-1.05,0.75,159
-1.05,0.9,155
-1.05,1.05,154
-1.05,1.2,155
-1.05,1.35,153
-1.05,1.5,151
-0.9,-1.5,87
-0.9,-1.35,89
-0.9,-1.2,91
-0.9,-1.05,94
-0.9,-0.9,101
-0.9,-0.75,100
-0.9,-0.6,80
-0.9,-0.45,16
-0.9,-0.3,71
-0.9,-0.15,107
-0.9,0.0,233
-0.9,0.15,255
-0.9,0.3,182
-0.9,0.45,161
-0.9,0.6,164
-0.9,0.75,156
-0.9,0.9,150
-0.9,1.05,147
-0.9,1.2,147
-0.9,1.35,147
-0.9,1.5,146
-0.75,-1.5,78
-0.75,-1.35,79
-0.75,-1.2,84
-0.75,-1.05,87
-0.75,-0.9,95
-0.75,-0.75,116
-0.75,-0.6,133
-0.75,-0.45,97
-0.75,-0.3,83
-0.75,-0.15,71
-0.75,0.0,184
-0.75,0.15,235
-0.75,0.3,153
-0.75,0.45,119
-0.75,0.6,179
-0.75,0.75,148
-0.75,0.9,144
-0.75,1.05,145
-0.75,1.2,147
-0.75,1.35,147
-0.75,1.5,140
-0.6,-1.5,62
-0.6,-1.35,62
-0.6,-1.2,63
-0.6,-1.05,83
-0.6,-0.9,82
-0.6,-0.75,110
-0.6,-0.6,194
-0.6,-0.45,124
-0.6,-0.3,79
-0.6,-0.15,111
-0.6,0.0,150
-0.6,0.15,147
-0.6,0.3,115
-0.6,0.45,92
-0.6,0.6,112
-0.6,0.75,120
-0.6,0.9,123
-0.6,1.05,134
-0.6,1.2,139
-0.6,1.35,143
-0.6,1.5,140
-0.45,-1.5,70
-0.45,-1.35,70
-0.45,-1.2,56
-0.45,-1.05,53
-0.45,-0.9,61
-0.45,-0.75,71
-0.45,-0.6,112
-0.45,-0.45,104
-0.45,-0.3,100
-0.45,-0.15,185
-0.45,0.0,162
-0.45,0.15,94
-0.45,0.3,86
-0.45,0.45,37
-0.45,0.6,79
-0.45,0.75,94
-0.45,0.9,100
-0.45,1.05,118
-0.45,1.2,119
-0.45,1.35,133
-0.45,1.5,119
-0.3,-1.5,70
-0.3,-1.35,70
-0.3,-1.2,70
-0.3,-1.05,55
-0.3,-0.9,29
-0.3,-0.75,5
-0.3,-0.6,77
-0.3,-0.45,77
-0.3,-0.3,106
-0.3,-0.15,100
-0.3,0.0,63
-0.3,0.15,129
-0.3,0.3,114
-0.3,0.45,56
-0.3,0.6,63
-0.3,0.75,76
-0.3,0.9,87
-0.3,1.05,102
-0.3,1.2,104
-0.3,1.35,107
-0.3,1.5,109
-0.15,-1.5,64
-0.15,-1.35,64
-0.15,-1.2,70
-0.15,-1.05,56
-0.15,-0.9,29
-0.15,-0.75,22
-0.15,-0.6,91
-0.15,-0.45,101
-0.15,-0.3,134
-0.15,-0.15,105
-0.15,0.0,68
-0.15,0.15,149
-0.15,0.3,136
-0.15,0.45,91
-0.15,0.6,78
-0.15,0.75,81
-0.15,0.9,97
-0.15,1.05,105
-0.15,1.2,106
-0.15,1.35,108
-0.15,1.5,109
0.0,-1.5,78
0.0,-1.35,72
0.0,-1.2,64
0.0,-1.05,55
0.0,-0.9,40
0.0,-0.75,47
0.0,-0.6,134
0.0,-0.45,156
0.0,-0.3,147
0.0,-0.15,122
0.0,0.0,103
0.0,0.15,105
0.0,0.3,99
0.0,0.45,87
0.0,0.6,78
0.0,0.75,100
0.0,0.9,105
0.0,1.05,106
0.0,1.2,105
0.0,1.35,107
0.0,1.5,107
0.15,-1.5,56
0.15,-1.35,52
0.15,-1.2,58
0.15,-1.05,44
0.15,-0.9,43
0.15,-0.75,93
0.15,-0.6,202
0.15,-0.45,229
0.15,-0.3,219
0.15,-0.15,98
0.15,0.0,86
0.15,0.15,105
0.15,0.3,85
0.15,0.45,78
0.15,0.6,89
0.15,0.75,92
0.15,0.9,96
0.15,1.05,99
0.15,1.2,99
0.15,1.35,109
0.15,1.5,108
0.3,-1.5,49
0.3,-1.35,45
0.3,-1.2,36
0.3,-1.05,17
0.3,-0.9,1
0.3,-0.75,64
0.3,-0.6,150
0.3,-0.45,177
0.3,-0.3,163
0.3,-0.15,82
0.3,0.0,73
0.3,0.15,63
0.3,0.3,71
0.3,0.45,78
0.3,0.6,86
0.3,0.75,98
0.3,0.9,108
0.3,1.05,112
0.3,1.2,109
0.3,1.35,99
0.3,1.5,99
0.45,-1.5,46
0.45,-1.35,42
0.45,-1.2,38
0.45,-1.05,27
0.45,-0.9,26
0.45,-0.75,55
0.45,-0.6,86
0.45,-0.45,97
0.45,-0.3,76
0.45,-0.15,46
0.45,0.0,50
0.45,0.15,60
0.45,0.3,45
0.45,0.45,50
0.45,0.6,76
0.45,0.75,103
0.45,0.9,129
0.45,1.05,128
0.45,1.2,118
0.45,1.35,102
0.45,1.5,103
0.6,-1.5,32
0.6,-1.35,31
0.6,-1.2,39
0.6,-1.05,34
0.6,-0.9,31
0.6,-0.75,31
0.6,-0.6,53
0.6,-0.45,65
0.6,-0.3,54
0.6,-0.15,32
0.6,0.0,33
0.6,0.15,45
0.6,0.3,13
0.6,0.45,22
0.6,0.6,77
0.6,0.75,90
0.6,0.9,200
0.6,1.05,159
0.6,1.2,123
0.6,1.35,112
0.6,1.5,108
0.75,-1.5,40
0.75,-1.35,31
0.75,-1.2,29
0.75,-1.05,27
0.75,-0.9,11
0.75,-0.75,0
0.75,-0.6,28
0.75,-0.45,49
0.75,-0.3,62
0.75,-0.15,39
0.75,0.0,46
0.75,0.15,67
0.75,0.3,56
0.75,0.45,62
0.75,0.6,78
0.75,0.75,83
0.75,0.9,189
0.75,1.05,124
0.75,1.2,102
0.75,1.35,102
0.75,1.5,100
0.9,-1.5,28
0.9,-1.35,28
0.9,-1.2,27
0.9,-1.05,24
0.9,-0.9,26
0.9,-0.75,25
0.9,-0.6,35
0.9,-0.45,50
0.9,-0.3,67
0.9,-0.15,75
0.9,0.0,105
0.9,0.15,91
0.9,0.3,82
0.9,0.45,86
0.9,0.6,86
0.9,0.75,70
0.9,0.9,100
0.9,1.05,66
0.9,1.2,81
0.9,1.35,92
0.9,1.5,92
1.05,-1.5,28
1.05,-1.35,28
1.05,-1.2,28
1.05,-1.05,31
1.05,-0.9,35
1.05,-0.75,27
1.05,-0.6,35
1.05,-0.45,50
1.05,-0.3,65
1.05,-0.15,126
1.05,0.0,208
1.05,0.15,118
1.05,0.3,95
1.05,0.45,101
1.05,0.6,103
1.05,0.75,92
1.05,0.9,94
1.05,1.05,84
1.05,1.2,83
1.05,1.35,87
1.05,1.5,87
1.2,-1.5,31
1.2,-1.35,34
1.2,-1.2,34
1.2,-1.05,34
1.2,-0.9,35
1.2,-0.75,30
1.2,-0.6,13
1.2,-0.45,9
1.2,-0.3,20
1.2,-0.15,81
1.2,0.0,123
1.2,0.15,107
1.2,0.3,247
1.2,0.45,137
1.2,0.6,97
1.2,0.75,95
1.2,0.9,89
1.2,1.05,86
1.2,1.2,83
1.2,1.35,83
1.2,1.5,83
1.35,-1.5,50
1.35,-1.35,49
1.35,-1.2,49
1.35,-1.05,50
1.35,-0.9,45
1.35,-0.75,52
1.35,-0.6,16
1.35,-0.45,0
1.35,-0.3,6
1.35,-0.15,72
1.35,0.0,75
1.35,0.15,79
1.35,0.3,123
1.35,0.45,114
1.35,0.6,82
1.35,0.75,66
1.35,0.9,79
1.35,1.05,78
1.35,1.2,75
1.35,1.35,76
1.35,1.5,77
1.5,-1.5,54
1.5,-1.35,56
1.5,-1.2,58
1.5,-1.05,60
1.5,-0.9,55
1.5,-0.75,41
1.5,-0.6,8
1.5,-0.45,20
1.5,-0.3,21
1.5,-0.15,31
1.5,0.0,57
1.5,0.15,19
1.5,0.3,123
1.5,0.45,74
1.5,0.6,55
1.5,0.75,60
1.5,0.9,63
1.5,1.05,73
1.5,1.2,66
1.5,1.35,66
1.5,1.5,68
1.65,-1.5,58
1.65,-1.35,62
1.65,-1.2,70
1.65,-1.05,84
1.65,-0.9,97
1.65,-0.75,62
1.65,-0.6,27
1.65,-0.45,55
1.65,-0.3,55
1.65,-0.15,32
1.65,0.0,37
1.65,0.15,49
1.65,0.3,61
1.65,0.45,53
1.65,0.6,44
1.65,0.75,37
1.65,0.9,35
1.65,1.05,40
1.65,1.2,46
1.65,1.35,48
1.65,1.5,62
1.8,-1.5,64
1.8,-1.35,68
1.8,-1.2,78
1.8,-1.05,98
1.8,-0.9,121
1.8,-0.75,99
1.8,-0.6,198
1.8,-0.45,51
1.8,-0.3,32
1.8,-0.15,51
1.8,0.0,32
1.8,0.15,38
1.8,0.3,34
1.8,0.45,18
1.8,0.6,40
1.8,0.75,15
1.8,0.9,26
1.8,1.05,35
1.8,1.2,36
1.8,1.35,39
1.8,1.5,52
1.95,-1.5,94
1.95,-1.35,95
1.95,-1.2,97
1.95,-1.05,88
1.95,-0.9,92
1.95,-0.75,97
1.95,-0.6,113
1.95,-0.45,74
1.95,-0.3,63
1.95,-0.15,67
1.95,0.0,136
1.95,0.15,89
1.95,0.3,56
1.95,0.45,9
1.95,0.6,70
1.95,0.75,4
1.95,0.9,24
1.95,1.05,38
1.95,1.2,43
1.95,1.35,46
1.95,1.5,52
2.1,-1.5,92
2.1,-1.35,92
2.1,-1.2,88
2.1,-1.05,90
2.1,-0.9,88
2.1,-0.75,84
2.1,-0.6,84
2.1,-0.45,75
2.1,-0.3,68
2.1,-0.15,66
2.1,0.0,66
2.1,0.15,77
2.1,0.3,74
2.1,0.45,125
2.1,0.6,95
2.1,0.75,30
2.1,0.9,40
2.1,1.05,41
2.1,1.2,54
2.1,1.35,58
2.1,1.5,59
2.25,-1.5,108
2.25,-1.35,108
2.25,-1.2,105
2.25,-1.05,97
2.25,-0.9,77
2.25,-0.75,28
2.25,-0.6,67
2.25,-0.45,71
2.25,-0.3,45
2.25,-0.15,62
2.25,0.0,66
2.25,0.15,65
2.25,0.3,61
2.25,0.45,83
2.25,0.6,72
2.25,0.75,32
2.25,0.9,47
2.25,1.05,53
2.25,1.2,56
2.25,1.35,58
2.25,1.5,59
2.4,-1.5,100
2.4,-1.35,108
2.4,-1.2,105
2.4,-1.05,85
2.4,-0.9,79
2.4,-0.75,57
2.4,-0.6,141
2.4,-0.45,108
2.4,-0.3,39
2.4,-0.15,59
2.4,0.0,62
2.4,0.15,58
2.4,0.3,31
2.4,0.45,68
2.4,0.6,103
2.4,0.75,36
2.4,0.9,53
2.4,1.05,62
2.4,1.2,62
2.4,1.35,62
2.4,1.5,62
2.55,-1.5,111
2.55,-1.35,98
2.55,-1.2,94
2.55,-1.05,96
2.55,-0.9,96
2.55,-0.75,112
2.55,-0.6,142
2.55,-0.45,94
2.55,-0.3,56
2.55,-0.15,39
2.55,0.0,52
2.55,0.15,55
2.55,0.3,7
2.55,0.45,219
2.55,0.6,211
2.55,0.75,77
2.55,0.9,63
2.55,1.05,54
2.55,1.2,52
2.55,1.35,62
2.55,1.5,62
2.7,-1.5,118
2.7,-1.35,119
2.7,-1.2,124
2.7,-1.05,112
2.7,-0.9,116
2.7,-0.75,119
2.7,-0.6,126
2.7,-0.45,142
2.7,-0.3,40
2.7,-0.15,33
2.7,0.0,10
2.7,0.15,62
2.7,0.3,61
2.7,0.45,54
2.7,0.6,110
2.7,0.75,74
2.7,0.9,44
2.7,1.05,45
2.7,1.2,51
2.7,1.35,54
2.7,1.5,56
2.85,-1.5,108
2.85,-1.35,108
2.85,-1.2,109
2.85,-1.05,113
2.85,-0.9,85
2.85,-0.75,83
2.85,-0.6,71
2.85,-0.45,57
2.85,-0.3,65
2.85,-0.15,60
2.85,0.0,54
2.85,0.15,57
2.85,0.3,62
2.85,0.45,110
2.85,0.6,44
2.85,0.75,44
2.85,0.9,0
2.85,1.05,34
2.85,1.2,52
2.85,1.35,56
2.85,1.5,56
3.0,-1.5,97
3.0,-1.35,98
3.0,-1.2,103
3.0,-1.05,104
3.0,-0.9,107
3.0,-0.75,75
3.0,-0.6,39
3.0,-0.45,58
3.0,-0.3,59
3.0,-0.15,60
3.0,0.0,59
3.0,0.15,57
3.0,0.3,57
3.0,0.45,56
3.0,0.6,36
3.0,0.75,44
3.0,0.9,36
3.0,1.05,42
3.0,1.2,52
3.0,1.35,56
3.0,1.5,56
3.15,-1.5,94
3.15,-1.35,94
3.15,-1.2,97
3.15,-1.05,103
3.15,-0.9,114
3.15,-0.75,115
3.15,-0.6,84
3.15,-0.45,118
3.15,-0.3,46
3.15,-0.15,33
3.15,0.0,33
3.15,0.15,59
3.15,0.3,58
3.15,0.45,34
3.15,0.6,39
3.15,0.75,41
3.15,0.9,42
3.15,1.05,40
3.15,1.2,40
3.15,1.35,45
3.15,1.5,47
3.3,-1.5,89
3.3,-1.35,86
3.3,-1.2,84
3.3,-1.05,89
3.3,-0.9,117
3.3,-0.75,164
3.3,-0.6,243
3.3,-0.45,183
3.3,-0.3,131
3.3,-0.15,72
3.3,0.0,65
3.3,0.15,51
3.3,0.3,66
3.3,0.45,6
3.3,0.6,38
3.3,0.75,45
3.3,0.9,49
3.3,1.05,46
3.3,1.2,40
3.3,1.35,49
3.3,1.5,49
3.45,-1.5,71
3.45,-1.35,67
3.45,-1.2,57
3.45,-1.05,31
3.45,-0.9,75
3.45,-0.75,215
3.45,-0.6,93
3.45,-0.45,109
3.45,-0.3,74
3.45,-0.15,72
3.45,0.0,63
3.45,0.15,143
3.45,0.3,69
3.45,0.45,46
3.45,0.6,54
3.45,0.75,50
3.45,0.9,58
3.45,1.05,54
3.45,1.2,52
3.45,1.35,42
3.45,1.5,42
3.6,-1.5,61
3.6,-1.35,66
3.6,-1.2,50
3.6,-1.05,32
3.6,-0.9,53
3.6,-0.75,51
3.6,-0.6,0
3.6,-0.45,82
3.6,-0.3,66
3.6,-0.15,61
3.6,0.0,57
3.6,0.15,34
3.6,0.3,49
3.6,0.45,46
3.6,0.6,51
3.6,0.75,69
3.6,0.9,65
3.6,1.05,67
3.6,1.2,70
3.6,1.35,72
3.6,1.5,61
3.75,-1.5,50
3.75,-1.35,49
3.75,-1.2,44
3.75,-1.05,54
3.75,-0.9,56
3.75,-0.75,14
3.75,-0.6,25
3.75,-0.45,87
3.75,-0.3,2
3.75,-0.15,58
3.75,0.0,37
3.75,0.15,19
3.75,0.3,99
3.75,0.45,46
3.75,0.6,46
3.75,0.75,69
3.75,0.9,73
3.75,1.05,80
3.75,1.2,84
3.75,1.35,87
3.75,1.5,68
3.9,-1.5,67
3.9,-1.35,65
3.9,-1.2,50
3.9,-1.05,52
3.9,-0.9,57
3.9,-0.75,52
3.9,-0.6,91
3.9,-0.45,110
3.9,-0.3,166
3.9,-0.15,28
3.9,0.0,79
3.9,0.15,115
3.9,0.3,187
3.9,0.45,89
3.9,0.6,78
3.9,0.75,86
3.9,0.9,88
3.9,1.05,90
3.9,1.2,93
3.9,1.35,75
3.9,1.5,72
4.05,-1.5,74
4.05,-1.35,74
4.05,-1.2,72
4.05,-1.05,83
4.05,-0.9,88
4.05,-0.75,84
4.05,-0.6,71
4.05,-0.45,118
4.05,-0.3,79
4.05,-0.15,83
4.05,0.0,167
4.05,0.15,86
4.05,0.3,88
4.05,0.45,226
4.05,0.6,121
4.05,0.75,78
4.05,0.9,84
4.05,1.05,93
4.05,1.2,94
4.05,1.35,94
4.05,1.5,78
4.2,-1.5,80
4.2,-1.35,79
4.2,-1.2,90
4.2,-1.05,107
4.2,-0.9,111
4.2,-0.75,111
4.2,-0.6,100
4.2,-0.45,201
4.2,-0.3,71
4.2,-0.15,130
4.2,0.0,57
4.2,0.15,57
4.2,0.3,111
4.2,0.45,191
4.2,0.6,132
4.2,0.75,82
4.2,0.9,78
4.2,1.05,78
4.2,1.2,89
4.2,1.35,94
4.2,1.5,94
4.35,-1.5,111
4.35,-1.35,105
4.35,-1.2,106
4.35,-1.05,109
4.35,-0.9,118
4.35,-0.75,173
4.35,-0.6,153
4.35,-0.45,91
4.35,-0.3,113
4.35,-0.15,91
4.35,0.0,110
4.35,0.15,127
4.35,0.3,134
4.35,0.45,141
4.35,0.6,109
4.35,0.75,110
4.35,0.9,109
4.35,1.05,112
4.35,1.2,114
4.35,1.35,115
4.35,1.5,116
4.5,-1.5,127
4.5,-1.35,128
4.5,-1.2,124
4.5,-1.05,131
4.5,-0.9,121
4.5,-0.75,128
4.5,-0.6,137
4.5,-0.45,153
4.5,-0.3,117
4.5,-0.15,105
4.5,0.0,67
4.5,0.15,204
4.5,0.3,106
4.5,0.45,17
4.5,0.6,68
4.5,0.75,104
4.5,0.9,111
4.5,1.05,114
4.5,1.2,115
4.5,1.35,117
4.5,1.5,115
4.65,-1.5,125
4.65,-1.35,124
4.65,-1.2,134
4.65,-1.05,133
4.65,-0.9,125
4.65,-0.75,78
4.65,-0.6,118
4.65,-0.45,171
4.65,-0.3,193
4.65,-0.15,118
4.65,0.0,95
4.65,0.15,66
4.65,0.3,155
4.65,0.45,90
4.65,0.6,99
4.65,0.75,105
4.65,0.9,109
4.65,1.05,110
4.65,1.2,112
4.65,1.35,116
4.65,1.5,117
4.8,-1.5,147
4.8,-1.35,146
4.8,-1.2,140
4.8,-1.05,155
4.8,-0.9,147
4.8,-0.75,205
4.8,-0.6,212
4.8,-0.45,199
4.8,-0.3,52
4.8,-0.15,178
4.8,0.0,56
4.8,0.15,47
4.8,0.3,38
4.8,0.45,249
4.8,0.6,134
4.8,0.75,107
4.8,0.9,92
4.8,1.05,104
4.8,1.2,104
4.8,1.35,104
4.8,1.5,129
4.95,-1.5,152
4.95,-1.35,143
4.95,-1.2,143
4.95,-1.05,134
4.95,-0.9,131
4.95,-0.75,155
4.95,-0.6,161
4.95,-0.45,118
4.95,-0.3,248
4.95,-0.15,121
4.95,0.0,136
4.95,0.15,75
4.95,0.3,12
4.95,0.45,120
4.95,0.6,137
4.95,0.75,126
4.95,0.9,127
4.95,1.05,126
4.95,1.2,129
4.95,1.35,129
4.95,1.5,137
5.1,-1.5,124
5.1,-1.35,123
5.1,-1.2,126
5.1,-1.05,127
5.1,-0.9,127
5.1,-0.75,131
5.1,-0.6,161
5.1,-0.45,251
5.1,-0.3,26
5.1,-0.15,65
5.1,0.0,108
5.1,0.15,168
5.1,0.3,122
5.1,0.45,136
5.1,0.6,137
5.1,0.75,133
5.1,0.9,109
5.1,1.05,109
5.1,1.2,124
5.1,1.35,128
5.1,1.5,127
5.25,-1.5,122
5.25,-1.35,119
5.25,-1.2,122
5.25,-1.05,110
5.25,-0.9,121
5.25,-0.75,82
5.25,-0.6,94
5.25,-0.45,60
5.25,-0.3,118
5.25,-0.15,118
5.25,0.0,105
5.25,0.15,90
5.25,0.3,187
5.25,0.45,134
5.25,0.6,135
5.25,0.75,132
5.25,0.9,130
5.25,1.05,128
5.25,1.2,109
5.25,1.35,102
5.25,1.5,121
5.4,-1.5,117
5.4,-1.35,114
5.4,-1.2,104
5.4,-1.05,71
5.4,-0.9,119
5.4,-0.75,241
5.4,-0.6,12
5.4,-0.45,53
5.4,-0.3,60
5.4,-0.15,98
5.4,0.0,87
5.4,0.15,75
5.4,0.3,199
5.4,0.45,142
5.4,0.6,133
5.4,0.75,113
5.4,0.9,133
5.4,1.05,133
5.4,1.2,153
5.4,1.35,153
5.4,1.5,154
5.55,-1.5,133
5.55,-1.35,129
5.55,-1.2,120
5.55,-1.05,105
5.55,-0.9,130
5.55,-0.75,162
5.55,-0.6,146
5.55,-0.45,70
5.55,-0.3,18
5.55,-0.15,43
5.55,0.0,48
5.55,0.15,48
5.55,0.3,96
5.55,0.45,127
5.55,0.6,112
5.55,0.75,112
5.55,0.9,127
5.55,1.05,133
5.55,1.2,134
5.55,1.35,148
5.55,1.5,144
5.7,-1.5,134
5.7,-1.35,134
5.7,-1.2,134
5.7,-1.05,147
5.7,-0.9,161
5.7,-0.75,172
5.7,-0.6,184
5.7,-0.45,156
5.7,-0.3,83
5.7,-0.15,78
5.7,0.0,65
5.7,0.15,81
5.7,0.3,88
5.7,0.45,92
5.7,0.6,104
5.7,0.75,111
5.7,0.9,115
5.7,1.05,116
5.7,1.2,116
5.7,1.35,116
5.7,1.5,116
5.85,-1.5,118
5.85,-1.35,133
5.85,-1.2,133
5.85,-1.05,129
5.85,-0.9,111
5.85,-0.75,138
5.85,-0.6,191
5.85,-0.45,101
5.85,-0.3,57
5.85,-0.15,88
5.85,0.0,33
5.85,0.15,25
5.85,0.3,104
5.85,0.45,86
5.85,0.6,112
5.85,0.75,123
5.85,0.9,130
5.85,1.05,129
5.85,1.2,127
5.85,1.35,124
5.85,1.5,123
6.0,-1.5,83
6.0,-1.35,83
6.0,-1.2,71
6.0,-1.05,68
6.0,-0.9,89
6.0,-0.75,77
6.0,-0.6,3
6.0,-0.45,134
6.0,-0.3,255
6.0,-0.15,128
6.0,0.0,75
6.0,0.15,52
6.0,0.3,84
6.0,0.45,104
6.0,0.6,138
6.0,0.75,151
6.0,0.9,142
6.0,1.05,134
6.0,1.2,128
6.0,1.35,125
6.0,1.5,122
6.15,-1.5,45
6.15,-1.35,45
6.15,-1.2,44
6.15,-1.05,43
6.15,-0.9,44
6.15,-0.75,37
6.15,-0.6,13
6.15,-0.45,66
6.15,-0.3,33
6.15,-0.15,54
6.15,0.0,187
6.15,0.15,68
6.15,0.3,185
6.15,0.45,94
6.15,0.6,218
6.15,0.75,189
6.15,0.9,143
6.15,1.05,120
6.15,1.2,111
6.15,1.35,106
6.15,1.5,103
6.3,-1.5,33
6.3,-1.35,33
6.3,-1.2,33
6.3,-1.05,33
6.3,-0.9,33
6.3,-0.75,33
6.3,-0.6,45
6.3,-0.45,49
6.3,-0.3,74
6.3,-0.15,84
6.3,0.0,131
6.3,0.15,125
6.3,0.3,8
6.3,0.45,47
6.3,0.6,143
6.3,0.75,158
6.3,0.9,133
6.3,1.05,119
6.3,1.2,113
6.3,1.35,102
6.3,1.5,100
6.45,-1.5,33
6.45,-1.35,37
6.45,-1.2,41
6.45,-1.05,43
6.45,-0.9,35
6.45,-0.75,45
6.45,-0.6,37
6.45,-0.45,84
6.45,-0.3,84
6.45,-0.15,67
6.45,0.0,227
6.45,0.15,122
6.45,0.3,87
6.45,0.45,81
6.45,0.6,96
6.45,0.75,95
6.45,0.9,95
6.45,1.05,101
6.45,1.2,100
6.45,1.35,100
6.45,1.5,101
6.6,-1.5,59
6.6,-1.35,57
6.6,-1.2,55
6.6,-1.05,54
6.6,-0.9,36
6.6,-0.75,36
6.6,-0.6,31
6.6,-0.45,23
6.6,-0.3,62
6.6,-0.15,81
6.6,0.0,136
6.6,0.15,134
6.6,0.3,56
6.6,0.45,23
6.6,0.6,38
6.6,0.75,54
6.6,0.9,59
6.6,1.05,84
6.6,1.2,89
6.6,1.35,92
6.6,1.5,94
6.75,-1.5,68
6.75,-1.35,62
6.75,-1.2,60
6.75,-1.05,57
6.75,-0.9,51
6.75,-0.75,36
6.75,-0.6,147
6.75,-0.45,176
6.75,-0.3,66
6.75,-0.15,27
6.75,0.0,134
6.75,0.15,11
6.75,0.3,21
6.75,0.45,16
6.75,0.6,35
6.75,0.75,61
6.75,0.9,62
6.75,1.05,66
6.75,1.2,69
6.75,1.35,74
6.75,1.5,75
6.9,-1.5,70
6.9,-1.35,69
6.9,-1.2,68
6.9,-1.05,80
6.9,-0.9,74
6.9,-0.75,71
6.9,-0.6,165
6.9,-0.45,30
6.9,-0.3,122
6.9,-0.15,50
6.9,0.0,54
6.9,0.15,32
6.9,0.3,9
6.9,0.45,21
6.9,0.6,44
6.9,0.75,54
6.9,0.9,69
6.9,1.05,76
6.9,1.2,87
6.9,1.35,90
6.9,1.5,85
7.05,-1.5,90
7.05,-1.35,89
7.05,-1.2,89
7.05,-1.05,81
7.05,-0.9,91
7.05,-0.75,92
7.05,-0.6,83
7.05,-0.45,82
7.05,-0.3,27
7.05,-0.15,115
7.05,0.0,208
7.05,0.15,134
7.05,0.3,39
7.05,0.45,86
7.05,0.6,120
7.05,0.75,112
7.05,0.9,109
7.05,1.05,110
7.05,1.2,121
7.05,1.35,121
7.05,1.5,103
7.2,-1.5,47
7.2,-1.35,44
7.2,-1.2,44
7.2,-1.05,58
7.2,-0.9,58
7.2,-0.75,70
7.2,-0.6,65
7.2,-0.45,9
7.2,-0.3,23
7.2,-0.15,71
7.2,0.0,111
7.2,0.15,170
7.2,0.3,155
7.2,0.45,142
7.2,0.6,162
7.2,0.75,159
7.2,0.9,139
7.2,1.05,127
7.2,1.2,118
7.2,1.35,115
7.2,1.5,113
7.35,-1.5,44
7.35,-1.35,44
7.35,-1.2,45
7.35,-1.05,44
7.35,-0.9,44
7.35,-0.75,43
7.35,-0.6,46
7.35,-0.45,70
7.35,-0.3,6
7.35,-0.15,225
7.35,0.0,22
7.35,0.15,107
7.35,0.3,69
7.35,0.45,144
7.35,0.6,251
7.35,0.75,204
7.35,0.9,166
7.35,1.05,150
7.35,1.2,143
7.35,1.35,115
7.35,1.5,113
7.5,-1.5,44
7.5,-1.35,44
7.5,-1.2,44
7.5,-1.05,44
7.5,-0.9,45
7.5,-0.75,43
7.5,-0.6,44
7.5,-0.45,81
7.5,-0.3,180
7.5,-0.15,43
7.5,0.0,41
7.5,0.15,47
7.5,0.3,7
7.5,0.45,122
7.5,0.6,170
7.5,0.75,172
7.5,0.9,158
7.5,1.05,126
7.5,1.2,119
7.5,1.35,115
7.5,1.5,113
7.65,-1.5,75
7.65,-1.35,79
7.65,-1.2,77
7.65,-1.05,62
7.65,-0.9,60
7.65,-0.75,48
7.65,-0.6,38
7.65,-0.45,25
7.65,-0.3,19
7.65,-0.15,139
7.65,0.0,98
7.65,0.15,92
7.65,0.3,121
7.65,0.45,87
7.65,0.6,107
7.65,0.75,131
7.65,0.9,134
7.65,1.05,122
7.65,1.2,119
7.65,1.35,117
7.65,1.5,116
7.8,-1.5,75
7.8,-1.35,100
7.8,-1.2,98
7.8,-1.05,94
7.8,-0.9,84
7.8,-0.75,66
7.8,-0.6,78
7.8,-0.45,103
7.8,-0.3,72
7.8,-0.15,106
7.8,0.0,196
7.8,0.15,90
7.8,0.3,86
7.8,0.45,42
7.8,0.6,65
7.8,0.75,95
7.8,0.9,105
7.8,1.05,109
7.8,1.2,111
7.8,1.35,115
7.8,1.5,115
7.95,-1.5,61
7.95,-1.35,75
7.95,-1.2,95
7.95,-1.05,93
7.95,-0.9,89
7.95,-0.75,79
7.95,-0.6,94
7.95,-0.45,67
7.95,-0.3,49
7.95,-0.15,47
7.95,0.0,19
7.95,0.15,28
7.95,0.3,115
7.95,0.45,33
7.95,0.6,56
7.95,0.75,68
7.95,0.9,89
7.95,1.05,98
7.95,1.2,106
7.95,1.35,107
7.95,1.5,112
8.1,-1.5,48
8.1,-1.35,48
8.1,-1.2,49
8.1,-1.05,50
8.1,-0.9,58
8.1,-0.75,76
8.1,-0.6,72
8.1,-0.45,67
8.1,-0.3,34
8.1,-0.15,34
8.1,0.0,28
8.1,0.15,70
8.1,0.3,97
8.1,0.45,75
8.1,0.6,62
8.1,0.75,74
8.1,0.9,105
8.1,1.05,106
8.1,1.2,98
8.1,1.35,122
8.1,1.5,124
8.25,-1.5,43
8.25,-1.35,48
8.25,-1.2,50
8.25,-1.05,66
8.25,-0.9,66
8.25,-0.75,66
8.25,-0.6,28
8.25,-0.45,90
8.25,-0.3,89
8.25,-0.15,125
8.25,0.0,64
8.25,0.15,59
8.25,0.3,69
8.25,0.45,89
8.25,0.6,87
8.25,0.75,102
8.25,0.9,99
8.25,1.05,101
8.25,1.2,103
8.25,1.35,104
8.25,1.5,106
8.4,-1.5,36
8.4,-1.35,37
8.4,-1.2,38
8.4,-1.05,40
8.4,-0.9,60
8.4,-0.75,64
8.4,-0.6,54
8.4,-0.45,160
8.4,-0.3,36
8.4,-0.15,82
8.4,0.0,53
8.4,0.15,61
8.4,0.3,84
8.4,0.45,99
8.4,0.6,118
8.4,0.75,120
8.4,0.9,105
8.4,1.05,105
8.4,1.2,105
8.4,1.35,92
8.4,1.5,110
8.55,-1.5,29
8.55,-1.35,28
8.55,-1.2,28
8.55,-1.05,39
8.55,-0.9,46
8.55,-0.75,64
8.55,-0.6,57
8.55,-0.45,94
8.55,-0.3,55
8.55,-0.15,7
8.55,0.0,50
8.55,0.15,76
8.55,0.3,125
8.55,0.45,95
8.55,0.6,118
8.55,0.75,123
8.55,0.9,126
8.55,1.05,125
8.55,1.2,112
8.55,1.35,112
8.55,1.5,111
8.7,-1.5,40
8.7,-1.35,40
8.7,-1.2,38
8.7,-1.05,28
8.7,-0.9,32
8.7,-0.75,40
8.7,-0.6,33
8.7,-0.45,124
8.7,-0.3,57
8.7,-0.15,5
8.7,0.0,43
8.7,0.15,113
8.7,0.3,198
8.7,0.45,130
8.7,0.6,130
8.7,0.75,130
8.7,0.9,143
8.7,1.05,131
8.7,1.2,114
8.7,1.35,112
8.7,1.5,99
8.85,-1.5,40
8.85,-1.35,38
8.85,-1.2,33
8.85,-1.05,19
8.85,-0.9,11
8.85,-0.75,26
8.85,-0.6,50
8.85,-0.45,19
8.85,-0.3,45
8.85,-0.15,21
8.85,0.0,9
8.85,0.15,127
8.85,0.3,191
8.85,0.45,153
8.85,0.6,134
8.85,0.75,129
8.85,0.9,116
8.85,1.05,114
8.85,1.2,112
8.85,1.35,95
8.85,1.5,94
9.0,-1.5,56
9.0,-1.35,58
9.0,-1.2,53
9.0,-1.05,43
9.0,-0.9,51
9.0,-0.75,75
9.0,-0.6,88
9.0,-0.45,7
9.0,-0.3,37
9.0,-0.15,70
9.0,0.0,109
9.0,0.15,186
9.0,0.3,48
9.0,0.45,130
9.0,0.6,108
9.0,0.75,109
9.0,0.9,109
9.0,1.05,109
9.0,1.2,109
9.0,1.35,109
9.0,1.5,109
9.15,-1.5,65
9.15,-1.35,65
9.15,-1.2,65
9.15,-1.05,65
9.15,-0.9,90
9.15,-0.75,118
9.15,-0.6,87
9.15,-0.45,8
9.15,-0.3,43
9.15,-0.15,75
9.15,0.0,0
9.15,0.15,121
9.15,0.3,98
9.15,0.45,84
9.15,0.6,109
9.15,0.75,108
9.15,0.9,109
9.15,1.05,104
9.15,1.2,105
9.15,1.35,106
9.15,1.5,107
9.3,-1.5,69
9.3,-1.35,69
9.3,-1.2,89
9.3,-1.05,95
9.3,-0.9,128
9.3,-0.75,176
9.3,-0.6,120
9.3,-0.45,33
9.3,-0.3,15
9.3,-0.15,18
9.3,0.0,57
9.3,0.15,174
9.3,0.3,71
9.3,0.45,88
9.3,0.6,93
9.3,0.75,101
9.3,0.9,97
9.3,1.05,100
9.3,1.2,102
9.3,1.35,90
9.3,1.5,107
9.45,-1.5,55
9.45,-1.35,65
9.45,-1.2,68
9.45,-1.05,93
9.45,-0.9,95
9.45,-0.75,87
9.45,-0.6,65
9.45,-0.45,77
9.45,-0.3,45
9.45,-0.15,127
9.45,0.0,72
9.45,0.15,102
9.45,0.3,70
9.45,0.45,70
9.45,0.6,75
9.45,0.75,90
9.45,0.9,85
9.45,1.05,87
9.45,1.2,100
9.45,1.35,106
9.45,1.5,107
9.6,-1.5,84
9.6,-1.35,84
9.6,-1.2,84
9.6,-1.05,80
9.6,-0.9,69
9.6,-0.75,68
9.6,-0.6,72
9.6,-0.45,36
9.6,-0.3,64
9.6,-0.15,83
9.6,0.0,20
9.6,0.15,61
9.6,0.3,72
9.6,0.45,70
9.6,0.6,73
9.6,0.75,75
9.6,0.9,76
9.6,1.05,76
9.6,1.2,87
9.6,1.35,88
9.6,1.5,106
9.75,-1.5,84
9.75,-1.35,83
9.75,-1.2,65
9.75,-1.05,64
9.75,-0.9,63
9.75,-0.75,59
9.75,-0.6,57
9.75,-0.45,129
9.75,-0.3,65
9.75,-0.15,72
9.75,0.0,50
9.75,0.15,58
9.75,0.3,58
9.75,0.45,61
9.75,0.6,77
9.75,0.75,77
9.75,0.9,78
9.75,1.05,79
9.75,1.2,80
9.75,1.35,80
9.75,1.5,80
9.9,-1.5,55
9.9,-1.35,55
9.9,-1.2,55
9.9,-1.05,55
9.9,-0.9,41
9.9,-0.75,35
9.9,-0.6,31
9.9,-0.45,68
9.9,-0.3,91
9.9,-0.15,89
9.9,0.0,63
9.9,0.15,61
9.9,0.3,59
9.9,0.45,67
9.9,0.6,66
9.9,0.75,75
9.9,0.9,76
9.9,1.05,77
9.9,1.2,79
9.9,1.35,79
9.9,1.5,80
10.05,-1.5,73
10.05,-1.35,73
10.05,-1.2,73
10.05,-1.05,73
10.05,-0.9,68
10.05,-0.75,50
10.05,-0.6,58
10.05,-0.45,28
10.05,-0.3,83
10.05,-0.15,147
10.05,0.0,78
10.05,0.15,73
10.05,0.3,59
10.05,0.45,63
10.05,0.6,65
10.05,0.75,65
10.05,0.9,65
10.05,1.05,66
10.05,1.2,66
10.05,1.35,66
10.05,1.5,67
10.2,-1.5,76
10.2,-1.35,76
10.2,-1.2,73
10.2,-1.05,75
10.2,-0.9,79
10.2,-0.75,87
10.2,-0.6,111
10.2,-0.45,199
10.2,-0.3,56
10.2,-0.15,74
10.2,0.0,64
10.2,0.15,64
10.2,0.3,65
10.2,0.45,62
10.2,0.6,63
10.2,0.75,63
10.2,0.9,66
10.2,1.05,66
10.2,1.2,78
10.2,1.35,66
10.2,1.5,49
10.35,-1.5,121
10.35,-1.35,116
10.35,-1.2,101
10.35,-1.05,97
10.35,-0.9,85
10.35,-0.75,46
10.35,-0.6,115
10.35,-0.45,1
10.35,-0.3,66
10.35,-0.15,85
10.35,0.0,117
10.35,0.15,118
10.35,0.3,115
10.35,0.45,90
10.35,0.6,73
10.35,0.75,64
10.35,0.9,66
10.35,1.05,64
10.35,1.2,63
10.35,1.35,67
10.35,1.5,67
10.5,-1.5,142
10.5,-1.35,123
10.5,-1.2,123
10.5,-1.05,116
10.5,-0.9,111
10.5,-0.75,84
10.5,-0.6,89
10.5,-0.45,91
10.5,-0.3,230
10.5,-0.15,66
10.5,0.0,104
10.5,0.15,95
10.5,0.3,89
10.5,0.45,87
10.5,0.6,82
10.5,0.75,62
10.5,0.9,60
10.5,1.05,63
10.5,1.2,63
10.5,1.35,66
10.5,1.5,66
10.65,-1.5,166
10.65,-1.35,153
10.65,-1.2,149
10.65,-1.05,149
10.65,-0.9,150
10.65,-0.75,130
10.65,-0.6,73
10.65,-0.45,92
10.65,-0.3,73
10.65,-0.15,80
10.65,0.0,102
10.65,0.15,77
10.65,0.3,66
10.65,0.45,63
10.65,0.6,53
10.65,0.75,52
10.65,0.9,50
10.65,1.05,49
10.65,1.2,53
10.65,1.35,56
10.65,1.5,56
10.8,-1.5,173
10.8,-1.35,174
10.8,-1.2,166
10.8,-1.05,158
10.8,-0.9,182
10.8,-0.75,215
10.8,-0.6,172
10.8,-0.45,3
10.8,-0.3,125
10.8,-0.15,136
10.8,0.0,77
10.8,0.15,88
10.8,0.3,95
10.8,0.45,59
10.8,0.6,57
10.8,0.75,79
10.8,0.9,79
10.8,1.05,79
10.8,1.2,79
10.8,1.35,98
10.8,1.5,100
10.95,-1.5,133
10.95,-1.35,131
10.95,-1.2,134
10.95,-1.05,159
10.95,-0.9,167
10.95,-0.75,180
10.95,-0.6,143
10.95,-0.45,141
10.95,-0.3,98
10.95,-0.15,90
10.95,0.0,80
10.95,0.15,107
10.95,0.3,107
10.95,0.45,105
10.95,0.6,76
10.95,0.75,74
10.95,0.9,75
10.95,1.05,97
10.95,1.2,101
10.95,1.35,104
10.95,1.5,106
11.1,-1.5,152
11.1,-1.35,140
11.1,-1.2,153
11.1,-1.05,163
11.1,-0.9,139
11.1,-0.75,134
11.1,-0.6,111
11.1,-0.45,59
11.1,-0.3,87
11.1,-0.15,135
11.1,0.0,122
11.1,0.15,100
11.1,0.3,87
11.1,0.45,71
11.1,0.6,63
11.1,0.75,63
11.1,0.9,78
11.1,1.05,98
11.1,1.2,99
11.1,1.35,104
11.1,1.5,106
11.25,-1.5,152
11.25,-1.35,152
11.25,-1.2,151
11.25,-1.05,163
11.25,-0.9,128
11.25,-0.75,128
11.25,-0.6,101
11.25,-0.45,93
11.25,-0.3,58
11.25,-0.15,66
11.25,0.0,72
11.25,0.15,93
11.25,0.3,78
11.25,0.45,29
11.25,0.6,36
11.25,0.75,62
11.25,0.9,82
11.25,1.05,93
11.25,1.2,100
11.25,1.35,112
11.25,1.5,115
11.4,-1.5,147
11.4,-1.35,147
11.4,-1.2,147
11.4,-1.05,163
11.4,-0.9,147
11.4,-0.75,136
11.4,-0.6,99
11.4,-0.45,161
11.4,-0.3,30
11.4,-0.15,55
11.4,0.0,61
11.4,0.15,61
11.4,0.3,62
11.4,0.45,9
11.4,0.6,23
11.4,0.75,68
11.4,0.9,101
11.4,1.05,116
11.4,1.2,124
11.4,1.35,128
11.4,1.5,125
11.55,-1.5,138
11.55,-1.35,148
11.55,-1.2,149
11.55,-1.05,151
11.55,-0.9,156
11.55,-0.75,194
11.55,-0.6,169
11.55,-0.45,198
11.55,-0.3,58
11.55,-0.15,45
11.55,0.0,63
11.55,0.15,62
11.55,0.3,69
11.55,0.45,64
11.55,0.6,69
11.55,0.75,95
11.55,0.9,112
11.55,1.05,119
11.55,1.2,136
11.55,1.35,113
11.55,1.5,111
11.7,-1.5,138
11.7,-1.35,139
11.7,-1.2,154
11.7,-1.05,157
11.7,-0.9,168
11.7,-0.75,174
11.7,-0.6,104
11.7,-0.45,198
11.7,-0.3,56
11.7,-0.15,119
11.7,0.0,88
11.7,0.15,92
11.7,0.3,132
11.7,0.45,146
11.7,0.6,161
11.7,0.75,164
11.7,0.9,160
11.7,1.05,143
11.7,1.2,137
11.7,1.35,126
11.7,1.5,121
11.85,-1.5,139
11.85,-1.35,138
11.85,-1.2,156
11.85,-1.05,149
11.85,-0.9,156
11.85,-0.75,174
11.85,-0.6,151
11.85,-0.45,141
11.85,-0.3,250
11.85,-0.15,118
11.85,0.0,139
11.85,0.15,169
11.85,0.3,171
11.85,0.45,237
11.85,0.6,255
11.85,0.75,230
11.85,0.9,198
11.85,1.05,175
11.85,1.2,159
11.85,1.35,147
11.85,1.5,138
12.0,-1.5,124
12.0,-1.35,124
12.0,-1.2,98
12.0,-1.05,103
12.0,-0.9,113
12.0,-0.75,103
12.0,-0.6,90
12.0,-0.45,137
12.0,-0.3,220
12.0,-0.15,166
12.0,0.0,200
12.0,0.15,228
12.0,0.3,255
12.0,0.45,255
12.0,0.6,255
12.0,0.75,255
12.0,0.9,241
12.0,1.05,200
12.0,1.2,178
12.0,1.35,145
12.0,1.5,133
12.15,-1.5,92
12.15,-1.35,78
12.15,-1.2,81
12.15,-1.05,85
12.15,-0.9,104
12.15,-0.75,86
12.15,-0.6,51
12.15,-0.45,83
12.15,-0.3,215
12.15,-0.15,132
12.15,0.0,175
12.15,0.15,254
12.15,0.3,224
12.15,0.45,255
12.15,0.6,255
12.15,0.75,255
12.15,0.9,216
12.15,1.05,182
12.15,1.2,158
12.15,1.35,140
12.15,1.5,127
12.3,-1.5,87
12.3,-1.35,91
12.3,-1.2,92
12.3,-1.05,85
12.3,-0.9,99
12.3,-0.75,81
12.3,-0.6,213
12.3,-0.45,0
12.3,-0.3,35
12.3,-0.15,70
12.3,0.0,90
12.3,0.15,158
12.3,0.3,164
12.3,0.45,195
12.3,0.6,231
12.3,0.75,211
12.3,0.9,185
12.3,1.05,160
12.3,1.2,138
12.3,1.35,120
12.3,1.5,107
12.45,-1.5,66
12.45,-1.35,72
12.45,-1.2,89
12.45,-1.05,92
12.45,-0.9,87
12.45,-0.75,53
12.45,-0.6,53
12.45,-0.45,54
12.45,-0.3,18
12.45,-0.15,59
12.45,0.0,61
12.45,0.15,93
12.45,0.3,120
12.45,0.45,143
12.45,0.6,162
12.45,0.75,166
12.45,0.9,135
12.45,1.05,118
12.45,1.2,99
12.45,1.35,82
12.45,1.5,70
12.6,-1.5,64
12.6,-1.35,74
12.6,-1.2,81
12.6,-1.05,89
12.6,-0.9,92
12.6,-0.75,97
12.6,-0.6,94
12.6,-0.45,150
12.6,-0.3,61
12.6,-0.15,32
12.6,0.0,43
12.6,0.15,62
12.6,0.3,87
12.6,0.45,90
12.6,0.6,106
12.6,0.75,112
12.6,0.9,108
12.6,1.05,95
12.6,1.2,77
12.6,1.35,59
12.6,1.5,47
12.75,-1.5,40
12.75,-1.35,53
12.75,-1.2,72
12.75,-1.05,85
12.75,-0.9,98
12.75,-0.75,140
12.75,-0.6,81
12.75,-0.45,7
12.75,-0.3,58
12.75,-0.15,14
12.75,0.0,36
12.75,0.15,53
12.75,0.3,70
12.75,0.45,79
12.75,0.6,93
12.75,0.75,90
12.75,0.9,87
12.75,1.05,74
12.75,1.2,54
12.75,1.35,32
12.75,1.5,22
12.9,-1.5,7
12.9,-1.35,28
12.9,-1.2,60
12.9,-1.05,65
12.9,-0.9,91
12.9,-0.75,92
12.9,-0.6,39
12.9,-0.45,51
12.9,-0.3,58
12.9,-0.15,39
12.9,0.0,45
12.9,0.15,48
12.9,0.3,55
12.9,0.45,60
12.9,0.6,75
12.9,0.75,79
12.9,0.9,75
12.9,1.05,62
12.9,1.2,38
12.9,1.35,13
12.9,1.5,2
13.05,-1.5,0
13.05,-1.35,17
13.05,-1.2,61
13.05,-1.05,75
13.05,-0.9,74
13.05,-0.75,66
13.05,-0.6,46
13.05,-0.45,50
13.05,-0.3,53
13.05,-0.15,45
13.05,0.0,46
13.05,0.15,49
13.05,0.3,52
13.05,0.45,57
13.05,0.6,57
13.05,0.75,92
13.05,0.9,66
13.05,1.05,53
13.05,1.2,30
13.05,1.35,8
13.05,1.5,0
