-3.0,-1.5,0
-3.0,-1.35,15
-3.0,-1.2,56
-3.0,-1.05,94
-3.0,-0.9,118
-3.0,-0.75,128
-3.0,-0.6,125
-3.0,-0.45,110
-3.0,-0.3,77
-3.0,-0.15,38
-3.0,0.0,7
-3.0,0.15,11
-3.0,0.3,33
-3.0,0.45,48
-3.0,0.6,54
-3.0,0.75,54
-3.0,0.9,48
-3.0,1.05,41
-3.0,1.2,21
-3.0,1.35,4
-3.0,1.5,0
-2.85,-1.5,14
-2.85,-1.35,34
-2.85,-1.2,74
-2.85,-1.05,111
-2.85,-0.9,136
-2.85,-0.75,150
-2.85,-0.6,150
-2.85,-0.45,131
-2.85,-0.3,91
-2.85,-0.15,46
-2.85,0.0,6
-2.85,0.15,11
-2.85,0.3,37
-2.85,0.45,52
-2.85,0.6,57
-2.85,0.75,56
-2.85,0.9,51
-2.85,1.05,44
-2.85,1.2,28
-2.85,1.35,11
-2.85,1.5,3
-2.7,-1.5,54
-2.7,-1.35,72
-2.7,-1.2,101
-2.7,-1.05,129
-2.7,-0.9,157
-2.7,-0.75,181
-2.7,-0.6,188
-2.7,-0.45,164
-2.7,-0.3,118
-2.7,-0.15,81
-2.7,0.0,51
-2.7,0.15,45
-2.7,0.3,54
-2.7,0.45,59
-2.7,0.6,60
-2.7,0.75,59
-2.7,0.9,59
-2.7,1.05,51
-2.7,1.2,40
-2.7,1.35,27
-2.7,1.5,21
-2.55,-1.5,87
-2.55,-1.35,101
-2.55,-1.2,120
-2.55,-1.05,141
-2.55,-0.9,172
-2.55,-0.75,221
-2.55,-0.6,255
-2.55,-0.45,205
-2.55,-0.3,148
-2.55,-0.15,106
-2.55,0.0,76
-2.55,0.15,66
-2.55,0.3,64
-2.55,0.45,64
-2.55,0.6,63
-2.55,0.75,65
-2.55,0.9,63
-2.55,1.05,59
-2.55,1.2,52
-2.55,1.35,44
-2.55,1.5,39
-2.4,-1.5,106
-2.4,-1.35,115
-2.4,-1.2,127
-2.4,-1.05,139
-2.4,-0.9,160
-2.4,-0.75,224
-2.4,-0.6,255
-2.4,-0.45,217
-2.4,-0.3,150
-2.4,-0.15,107
-2.4,0.0,83
-2.4,0.15,68
-2.4,0.3,64
-2.4,0.45,65
-2.4,0.6,64
-2.4,0.75,65
-2.4,0.9,65
-2.4,1.05,64
-2.4,1.2,61
-2.4,1.35,49
-2.4,1.5,47
-2.25,-1.5,123
-2.25,-1.35,128
-2.25,-1.2,126
-2.25,-1.05,127
-2.25,-0.9,124
-2.25,-0.75,127
-2.25,-0.6,110
-2.25,-0.45,158
-2.25,-0.3,124
-2.25,-0.15,97
-2.25,0.0,84
-2.25,0.15,72
-2.25,0.3,67
-2.25,0.45,65
-2.25,0.6,65
-2.25,0.75,65
-2.25,0.9,65
-2.25,1.05,61
-2.25,1.2,60
-2.25,1.35,59
-2.25,1.5,57
-2.1,-1.5,128
-2.1,-1.35,130
-2.1,-1.2,130
-2.1,-1.05,122
-2.1,-0.9,103
-2.1,-0.75,107
-2.1,-0.6,124
-2.1,-0.45,121
-2.1,-0.3,85
-2.1,-0.15,78
-2.1,0.0,80
-2.1,0.15,73
-2.1,0.3,63
-2.1,0.45,60
-2.1,0.6,62
-2.1,0.75,60
-2.1,0.9,62
-2.1,1.05,64
-2.1,1.2,66
-2.1,1.35,66
-2.1,1.5,66
-1.95,-1.5,132
-1.95,-1.35,134
-1.95,-1.2,134
-1.95,-1.05,129
-1.95,-0.9,118
-1.95,-0.75,115
-1.95,-0.6,120
-1.95,-0.45,110
-1.95,-0.3,78
-1.95,-0.15,78
-1.95,0.0,80
-1.95,0.15,73
-1.95,0.3,46
-1.95,0.45,36
-1.95,0.6,60
-1.95,0.75,62
-1.95,0.9,64
-1.95,1.05,68
-1.95,1.2,71
-1.95,1.35,73
-1.95,1.5,73
-1.8,-1.5,135
-1.8,-1.35,138
-1.8,-1.2,143
-1.8,-1.05,149
-1.8,-0.9,153
-1.8,-0.75,146
-1.8,-0.6,126
-1.8,-0.45,109
-1.8,-0.3,92
-1.8,-0.15,78
-1.8,0.0,79
-1.8,0.15,80
-1.8,0.3,36
-1.8,0.45,0
-1.8,0.6,52
-1.8,0.75,62
-1.8,0.9,69
-1.8,1.05,76
-1.8,1.2,81
-1.8,1.35,92
-1.8,1.5,94
-1.65,-1.5,135
-1.65,-1.35,140
-1.65,-1.2,150
-1.65,-1.05,173
-1.65,-0.9,218
-1.65,-0.75,202
-1.65,-0.6,126
-1.65,-0.45,100
-1.65,-0.3,84
-1.65,-0.15,78
-1.65,0.0,96
-1.65,0.15,127
-1.65,0.3,80
-1.65,0.45,42
-1.65,0.6,56
-1.65,0.75,70
-1.65,0.9,80
-1.65,1.05,96
-1.65,1.2,100
-1.65,1.35,103
-1.65,1.5,110
-1.5,-1.5,131
-1.5,-1.35,136
-1.5,-1.2,135
-1.5,-1.05,164
-1.5,-0.9,229
-1.5,-0.75,204
-1.5,-0.6,101
-1.5,-0.45,88
-1.5,-0.3,78
-1.5,-0.15,69
-1.5,0.0,89
-1.5,0.15,109
-1.5,0.3,93
-1.5,0.45,77
-1.5,0.6,79
-1.5,0.75,90
-1.5,0.9,108
-1.5,1.05,115
-1.5,1.2,125
-1.5,1.35,123
-1.5,1.5,121
-1.35,-1.5,124
-1.35,-1.35,124
-1.35,-1.2,129
-1.35,-1.05,131
-1.35,-0.9,136
-1.35,-0.75,112
-1.35,-0.6,76
-1.35,-0.45,82
-1.35,-0.3,88
-1.35,-0.15,77
-1.35,0.0,78
-1.35,0.15,86
-1.35,0.3,90
-1.35,0.45,93
-1.35,0.6,105
-1.35,0.75,130
-1.35,0.9,142
-1.35,1.05,148
-1.35,1.2,144
-1.35,1.35,139
-1.35,1.5,132
-1.2,-1.5,120
-1.2,-1.35,120
-1.2,-1.2,118
-1.2,-1.05,110
-1.2,-0.9,91
-1.2,-0.75,73
-1.2,-0.6,83
-1.2,-0.45,112
-1.2,-0.3,92
-1.2,-0.15,66
-1.2,0.0,66
-1.2,0.15,82
-1.2,0.3,91
-1.2,0.45,105
-1.2,0.6,142
-1.2,0.75,181
-1.2,0.9,196
-1.2,1.05,180
-1.2,1.2,163
-1.2,1.35,147
-1.2,1.5,139
-1.05,-1.5,133
-1.05,-1.35,130
-1.05,-1.2,119
-1.05,-1.05,99
-1.05,-0.9,87
-1.05,-0.75,75
-1.05,-0.6,111
-1.05,-0.45,226
-1.05,-0.3,93
-1.05,-0.15,85
-1.05,0.0,99
-1.05,0.15,104
-1.05,0.3,105
-1.05,0.45,120
-1.05,0.6,164
-1.05,0.75,242
-1.05,0.9,248
-1.05,1.05,203
-1.05,1.2,172
-1.05,1.35,155
-1.05,1.5,144
-0.9,-1.5,133
-0.9,-1.35,126
-0.9,-1.2,120
-0.9,-1.05,95
-0.9,-0.9,86
-0.9,-0.75,97
-0.9,-0.6,125
-0.9,-0.45,169
-0.9,-0.3,97
-0.9,-0.15,96
-0.9,0.0,118
-0.9,0.15,105
-0.9,0.3,95
-0.9,0.45,110
-0.9,0.6,160
-0.9,0.75,230
-0.9,0.9,240
-0.9,1.05,198
-0.9,1.2,169
-0.9,1.35,153
-0.9,1.5,144
-0.75,-1.5,147
-0.75,-1.35,130
-0.75,-1.2,119
-0.75,-1.05,92
-0.75,-0.9,55
-0.75,-0.75,60
-0.75,-0.6,86
-0.75,-0.45,90
-0.75,-0.3,90
-0.75,-0.15,102
-0.75,0.0,83
-0.75,0.15,77
-0.75,0.3,82
-0.75,0.45,105
-0.75,0.6,135
-0.75,0.75,168
-0.75,0.9,182
-0.75,1.05,174
-0.75,1.2,162
-0.75,1.35,152
-0.75,1.5,145
-0.6,-1.5,154
-0.6,-1.35,140
-0.6,-1.2,132
-0.6,-1.05,113
-0.6,-0.9,57
-0.6,-0.75,63
-0.6,-0.6,115
-0.6,-0.45,113
-0.6,-0.3,146
-0.6,-0.15,255
-0.6,0.0,73
-0.6,0.15,66
-0.6,0.3,74
-0.6,0.45,101
-0.6,0.6,134
-0.6,0.75,150
-0.6,0.9,155
-0.6,1.05,154
-0.6,1.2,150
-0.6,1.35,146
-0.6,1.5,134
-0.45,-1.5,155
-0.45,-1.35,147
-0.45,-1.2,148
-0.45,-1.05,157
-0.45,-0.9,167
-0.45,-0.75,243
-0.45,-0.6,139
-0.45,-0.45,129
-0.45,-0.3,102
-0.45,-0.15,122
-0.45,0.0,79
-0.45,0.15,60
-0.45,0.3,54
-0.45,0.45,110
-0.45,0.6,182
-0.45,0.75,165
-0.45,0.9,149
-0.45,1.05,142
-0.45,1.2,137
-0.45,1.35,136
-0.45,1.5,133
-0.3,-1.5,156
-0.3,-1.35,178
-0.3,-1.2,188
-0.3,-1.05,198
-0.3,-0.9,197
-0.3,-0.75,191
-0.3,-0.6,152
-0.3,-0.45,157
-0.3,-0.3,152
-0.3,-0.15,50
-0.3,0.0,69
-0.3,0.15,57
-0.3,0.3,48
-0.3,0.45,102
-0.3,0.6,201
-0.3,0.75,172
-0.3,0.9,149
-0.3,1.05,140
-0.3,1.2,135
-0.3,1.35,131
-0.3,1.5,128
-0.15,-1.5,159
-0.15,-1.35,173
-0.15,-1.2,211
-0.15,-1.05,253
-0.15,-0.9,255
-0.15,-0.75,137
-0.15,-0.6,43
-0.15,-0.45,192
-0.15,-0.3,255
-0.15,-0.15,92
-0.15,0.0,73
-0.15,0.15,78
-0.15,0.3,78
-0.15,0.45,107
-0.15,0.6,153
-0.15,0.75,153
-0.15,0.9,144
-0.15,1.05,136
-0.15,1.2,128
-0.15,1.35,125
-0.15,1.5,123
0.0,-1.5,156
0.0,-1.35,171
0.0,-1.2,198
0.0,-1.05,255
0.0,-0.9,255
0.0,-0.75,178
0.0,-0.6,166
0.0,-0.45,101
0.0,-0.3,129
0.0,-0.15,117
0.0,0.0,113
0.0,0.15,95
0.0,0.3,108
0.0,0.45,115
0.0,0.6,131
0.0,0.75,136
0.0,0.9,121
0.0,1.05,125
0.0,1.2,123
0.0,1.35,118
0.0,1.5,116
0.15,-1.5,143
0.15,-1.35,156
0.15,-1.2,171
0.15,-1.05,193
0.15,-0.9,200
0.15,-0.75,160
0.15,-0.6,122
0.15,-0.45,85
0.15,-0.3,95
0.15,-0.15,84
0.15,0.0,122
0.15,0.15,127
0.15,0.3,116
0.15,0.45,111
0.15,0.6,113
0.15,0.75,124
0.15,0.9,104
0.15,1.05,104
0.15,1.2,103
0.15,1.35,110
0.15,1.5,110
0.3,-1.5,132
0.3,-1.35,134
0.3,-1.2,135
0.3,-1.05,133
0.3,-0.9,114
0.3,-0.75,96
0.3,-0.6,83
0.3,-0.45,66
0.3,-0.3,81
0.3,-0.15,68
0.3,0.0,135
0.3,0.15,140
0.3,0.3,111
0.3,0.45,64
0.3,0.6,85
0.3,0.75,106
0.3,0.9,111
0.3,1.05,111
0.3,1.2,111
0.3,1.35,100
0.3,1.5,100
0.45,-1.5,113
0.45,-1.35,101
0.45,-1.2,97
0.45,-1.05,91
0.45,-0.9,75
0.45,-0.75,58
0.45,-0.6,54
0.45,-0.45,60
0.45,-0.3,86
0.45,-0.15,115
0.45,0.0,150
0.45,0.15,117
0.45,0.3,110
0.45,0.45,10
0.45,0.6,79
0.45,0.75,93
0.45,0.9,103
0.45,1.05,107
0.45,1.2,110
0.45,1.35,94
0.45,1.5,96
0.6,-1.5,88
0.6,-1.35,81
0.6,-1.2,76
0.6,-1.05,69
0.6,-0.9,60
0.6,-0.75,37
0.6,-0.6,36
0.6,-0.45,57
0.6,-0.3,67
0.6,-0.15,80
0.6,0.0,83
0.6,0.15,125
0.6,0.3,105
0.6,0.45,109
0.6,0.6,109
0.6,0.75,95
0.6,0.9,95
0.6,1.05,98
0.6,1.2,94
0.6,1.35,86
0.6,1.5,87
0.75,-1.5,80
0.75,-1.35,76
0.75,-1.2,69
0.75,-1.05,58
0.75,-0.9,58
0.75,-0.75,58
0.75,-0.6,57
0.75,-0.45,60
0.75,-0.3,68
0.75,-0.15,72
0.75,0.0,99
0.75,0.15,129
0.75,0.3,68
0.75,0.45,90
0.75,0.6,85
0.75,0.75,80
0.75,0.9,73
0.75,1.05,73
0.75,1.2,72
0.75,1.35,79
0.75,1.5,80
0.9,-1.5,59
0.9,-1.35,59
0.9,-1.2,60
0.9,-1.05,63
0.9,-0.9,58
0.9,-0.75,57
0.9,-0.6,59
0.9,-0.45,59
0.9,-0.3,65
0.9,-0.15,74
0.9,0.0,110
0.9,0.15,160
0.9,0.3,104
0.9,0.45,87
0.9,0.6,69
0.9,0.75,69
0.9,0.9,74
0.9,1.05,77
0.9,1.2,79
0.9,1.35,71
0.9,1.5,67
1.05,-1.5,59
1.05,-1.35,59
1.05,-1.2,60
1.05,-1.05,60
1.05,-0.9,57
1.05,-0.75,57
1.05,-0.6,56
1.05,-0.45,61
1.05,-0.3,64
1.05,-0.15,78
1.05,0.0,74
1.05,0.15,105
1.05,0.3,106
1.05,0.45,97
1.05,0.6,76
1.05,0.75,67
1.05,0.9,71
1.05,1.05,73
1.05,1.2,75
1.05,1.35,70
1.05,1.5,56
1.2,-1.5,59
1.2,-1.35,59
1.2,-1.2,58
1.2,-1.05,54
1.2,-0.9,48
1.2,-0.75,61
1.2,-0.6,61
1.2,-0.45,46
1.2,-0.3,63
1.2,-0.15,82
1.2,0.0,79
1.2,0.15,87
1.2,0.3,99
1.2,0.45,83
1.2,0.6,76
1.2,0.75,71
1.2,0.9,66
1.2,1.05,67
1.2,1.2,56
1.2,1.35,56
1.2,1.5,56
1.35,-1.5,59
1.35,-1.35,58
1.35,-1.2,54
1.35,-1.05,48
1.35,-0.9,9
1.35,-0.75,109
1.35,-0.6,59
1.35,-0.45,1
1.35,-0.3,53
1.35,-0.15,95
1.35,0.0,61
1.35,0.15,178
1.35,0.3,98
1.35,0.45,56
1.35,0.6,52
1.35,0.75,61
1.35,0.9,58
1.35,1.05,62
1.35,1.2,54
1.35,1.35,54
1.35,1.5,54
1.5,-1.5,59
1.5,-1.35,57
1.5,-1.2,58
1.5,-1.05,58
1.5,-0.9,56
1.5,-0.75,70
1.5,-0.6,57
1.5,-0.45,49
1.5,-0.3,61
1.5,-0.15,66
1.5,0.0,61
1.5,0.15,88
1.5,0.3,69
1.5,0.45,9
1.5,0.6,32
1.5,0.75,61
1.5,0.9,58
1.5,1.05,58
1.5,1.2,58
1.5,1.35,58
1.5,1.5,53
1.65,-1.5,56
1.65,-1.35,58
1.65,-1.2,61
1.65,-1.05,61
1.65,-0.9,60
1.65,-0.75,61
1.65,-0.6,36
1.65,-0.45,51
1.65,-0.3,54
1.65,-0.15,55
1.65,0.0,24
1.65,0.15,32
1.65,0.3,28
1.65,0.45,32
1.65,0.6,41
1.65,0.75,53
1.65,0.9,56
1.65,1.05,50
1.65,1.2,50
1.65,1.35,50
1.65,1.5,50
1.8,-1.5,56
1.8,-1.35,57
1.8,-1.2,59
1.8,-1.05,60
1.8,-0.9,61
1.8,-0.75,56
1.8,-0.6,30
1.8,-0.45,51
1.8,-0.3,16
1.8,-0.15,49
1.8,0.0,31
1.8,0.15,32
1.8,0.3,0
1.8,0.45,35
1.8,0.6,53
1.8,0.75,49
1.8,0.9,50
1.8,1.05,51
1.8,1.2,50
1.8,1.35,51
1.8,1.5,50
1.95,-1.5,54
1.95,-1.35,55
1.95,-1.2,56
1.95,-1.05,54
1.95,-0.9,58
1.95,-0.75,57
1.95,-0.6,61
1.95,-0.45,60
1.95,-0.3,64
1.95,-0.15,75
1.95,0.0,65
1.95,0.15,72
1.95,0.3,9
1.95,0.45,48
1.95,0.6,53
1.95,0.75,53
1.95,0.9,54
1.95,1.05,56
1.95,1.2,52
1.95,1.35,50
1.95,1.5,50
2.1,-1.5,49
2.1,-1.35,49
2.1,-1.2,49
2.1,-1.05,45
2.1,-0.9,45
2.1,-0.75,44
2.1,-0.6,48
2.1,-0.45,61
2.1,-0.3,68
2.1,-0.15,229
2.1,0.0,80
2.1,0.15,43
2.1,0.3,46
2.1,0.45,43
2.1,0.6,48
2.1,0.75,49
2.1,0.9,61
2.1,1.05,61
2.1,1.2,55
2.1,1.35,51
2.1,1.5,50
2.25,-1.5,47
2.25,-1.35,45
2.25,-1.2,43
2.25,-1.05,39
2.25,-0.9,36
2.25,-0.75,38
2.25,-0.6,23
2.25,-0.45,31
2.25,-0.3,16
2.25,-0.15,111
2.25,0.0,65
2.25,0.15,42
2.25,0.3,61
2.25,0.45,43
2.25,0.6,50
2.25,0.75,58
2.25,0.9,61
2.25,1.05,63
2.25,1.2,61
2.25,1.35,60
2.25,1.5,63
2.4,-1.5,45
2.4,-1.35,44
2.4,-1.2,41
2.4,-1.05,34
2.4,-0.9,11
2.4,-0.75,41
2.4,-0.6,53
2.4,-0.45,40
2.4,-0.3,64
2.4,-0.15,75
2.4,0.0,109
2.4,0.15,38
2.4,0.3,49
2.4,0.45,52
2.4,0.6,57
2.4,0.75,61
2.4,0.9,61
2.4,1.05,65
2.4,1.2,65
2.4,1.35,65
2.4,1.5,65
2.55,-1.5,46
2.55,-1.35,45
2.55,-1.2,51
2.55,-1.05,45
2.55,-0.9,38
2.55,-0.75,39
2.55,-0.6,42
2.55,-0.45,55
2.55,-0.3,64
2.55,-0.15,76
2.55,0.0,34
2.55,0.15,51
2.55,0.3,40
2.55,0.45,63
2.55,0.6,61
2.55,0.75,63
2.55,0.9,62
2.55,1.05,64
2.55,1.2,65
2.55,1.35,65
2.55,1.5,65
2.7,-1.5,62
2.7,-1.35,61
2.7,-1.2,60
2.7,-1.05,56
2.7,-0.9,64
2.7,-0.75,58
2.7,-0.6,72
2.7,-0.45,72
2.7,-0.3,67
2.7,-0.15,69
2.7,0.0,58
2.7,0.15,52
2.7,0.3,70
2.7,0.45,89
2.7,0.6,63
2.7,0.75,61
2.7,0.9,61
2.7,1.05,65
2.7,1.2,67
2.7,1.35,71
2.7,1.5,72
2.85,-1.5,61
2.85,-1.35,65
2.85,-1.2,65
2.85,-1.05,65
2.85,-0.9,64
2.85,-0.75,65
2.85,-0.6,103
2.85,-0.45,4
2.85,-0.3,106
2.85,-0.15,68
2.85,0.0,64
2.85,0.15,61
2.85,0.3,77
2.85,0.45,73
2.85,0.6,50
2.85,0.75,29
2.85,0.9,59
2.85,1.05,66
2.85,1.2,68
2.85,1.35,80
2.85,1.5,82
3.0,-1.5,61
3.0,-1.35,69
3.0,-1.2,70
3.0,-1.05,70
3.0,-0.9,69
3.0,-0.75,68
3.0,-0.6,76
3.0,-0.45,115
3.0,-0.3,99
3.0,-0.15,69
3.0,0.0,64
3.0,0.15,61
3.0,0.3,76
3.0,0.45,73
3.0,0.6,66
3.0,0.75,64
3.0,0.9,74
3.0,1.05,80
3.0,1.2,81
3.0,1.35,82
3.0,1.5,82
3.15,-1.5,77
3.15,-1.35,80
3.15,-1.2,79
3.15,-1.05,69
3.15,-0.9,70
3.15,-0.75,64
3.15,-0.6,36
3.15,-0.45,83
3.15,-0.3,115
3.15,-0.15,73
3.15,0.0,52
3.15,0.15,49
3.15,0.3,83
3.15,0.45,88
3.15,0.6,89
3.15,0.75,110
3.15,0.9,95
3.15,1.05,89
3.15,1.2,85
3.15,1.35,79
3.15,1.5,79
3.3,-1.5,85
3.3,-1.35,85
3.3,-1.2,85
3.3,-1.05,83
3.3,-0.9,93
3.3,-0.75,96
3.3,-0.6,64
3.3,-0.45,76
3.3,-0.3,172
3.3,-0.15,86
3.3,0.0,14
3.3,0.15,42
3.3,0.3,104
3.3,0.45,154
3.3,0.6,163
3.3,0.75,139
3.3,0.9,113
3.3,1.05,91
3.3,1.2,77
3.3,1.35,79
3.3,1.5,84
3.45,-1.5,106
3.45,-1.35,124
3.45,-1.2,119
3.45,-1.05,117
3.45,-0.9,118
3.45,-0.75,113
3.45,-0.6,81
3.45,-0.45,98
3.45,-0.3,149
3.45,-0.15,76
3.45,0.0,59
3.45,0.15,71
3.45,0.3,123
3.45,0.45,213
3.45,0.6,252
3.45,0.75,180
3.45,0.9,126
3.45,1.05,58
3.45,1.2,58
3.45,1.35,88
3.45,1.5,102
3.6,-1.5,128
3.6,-1.35,129
3.6,-1.2,128
3.6,-1.05,124
3.6,-0.9,113
3.6,-0.75,140
3.6,-0.6,110
3.6,-0.45,0
3.6,-0.3,115
3.6,-0.15,76
3.6,0.0,86
3.6,0.15,88
3.6,0.3,170
3.6,0.45,188
3.6,0.6,212
3.6,0.75,207
3.6,0.9,146
3.6,1.05,12
3.6,1.2,40
3.6,1.35,101
3.6,1.5,117
3.75,-1.5,131
3.75,-1.35,132
3.75,-1.2,133
3.75,-1.05,144
3.75,-0.9,145
3.75,-0.75,174
3.75,-0.6,166
3.75,-0.45,255
3.75,-0.3,64
3.75,-0.15,67
3.75,0.0,91
3.75,0.15,90
3.75,0.3,123
3.75,0.45,161
3.75,0.6,219
3.75,0.75,254
3.75,0.9,185
3.75,1.05,117
3.75,1.2,106
3.75,1.35,131
3.75,1.5,141
3.9,-1.5,127
3.9,-1.35,147
3.9,-1.2,151
3.9,-1.05,157
3.9,-0.9,171
3.9,-0.75,173
3.9,-0.6,174
3.9,-0.45,147
3.9,-0.3,89
3.9,-0.15,85
3.9,0.0,92
3.9,0.15,72
3.9,0.3,127
3.9,0.45,234
3.9,0.6,147
3.9,0.75,169
3.9,0.9,181
3.9,1.05,168
3.9,1.2,153
3.9,1.35,140
3.9,1.5,144
4.05,-1.5,124
4.05,-1.35,126
4.05,-1.2,122
4.05,-1.05,120
4.05,-0.9,114
4.05,-0.75,130
4.05,-0.6,133
4.05,-0.45,161
4.05,-0.3,35
4.05,-0.15,118
4.05,0.0,106
4.05,0.15,75
4.05,0.3,121
4.05,0.45,173
4.05,0.6,229
4.05,0.75,201
4.05,0.9,178
4.05,1.05,164
4.05,1.2,160
4.05,1.35,154
4.05,1.5,152
4.2,-1.5,123
4.2,-1.35,108
4.2,-1.2,104
4.2,-1.05,95
4.2,-0.9,79
4.2,-0.75,71
4.2,-0.6,109
4.2,-0.45,105
4.2,-0.3,254
4.2,-0.15,187
4.2,0.0,120
4.2,0.15,80
4.2,0.3,94
4.2,0.45,32
4.2,0.6,229
4.2,0.75,212
4.2,0.9,178
4.2,1.05,164
4.2,1.2,154
4.2,1.35,152
4.2,1.5,156
4.35,-1.5,102
4.35,-1.35,102
4.35,-1.2,102
4.35,-1.05,94
4.35,-0.9,83
4.35,-0.75,65
4.35,-0.6,79
4.35,-0.45,102
4.35,-0.3,105
4.35,-0.15,61
4.35,0.0,85
4.35,0.15,81
4.35,0.3,139
4.35,0.45,138
4.35,0.6,169
4.35,0.75,173
4.35,0.9,170
4.35,1.05,168
4.35,1.2,167
4.35,1.35,165
4.35,1.5,157
4.5,-1.5,98
4.5,-1.35,99
4.5,-1.2,91
4.5,-1.05,93
4.5,-0.9,97
4.5,-0.75,37
4.5,-0.6,69
4.5,-0.45,101
4.5,-0.3,134
4.5,-0.15,185
4.5,0.0,88
4.5,0.15,169
4.5,0.3,246
4.5,0.45,162
4.5,0.6,72
4.5,0.75,94
4.5,0.9,144
4.5,1.05,175
4.5,1.2,162
4.5,1.35,164
4.5,1.5,165
4.65,-1.5,80
4.65,-1.35,84
4.65,-1.2,92
4.65,-1.05,119
4.65,-0.9,140
4.65,-0.75,112
4.65,-0.6,87
4.65,-0.45,198
4.65,-0.3,244
4.65,-0.15,109
4.65,0.0,72
4.65,0.15,254
4.65,0.3,245
4.65,0.45,156
4.65,0.6,38
4.65,0.75,56
4.65,0.9,105
4.65,1.05,145
4.65,1.2,182
4.65,1.35,162
4.65,1.5,164
4.8,-1.5,78
4.8,-1.35,82
4.8,-1.2,90
4.8,-1.05,119
4.8,-0.9,162
4.8,-0.75,174
4.8,-0.6,7
4.8,-0.45,133
4.8,-0.3,176
4.8,-0.15,111
4.8,0.0,72
4.8,0.15,78
4.8,0.3,199
4.8,0.45,206
4.8,0.6,126
4.8,0.75,116
4.8,0.9,127
4.8,1.05,137
4.8,1.2,134
4.8,1.35,135
4.8,1.5,108
4.95,-1.5,95
4.95,-1.35,94
4.95,-1.2,92
4.95,-1.05,90
4.95,-0.9,92
4.95,-0.75,83
4.95,-0.6,17
4.95,-0.45,141
4.95,-0.3,145
4.95,-0.15,142
4.95,0.0,139
4.95,0.15,53
4.95,0.3,108
4.95,0.45,144
4.95,0.6,135
4.95,0.75,119
4.95,0.9,112
4.95,1.05,105
4.95,1.2,131
4.95,1.35,133
4.95,1.5,108
5.1,-1.5,95
5.1,-1.35,92
5.1,-1.2,83
5.1,-1.05,59
5.1,-0.9,0
5.1,-0.75,42
5.1,-0.6,37
5.1,-0.45,84
5.1,-0.3,101
5.1,-0.15,101
5.1,0.0,57
5.1,0.15,53
5.1,0.3,103
5.1,0.45,119
5.1,0.6,92
5.1,0.75,80
5.1,0.9,71
5.1,1.05,73
5.1,1.2,70
5.1,1.35,82
5.1,1.5,96
5.25,-1.5,97
5.25,-1.35,94
5.25,-1.2,84
5.25,-1.05,67
5.25,-0.9,43
5.25,-0.75,38
5.25,-0.6,12
5.25,-0.45,7
5.25,-0.3,254
5.25,-0.15,64
5.25,0.0,40
5.25,0.15,48
5.25,0.3,190
5.25,0.45,111
5.25,0.6,80
5.25,0.75,72
5.25,0.9,69
5.25,1.05,67
5.25,1.2,66
5.25,1.35,67
5.25,1.5,71
5.4,-1.5,105
5.4,-1.35,105
5.4,-1.2,106
5.4,-1.05,114
5.4,-0.9,126
5.4,-0.75,117
5.4,-0.6,118
5.4,-0.45,171
5.4,-0.3,125
5.4,-0.15,105
5.4,0.0,135
5.4,0.15,69
5.4,0.3,65
5.4,0.45,79
5.4,0.6,55
5.4,0.75,46
5.4,0.9,59
5.4,1.05,60
5.4,1.2,64
5.4,1.35,66
5.4,1.5,68
5.55,-1.5,79
5.55,-1.35,87
5.55,-1.2,119
5.55,-1.05,142
5.55,-0.9,208
5.55,-0.75,191
5.55,-0.6,114
5.55,-0.45,106
5.55,-0.3,255
5.55,-0.15,236
5.55,0.0,86
5.55,0.15,51
5.55,0.3,62
5.55,0.45,54
5.55,0.6,25
5.55,0.75,21
5.55,0.9,36
5.55,1.05,46
5.55,1.2,52
5.55,1.35,69
5.55,1.5,73
5.7,-1.5,96
5.7,-1.35,102
5.7,-1.2,118
5.7,-1.05,133
5.7,-0.9,75
5.7,-0.75,191
5.7,-0.6,187
5.7,-0.45,78
5.7,-0.3,122
5.7,-0.15,193
5.7,0.0,13
5.7,0.15,53
5.7,0.3,55
5.7,0.45,67
5.7,0.6,27
5.7,0.75,6
5.7,0.9,20
5.7,1.05,44
5.7,1.2,54
5.7,1.35,60
5.7,1.5,79
5.85,-1.5,113
5.85,-1.35,115
5.85,-1.2,114
5.85,-1.05,116
5.85,-0.9,117
5.85,-0.75,128
5.85,-0.6,134
5.85,-0.45,123
5.85,-0.3,78
5.85,-0.15,101
5.85,0.0,121
5.85,0.15,102
5.85,0.3,68
5.85,0.45,93
5.85,0.6,83
5.85,0.75,24
5.85,0.9,39
5.85,1.05,55
5.85,1.2,63
5.85,1.35,68
5.85,1.5,71
6.0,-1.5,113
6.0,-1.35,110
6.0,-1.2,115
6.0,-1.05,100
6.0,-0.9,93
6.0,-0.75,64
6.0,-0.6,69
6.0,-0.45,193
6.0,-0.3,67
6.0,-0.15,67
6.0,0.0,88
6.0,0.15,89
6.0,0.3,69
6.0,0.45,75
6.0,0.6,75
6.0,0.75,66
6.0,0.9,65
6.0,1.05,70
6.0,1.2,73
6.0,1.35,75
6.0,1.5,76
6.15,-1.5,113
6.15,-1.35,104
6.15,-1.2,94
6.15,-1.05,76
6.15,-0.9,75
6.15,-0.75,17
6.15,-0.6,54
6.15,-0.45,103
6.15,-0.3,148
6.15,-0.15,116
6.15,0.0,56
6.15,0.15,89
6.15,0.3,69
6.15,0.45,75
6.15,0.6,66
6.15,0.75,79
6.15,0.9,90
6.15,1.05,91
6.15,1.2,89
6.15,1.35,87
6.15,1.5,86
6.3,-1.5,112
6.3,-1.35,104
6.3,-1.2,89
6.3,-1.05,75
6.3,-0.9,100
6.3,-0.75,189
6.3,-0.6,98
6.3,-0.45,10
6.3,-0.3,134
6.3,-0.15,78
6.3,0.0,48
6.3,0.15,73
6.3,0.3,90
6.3,0.45,76
6.3,0.6,91
6.3,0.75,132
6.3,0.9,135
6.3,1.05,117
6.3,1.2,106
6.3,1.35,92
6.3,1.5,88
6.45,-1.5,112
6.45,-1.35,91
6.45,-1.2,110
6.45,-1.05,111
6.45,-0.9,120
6.45,-0.75,155
6.45,-0.6,124
6.45,-0.45,91
6.45,-0.3,255
6.45,-0.15,99
6.45,0.0,57
6.45,0.15,105
6.45,0.3,146
6.45,0.45,99
6.45,0.6,108
6.45,0.75,255
6.45,0.9,188
6.45,1.05,133
6.45,1.2,114
6.45,1.35,101
6.45,1.5,96
6.6,-1.5,110
6.6,-1.35,111
6.6,-1.2,118
6.6,-1.05,124
6.6,-0.9,143
6.6,-0.75,142
6.6,-0.6,104
6.6,-0.45,18
6.6,-0.3,49
6.6,-0.15,93
6.6,0.0,61
6.6,0.15,167
6.6,0.3,148
6.6,0.45,122
6.6,0.6,122
6.6,0.75,173
6.6,0.9,167
6.6,1.05,131
6.6,1.2,103
6.6,1.35,93
6.6,1.5,87
6.75,-1.5,102
6.75,-1.35,104
6.75,-1.2,115
6.75,-1.05,132
6.75,-0.9,150
6.75,-0.75,150
6.75,-0.6,132
6.75,-0.45,53
6.75,-0.3,88
6.75,-0.15,0
6.75,0.0,59
6.75,0.15,222
6.75,0.3,96
6.75,0.45,107
6.75,0.6,110
6.75,0.75,120
6.75,0.9,105
6.75,1.05,101
6.75,1.2,92
6.75,1.35,87
6.75,1.5,83
6.9,-1.5,117
6.9,-1.35,116
6.9,-1.2,116
6.9,-1.05,124
6.9,-0.9,129
6.9,-0.75,172
6.9,-0.6,217
6.9,-0.45,236
6.9,-0.3,64
6.9,-0.15,64
6.9,0.0,73
6.9,0.15,125
6.9,0.3,111
6.9,0.45,8
6.9,0.6,75
6.9,0.75,95
6.9,0.9,87
6.9,1.05,94
6.9,1.2,78
6.9,1.35,77
6.9,1.5,76
7.05,-1.5,126
7.05,-1.35,111
7.05,-1.2,115
7.05,-1.05,111
7.05,-0.9,89
7.05,-0.75,103
7.05,-0.6,127
7.05,-0.45,142
7.05,-0.3,11
7.05,-0.15,63
7.05,0.0,122
7.05,0.15,182
7.05,0.3,139
7.05,0.45,58
7.05,0.6,38
7.05,0.75,54
7.05,0.9,61
7.05,1.05,68
7.05,1.2,72
7.05,1.35,55
7.05,1.5,56
7.2,-1.5,91
7.2,-1.35,102
7.2,-1.2,97
7.2,-1.05,90
7.2,-0.9,78
7.2,-0.75,80
7.2,-0.6,98
7.2,-0.45,163
7.2,-0.3,42
7.2,-0.15,66
7.2,0.0,79
7.2,0.15,75
7.2,0.3,125
7.2,0.45,17
7.2,0.6,13
7.2,0.75,24
7.2,0.9,34
7.2,1.05,37
7.2,1.2,43
7.2,1.35,47
7.2,1.5,50
7.35,-1.5,84
7.35,-1.35,64
7.35,-1.2,60
7.35,-1.05,42
7.35,-0.9,35
7.35,-0.75,3
7.35,-0.6,49
7.35,-0.45,102
7.35,-0.3,30
7.35,-0.15,77
7.35,0.0,53
7.35,0.15,92
7.35,0.3,35
7.35,0.45,25
7.35,0.6,0
7.35,0.75,3
7.35,0.9,16
7.35,1.05,21
7.35,1.2,24
7.35,1.35,43
7.35,1.5,42
7.5,-1.5,63
7.5,-1.35,62
7.5,-1.2,77
7.5,-1.05,57
7.5,-0.9,60
7.5,-0.75,46
7.5,-0.6,23
7.5,-0.45,13
7.5,-0.3,2
7.5,-0.15,21
7.5,0.0,103
7.5,0.15,28
7.5,0.3,21
7.5,0.45,9
7.5,0.6,1
7.5,0.75,6
7.5,0.9,14
7.5,1.05,17
7.5,1.2,23
7.5,1.35,24
7.5,1.5,28
7.65,-1.5,83
7.65,-1.35,83
7.65,-1.2,67
7.65,-1.05,70
7.65,-0.9,78
7.65,-0.75,88
7.65,-0.6,86
7.65,-0.45,63
7.65,-0.3,46
7.65,-0.15,55
7.65,0.0,62
7.65,0.15,66
7.65,0.3,65
7.65,0.45,46
7.65,0.6,22
7.65,0.75,25
7.65,0.9,32
7.65,1.05,30
7.65,1.2,30
7.65,1.35,26
7.65,1.5,26
7.8,-1.5,83
7.8,-1.35,79
7.8,-1.2,81
7.8,-1.05,85
7.8,-0.9,78
7.8,-0.75,106
7.8,-0.6,160
7.8,-0.45,30
7.8,-0.3,55
7.8,-0.15,40
7.8,0.0,53
7.8,0.15,49
7.8,0.3,6
7.8,0.45,54
7.8,0.6,54
7.8,0.75,45
7.8,0.9,44
7.8,1.05,38
7.8,1.2,33
7.8,1.35,32
7.8,1.5,32
7.95,-1.5,90
7.95,-1.35,90
7.95,-1.2,91
7.95,-1.05,92
7.95,-0.9,92
7.95,-0.75,96
7.95,-0.6,92
7.95,-0.45,37
7.95,-0.3,126
7.95,-0.15,126
7.95,0.0,40
7.95,0.15,14
7.95,0.3,50
7.95,0.45,21
7.95,0.6,54
7.95,0.75,54
7.95,0.9,54
7.95,1.05,40
7.95,1.2,38
7.95,1.35,37
7.95,1.5,41
8.1,-1.5,98
8.1,-1.35,97
8.1,-1.2,87
8.1,-1.05,73
8.1,-0.9,67
8.1,-0.75,31
8.1,-0.6,46
8.1,-0.45,62
8.1,-0.3,63
8.1,-0.15,50
8.1,0.0,65
8.1,0.15,134
8.1,0.3,79
8.1,0.45,61
8.1,0.6,49
8.1,0.75,47
8.1,0.9,50
8.1,1.05,54
8.1,1.2,54
8.1,1.35,54
8.1,1.5,42
8.25,-1.5,103
8.25,-1.35,97
8.25,-1.2,87
8.25,-1.05,85
8.25,-0.9,71
8.25,-0.75,94
8.25,-0.6,64
8.25,-0.45,29
8.25,-0.3,20
8.25,-0.15,233
8.25,0.0,172
8.25,0.15,66
8.25,0.3,79
8.25,0.45,91
8.25,0.6,54
8.25,0.75,40
8.25,0.9,54
8.25,1.05,54
8.25,1.2,54
8.25,1.35,54
8.25,1.5,54
8.4,-1.5,104
8.4,-1.35,86
8.4,-1.2,86
8.4,-1.05,86
8.4,-0.9,72
8.4,-0.75,84
8.4,-0.6,69
8.4,-0.45,19
8.4,-0.3,0
8.4,-0.15,48
8.4,0.0,45
8.4,0.15,28
8.4,0.3,98
8.4,0.45,149
8.4,0.6,64
8.4,0.75,53
8.4,0.9,54
8.4,1.05,54
8.4,1.2,54
8.4,1.35,54
8.4,1.5,50
8.55,-1.5,107
8.55,-1.35,108
8.55,-1.2,109
8.55,-1.05,110
8.55,-0.9,109
8.55,-0.75,75
8.55,-0.6,76
8.55,-0.45,59
8.55,-0.3,98
8.55,-0.15,65
8.55,0.0,43
8.55,0.15,49
8.55,0.3,77
8.55,0.45,89
8.55,0.6,62
8.55,0.75,51
8.55,0.9,50
8.55,1.05,54
8.55,1.2,44
8.55,1.35,40
8.55,1.5,40
8.7,-1.5,118
8.7,-1.35,107
8.7,-1.2,111
8.7,-1.05,96
8.7,-0.9,105
8.7,-0.75,131
8.7,-0.6,72
8.7,-0.45,52
8.7,-0.3,48
8.7,-0.15,55
8.7,0.0,34
8.7,0.15,54
8.7,0.3,74
8.7,0.45,70
8.7,0.6,36
8.7,0.75,37
8.7,0.9,47
8.7,1.05,50
8.7,1.2,43
8.7,1.35,53
8.7,1.5,54
8.85,-1.5,107
8.85,-1.35,107
8.85,-1.2,113
8.85,-1.05,116
8.85,-0.9,124
8.85,-0.75,154
8.85,-0.6,183
8.85,-0.45,80
8.85,-0.3,55
8.85,-0.15,0
8.85,0.0,79
8.85,0.15,216
8.85,0.3,88
8.85,0.45,127
8.85,0.6,51
8.85,0.75,44
8.85,0.9,63
8.85,1.05,72
8.85,1.2,64
8.85,1.35,57
8.85,1.5,58
9.0,-1.5,116
9.0,-1.35,116
9.0,-1.2,116
9.0,-1.05,103
9.0,-0.9,102
9.0,-0.75,85
9.0,-0.6,25
9.0,-0.45,92
9.0,-0.3,114
9.0,-0.15,153
9.0,0.0,154
9.0,0.15,126
9.0,0.3,90
9.0,0.45,127
9.0,0.6,58
9.0,0.75,83
9.0,0.9,110
9.0,1.05,122
9.0,1.2,108
9.0,1.35,101
9.0,1.5,102
9.15,-1.5,107
9.15,-1.35,107
9.15,-1.2,106
9.15,-1.05,105
9.15,-0.9,95
9.15,-0.75,91
9.15,-0.6,212
9.15,-0.45,92
9.15,-0.3,153
9.15,-0.15,88
9.15,0.0,61
9.15,0.15,59
9.15,0.3,122
9.15,0.45,144
9.15,0.6,130
9.15,0.75,135
9.15,0.9,140
9.15,1.05,139
9.15,1.2,110
9.15,1.35,108
9.15,1.5,108
9.3,-1.5,108
9.3,-1.35,108
9.3,-1.2,95
9.3,-1.05,95
9.3,-0.9,102
9.3,-0.75,123
9.3,-0.6,113
9.3,-0.45,42
9.3,-0.3,132
9.3,-0.15,85
9.3,0.0,158
9.3,0.15,43
9.3,0.3,129
9.3,0.45,230
9.3,0.6,87
9.3,0.75,230
9.3,0.9,181
9.3,1.05,166
9.3,1.2,148
9.3,1.35,144
9.3,1.5,137
9.45,-1.5,95
9.45,-1.35,105
9.45,-1.2,109
9.45,-1.05,137
9.45,-0.9,140
9.45,-0.75,119
9.45,-0.6,122
9.45,-0.45,240
9.45,-0.3,66
9.45,-0.15,217
9.45,0.0,207
9.45,0.15,107
9.45,0.3,91
9.45,0.45,129
9.45,0.6,255
9.45,0.75,199
9.45,0.9,180
9.45,1.05,167
9.45,1.2,161
9.45,1.35,156
9.45,1.5,139
9.6,-1.5,82
9.6,-1.35,70
9.6,-1.2,70
9.6,-1.05,68
9.6,-0.9,41
9.6,-0.75,41
9.6,-0.6,35
9.6,-0.45,20
9.6,-0.3,155
9.6,-0.15,198
9.6,0.0,116
9.6,0.15,50
9.6,0.3,75
9.6,0.45,53
9.6,0.6,85
9.6,0.75,141
9.6,0.9,157
9.6,1.05,153
9.6,1.2,149
9.6,1.35,150
9.6,1.5,131
9.75,-1.5,72
9.75,-1.35,71
9.75,-1.2,70
9.75,-1.05,63
9.75,-0.9,58
9.75,-0.75,59
9.75,-0.6,75
9.75,-0.45,147
9.75,-0.3,95
9.75,-0.15,97
9.75,0.0,79
9.75,0.15,68
9.75,0.3,78
9.75,0.45,225
9.75,0.6,152
9.75,0.75,157
9.75,0.9,132
9.75,1.05,125
9.75,1.2,122
9.75,1.35,122
9.75,1.5,121
9.9,-1.5,70
9.9,-1.35,70
9.9,-1.2,76
9.9,-1.05,69
9.9,-0.9,62
9.9,-0.75,33
9.9,-0.6,130
9.9,-0.45,133
9.9,-0.3,55
9.9,-0.15,70
9.9,0.0,43
9.9,0.15,42
9.9,0.3,78
9.9,0.45,62
9.9,0.6,75
9.9,0.75,104
9.9,0.9,100
9.9,1.05,103
9.9,1.2,108
9.9,1.35,112
9.9,1.5,115
10.05,-1.5,70
10.05,-1.35,70
10.05,-1.2,96
10.05,-1.05,94
10.05,-0.9,112
10.05,-0.75,115
10.05,-0.6,146
10.05,-0.45,195
10.05,-0.3,126
10.05,-0.15,14
10.05,0.0,34
10.05,0.15,37
10.05,0.3,62
10.05,0.45,98
10.05,0.6,69
10.05,0.75,66
10.05,0.9,48
10.05,1.05,85
10.05,1.2,104
10.05,1.35,115
10.05,1.5,125
10.2,-1.5,126
10.2,-1.35,125
10.2,-1.2,125
10.2,-1.05,125
10.2,-0.9,125
10.2,-0.75,112
10.2,-0.6,147
10.2,-0.45,69
10.2,-0.3,113
10.2,-0.15,74
10.2,0.0,8
10.2,0.15,58
10.2,0.3,72
10.2,0.45,97
10.2,0.6,100
10.2,0.75,45
10.2,0.9,22
10.2,1.05,59
10.2,1.2,75
10.2,1.35,95
10.2,1.5,116
10.35,-1.5,127
10.35,-1.35,114
10.35,-1.2,114
10.35,-1.05,114
10.35,-0.9,114
10.35,-0.75,117
10.35,-0.6,141
10.35,-0.45,122
10.35,-0.3,118
10.35,-0.15,72
10.35,0.0,30
10.35,0.15,46
10.35,0.3,75
10.35,0.45,113
10.35,0.6,119
10.35,0.75,91
10.35,0.9,70
10.35,1.05,71
10.35,1.2,77
10.35,1.35,81
10.35,1.5,84
10.5,-1.5,115
10.5,-1.35,115
10.5,-1.2,135
10.5,-1.05,133
10.5,-0.9,125
10.5,-0.75,118
10.5,-0.6,101
10.5,-0.45,103
10.5,-0.3,92
10.5,-0.15,74
10.5,0.0,77
10.5,0.15,73
10.5,0.3,88
10.5,0.45,160
10.5,0.6,212
10.5,0.75,110
10.5,0.9,88
10.5,1.05,80
10.5,1.2,79
10.5,1.35,81
10.5,1.5,75
10.65,-1.5,157
10.65,-1.35,157
10.65,-1.2,157
10.65,-1.05,155
10.65,-0.9,158
10.65,-0.75,140
10.65,-0.6,124
10.65,-0.45,63
10.65,-0.3,238
10.65,-0.15,74
10.65,0.0,108
10.65,0.15,103
10.65,0.3,91
10.65,0.45,14
10.65,0.6,87
10.65,0.75,71
10.65,0.9,69
10.65,1.05,66
10.65,1.2,66
10.65,1.35,66
10.65,1.5,66
10.8,-1.5,157
10.8,-1.35,157
10.8,-1.2,156
10.8,-1.05,175
10.8,-0.9,175
10.8,-0.75,175
10.8,-0.6,232
10.8,-0.45,255
10.8,-0.3,193
10.8,-0.15,130
10.8,0.0,147
10.8,0.15,108
10.8,0.3,94
10.8,0.45,71
10.8,0.6,10
10.8,0.75,37
10.8,0.9,63
10.8,1.05,70
10.8,1.2,73
10.8,1.35,75
10.8,1.5,76
10.95,-1.5,140
10.95,-1.35,141
10.95,-1.2,139
10.95,-1.05,142
10.95,-0.9,149
10.95,-0.75,159
10.95,-0.6,164
10.95,-0.45,84
10.95,-0.3,75
10.95,-0.15,193
10.95,0.0,137
10.95,0.15,98
10.95,0.3,81
10.95,0.45,67
10.95,0.6,52
10.95,0.75,51
10.95,0.9,58
10.95,1.05,66
10.95,1.2,72
10.95,1.35,81
10.95,1.5,84
11.1,-1.5,138
11.1,-1.35,138
11.1,-1.2,152
11.1,-1.05,108
11.1,-0.9,110
11.1,-0.75,111
11.1,-0.6,105
11.1,-0.45,89
11.1,-0.3,30
11.1,-0.15,54
11.1,0.0,76
11.1,0.15,63
11.1,0.3,59
11.1,0.45,64
11.1,0.6,36
11.1,0.75,33
11.1,0.9,56
11.1,1.05,70
11.1,1.2,77
11.1,1.35,81
11.1,1.5,84
11.25,-1.5,108
11.25,-1.35,108
11.25,-1.2,108
11.25,-1.05,107
11.25,-0.9,100
11.25,-0.75,92
11.25,-0.6,69
11.25,-0.45,37
11.25,-0.3,26
11.25,-0.15,30
11.25,0.0,41
11.25,0.15,45
11.25,0.3,69
11.25,0.45,71
11.25,0.6,33
11.25,0.75,30
11.25,0.9,64
11.25,1.05,77
11.25,1.2,84
11.25,1.35,100
11.25,1.5,100
11.4,-1.5,99
11.4,-1.35,108
11.4,-1.2,108
11.4,-1.05,101
11.4,-0.9,84
11.4,-0.75,82
11.4,-0.6,68
11.4,-0.45,11
11.4,-0.3,46
11.4,-0.15,40
11.4,0.0,57
11.4,0.15,81
11.4,0.3,103
11.4,0.45,83
11.4,0.6,66
11.4,0.75,76
11.4,0.9,85
11.4,1.05,92
11.4,1.2,94
11.4,1.35,98
11.4,1.5,100
11.55,-1.5,79
11.55,-1.35,79
11.55,-1.2,79
11.55,-1.05,79
11.55,-0.9,79
11.55,-0.75,79
11.55,-0.6,102
11.55,-0.45,83
11.55,-0.3,72
11.55,-0.15,70
11.55,0.0,78
11.55,0.15,119
11.55,0.3,117
11.55,0.45,115
11.55,0.6,95
11.55,0.75,77
11.55,0.9,98
11.55,1.05,103
11.55,1.2,105
11.55,1.35,106
11.55,1.5,107
11.7,-1.5,86
11.7,-1.35,86
11.7,-1.2,87
11.7,-1.05,87
11.7,-0.9,94
11.7,-0.75,96
11.7,-0.6,101
11.7,-0.45,143
11.7,-0.3,237
11.7,-0.15,130
11.7,0.0,133
11.7,0.15,121
11.7,0.3,146
11.7,0.45,156
11.7,0.6,255
11.7,0.75,156
11.7,0.9,124
11.7,1.05,118
11.7,1.2,116
11.7,1.35,115
11.7,1.5,113
11.85,-1.5,110
11.85,-1.35,108
11.85,-1.2,86
11.85,-1.05,86
11.85,-0.9,95
11.85,-0.75,88
11.85,-0.6,104
11.85,-0.45,141
11.85,-0.3,101
11.85,-0.15,133
11.85,0.0,118
11.85,0.15,105
11.85,0.3,127
11.85,0.45,157
11.85,0.6,192
11.85,0.75,196
11.85,0.9,139
11.85,1.05,129
11.85,1.2,126
11.85,1.35,122
11.85,1.5,118
12.0,-1.5,109
12.0,-1.35,128
12.0,-1.2,120
12.0,-1.05,114
12.0,-0.9,108
12.0,-0.75,69
12.0,-0.6,109
12.0,-0.45,74
12.0,-0.3,74
12.0,-0.15,160
12.0,0.0,45
12.0,0.15,77
12.0,0.3,136
12.0,0.45,128
12.0,0.6,122
12.0,0.75,64
12.0,0.9,122
12.0,1.05,140
12.0,1.2,136
12.0,1.35,127
12.0,1.5,116
12.15,-1.5,87
12.15,-1.35,90
12.15,-1.2,109
12.15,-1.05,106
12.15,-0.9,109
12.15,-0.75,66
12.15,-0.6,74
12.15,-0.45,110
12.15,-0.3,113
12.15,-0.15,161
12.15,0.0,129
12.15,0.15,118
12.15,0.3,134
12.15,0.45,110
12.15,0.6,81
12.15,0.75,82
12.15,0.9,109
12.15,1.05,195
12.15,1.2,156
12.15,1.35,125
12.15,1.5,112
12.3,-1.5,87
12.3,-1.35,91
12.3,-1.2,96
12.3,-1.05,122
12.3,-0.9,124
12.3,-0.75,137
12.3,-0.6,187
12.3,-0.45,173
12.3,-0.3,77
12.3,-0.15,96
12.3,0.0,127
12.3,0.15,104
12.3,0.3,61
12.3,0.45,84
12.3,0.6,60
12.3,0.75,10
12.3,0.9,252
12.3,1.05,213
12.3,1.2,146
12.3,1.35,121
12.3,1.5,109
12.45,-1.5,75
12.45,-1.35,81
12.45,-1.2,89
12.45,-1.05,119
12.45,-0.9,131
12.45,-0.75,142
12.45,-0.6,161
12.45,-0.45,165
12.45,-0.3,239
12.45,-0.15,89
12.45,0.0,96
12.45,0.15,72
12.45,0.3,71
12.45,0.45,78
12.45,0.6,45
12.45,0.75,11
12.45,0.9,62
12.45,1.05,113
12.45,1.2,111
12.45,1.35,102
12.45,1.5,94
12.6,-1.5,61
12.6,-1.35,63
12.6,-1.2,74
12.6,-1.05,106
12.6,-0.9,120
12.6,-0.75,102
12.6,-0.6,66
12.6,-0.45,155
12.6,-0.3,79
12.6,-0.15,43
12.6,0.0,52
12.6,0.15,65
12.6,0.3,73
12.6,0.45,66
12.6,0.6,44
12.6,0.75,18
12.6,0.9,39
12.6,1.05,64
12.6,1.2,79
12.6,1.35,79
12.6,1.5,73
12.75,-1.5,40
12.75,-1.35,57
12.75,-1.2,79
12.75,-1.05,91
12.75,-0.9,106
12.75,-0.75,70
12.75,-0.6,50
12.75,-0.45,92
12.75,-0.3,39
12.75,-0.15,46
12.75,0.0,50
12.75,0.15,70
12.75,0.3,58
12.75,0.45,104
12.75,0.6,189
12.75,0.75,113
12.75,0.9,3
12.75,1.05,45
12.75,1.2,60
12.75,1.35,55
12.75,1.5,44
12.9,-1.5,4
12.9,-1.35,18
12.9,-1.2,53
12.9,-1.05,69
12.9,-0.9,70
12.9,-0.75,71
12.9,-0.6,86
12.9,-0.45,49
12.9,-0.3,105
12.9,-0.15,34
12.9,0.0,49
12.9,0.15,57
12.9,0.3,79
12.9,0.45,106
12.9,0.6,179
12.9,0.75,103
12.9,0.9,30
12.9,1.05,42
12.9,1.2,45
12.9,1.35,29
12.9,1.5,8
13.05,-1.5,0
13.05,-1.35,17
13.05,-1.2,40
13.05,-1.05,65
13.05,-0.9,74
13.05,-0.75,86
13.05,-0.6,85
13.05,-0.45,90
13.05,-0.3,138
13.05,-0.15,58
13.05,0.0,58
13.05,0.15,78
13.05,0.3,77
13.05,0.45,82
13.05,0.6,97
13.05,0.75,37
13.05,0.9,11
13.05,1.05,39
13.05,1.2,40
13.05,1.35,18
13.05,1.5,0
