-3.0,-1.5,0
-3.0,-1.35,0
-3.0,-1.2,0
-3.0,-1.05,4
-3.0,-0.9,10
-3.0,-0.75,16
-3.0,-0.6,21
-3.0,-0.45,26
-3.0,-0.3,29
-3.0,-0.15,32
-3.0,0.0,32
-3.0,0.15,32
-3.0,0.3,29
-3.0,0.45,26
-3.0,0.6,21
-3.0,0.75,16
-3.0,0.9,10
-3.0,1.05,4
-3.0,1.2,0
-3.0,1.35,0
-3.0,1.5,0
-2.85,-1.5,0
-2.85,-1.35,0
-2.85,-1.2,1
-2.85,-1.05,6
-2.85,-0.9,12
-2.85,-0.75,17
-2.85,-0.6,23
-2.85,-0.45,28
-2.85,-0.3,31
-2.85,-0.15,33
-2.85,0.0,34
-2.85,0.15,33
-2.85,0.3,31
-2.85,0.45,28
-2.85,0.6,23
-2.85,0.75,18
-2.85,0.9,12
-2.85,1.05,6
-2.85,1.2,1
-2.85,1.35,0
-2.85,1.5,0
-2.7,-1.5,1
-2.7,-1.35,2
-2.7,-1.2,5
-2.7,-1.05,9
-2.7,-0.9,15
-2.7,-0.75,20
-2.7,-0.6,26
-2.7,-0.45,30
-2.7,-0.3,34
-2.7,-0.15,36
-2.7,0.0,37
-2.7,0.15,36
-2.7,0.3,34
-2.7,0.45,30
-2.7,0.6,26
-2.7,0.75,21
-2.7,0.9,15
-2.7,1.05,9
-2.7,1.2,5
-2.7,1.35,1
-2.7,1.5,0
-2.55,-1.5,6
-2.55,-1.35,7
-2.55,-1.2,11
-2.55,-1.05,14
-2.55,-0.9,19
-2.55,-0.75,25
-2.55,-0.6,30
-2.55,-0.45,34
-2.55,-0.3,37
-2.55,-0.15,39
-2.55,0.0,40
-2.55,0.15,39
-2.55,0.3,37
-2.55,0.45,34
-2.55,0.6,30
-2.55,0.75,25
-2.55,0.9,19
-2.55,1.05,14
-2.55,1.2,9
-2.55,1.35,6
-2.55,1.5,5
-2.4,-1.5,14
-2.4,-1.35,15
-2.4,-1.2,18
-2.4,-1.05,20
-2.4,-0.9,25
-2.4,-0.75,30
-2.4,-0.6,34
-2.4,-0.45,38
-2.4,-0.3,41
-2.4,-0.15,43
-2.4,0.0,43
-2.4,0.15,43
-2.4,0.3,41
-2.4,0.45,38
-2.4,0.6,34
-2.4,0.75,30
-2.4,0.9,25
-2.4,1.05,21
-2.4,1.2,15
-2.4,1.35,13
-2.4,1.5,12
-2.25,-1.5,22
-2.25,-1.35,24
-2.25,-1.2,26
-2.25,-1.05,30
-2.25,-0.9,32
-2.25,-0.75,36
-2.25,-0.6,40
-2.25,-0.45,43
-2.25,-0.3,45
-2.25,-0.15,47
-2.25,0.0,47
-2.25,0.15,47
-2.25,0.3,45
-2.25,0.45,43
-2.25,0.6,40
-2.25,0.75,36
-2.25,0.9,32
-2.25,1.05,28
-2.25,1.2,23
-2.25,1.35,20
-2.25,1.5,19
-2.1,-1.5,31
-2.1,-1.35,33
-2.1,-1.2,35
-2.1,-1.05,38
-2.1,-0.9,39
-2.1,-0.75,42
-2.1,-0.6,45
-2.1,-0.45,48
-2.1,-0.3,50
-2.1,-0.15,51
-2.1,0.0,52
-2.1,0.15,51
-2.1,0.3,50
-2.1,0.45,48
-2.1,0.6,45
-2.1,0.75,42
-2.1,0.9,39
-2.1,1.05,36
-2.1,1.2,30
-2.1,1.35,29
-2.1,1.5,28
-1.95,-1.5,40
-1.95,-1.35,41
-1.95,-1.2,43
-1.95,-1.05,46
-1.95,-0.9,46
-1.95,-0.75,48
-1.95,-0.6,51
-1.95,-0.45,53
-1.95,-0.3,55
-1.95,-0.15,56
-1.95,0.0,56
-1.95,0.15,56
-1.95,0.3,55
-1.95,0.45,53
-1.95,0.6,51
-1.95,0.75,49
-1.95,0.9,46
-1.95,1.05,40
-1.95,1.2,38
-1.95,1.35,36
-1.95,1.5,35
-1.8,-1.5,49
-1.8,-1.35,50
-1.8,-1.2,51
-1.8,-1.05,54
-1.8,-0.9,56
-1.8,-0.75,55
-1.8,-0.6,57
-1.8,-0.45,58
-1.8,-0.3,60
-1.8,-0.15,60
-1.8,0.0,61
-1.8,0.15,61
-1.8,0.3,60
-1.8,0.45,59
-1.8,0.6,57
-1.8,0.75,55
-1.8,0.9,53
-1.8,1.05,47
-1.8,1.2,45
-1.8,1.35,44
-1.8,1.5,43
-1.65,-1.5,56
-1.65,-1.35,57
-1.65,-1.2,59
-1.65,-1.05,61
-1.65,-0.9,62
-1.65,-0.75,60
-1.65,-0.6,62
-1.65,-0.45,63
-1.65,-0.3,65
-1.65,-0.15,65
-1.65,0.0,65
-1.65,0.15,65
-1.65,0.3,65
-1.65,0.45,64
-1.65,0.6,62
-1.65,0.75,61
-1.65,0.9,59
-1.65,1.05,54
-1.65,1.2,52
-1.65,1.35,51
-1.65,1.5,50
-1.5,-1.5,63
-1.5,-1.35,64
-1.5,-1.2,66
-1.5,-1.05,67
-1.5,-0.9,69
-1.5,-0.75,66
-1.5,-0.6,67
-1.5,-0.45,68
-1.5,-0.3,69
-1.5,-0.15,70
-1.5,0.0,70
-1.5,0.15,70
-1.5,0.3,69
-1.5,0.45,69
-1.5,0.6,68
-1.5,0.75,66
-1.5,0.9,65
-1.5,1.05,59
-1.5,1.2,58
-1.5,1.35,57
-1.5,1.5,56
-1.35,-1.5,69
-1.35,-1.35,70
-1.35,-1.2,71
-1.35,-1.05,73
-1.35,-0.9,74
-1.35,-0.75,75
-1.35,-0.6,72
-1.35,-0.45,73
-1.35,-0.3,74
-1.35,-0.15,74
-1.35,0.0,74
-1.35,0.15,74
-1.35,0.3,74
-1.35,0.45,73
-1.35,0.6,72
-1.35,0.75,71
-1.35,0.9,66
-1.35,1.05,65
-1.35,1.2,63
-1.35,1.35,62
-1.35,1.5,61
-1.2,-1.5,83
-1.2,-1.35,75
-1.2,-1.2,76
-1.2,-1.05,78
-1.2,-0.9,79
-1.2,-0.75,80
-1.2,-0.6,76
-1.2,-0.45,77
-1.2,-0.3,78
-1.2,-0.15,78
-1.2,0.0,78
-1.2,0.15,78
-1.2,0.3,78
-1.2,0.45,77
-1.2,0.6,77
-1.2,0.75,76
-1.2,0.9,70
-1.2,1.05,69
-1.2,1.2,68
-1.2,1.35,71
-1.2,1.5,70
-1.05,-1.5,87
-1.05,-1.35,88
-1.05,-1.2,85
-1.05,-1.05,86
-1.05,-0.9,83
-1.05,-0.75,84
-1.05,-0.6,80
-1.05,-0.45,81
-1.05,-0.3,82
-1.05,-0.15,82
-1.05,0.0,82
-1.05,0.15,82
-1.05,0.3,82
-1.05,0.45,81
-1.05,0.6,81
-1.05,0.75,80
-1.05,0.9,79
-1.05,1.05,77
-1.05,1.2,76
-1.05,1.35,75
-1.05,1.5,74
-0.9,-1.5,91
-0.9,-1.35,92
-0.9,-1.2,88
-0.9,-1.05,90
-0.9,-0.9,91
-0.9,-0.75,87
-0.9,-0.6,88
-0.9,-0.45,89
-0.9,-0.3,85
-0.9,-0.15,86
-0.9,0.0,86
-0.9,0.15,86
-0.9,0.3,85
-0.9,0.45,89
-0.9,0.6,84
-0.9,0.75,83
-0.9,0.9,81
-0.9,1.05,80
-0.9,1.2,79
-0.9,1.35,78
-0.9,1.5,82
-0.75,-1.5,94
-0.75,-1.35,95
-0.75,-1.2,96
-0.75,-1.05,92
-0.75,-0.9,93
-0.75,-0.75,94
-0.75,-0.6,91
-0.75,-0.45,92
-0.75,-0.3,92
-0.75,-0.15,93
-0.75,0.0,98
-0.75,0.15,93
-0.75,0.3,92
-0.75,0.45,92
-0.75,0.6,86
-0.75,0.75,85
-0.75,0.9,84
-0.75,1.05,83
-0.75,1.2,82
-0.75,1.35,85
-0.75,1.5,84
-0.6,-1.5,96
-0.6,-1.35,97
-0.6,-1.2,98
-0.6,-1.05,94
-0.6,-0.9,95
-0.6,-0.75,96
-0.6,-0.6,93
-0.6,-0.45,98
-0.6,-0.3,98
-0.6,-0.15,99
-0.6,0.0,99
-0.6,0.15,99
-0.6,0.3,94
-0.6,0.45,93
-0.6,0.6,93
-0.6,0.75,87
-0.6,0.9,86
-0.6,1.05,85
-0.6,1.2,84
-0.6,1.35,87
-0.6,1.5,86
-0.45,-1.5,97
-0.45,-1.35,98
-0.45,-1.2,99
-0.45,-1.05,96
-0.45,-0.9,97
-0.45,-0.75,98
-0.45,-0.6,98
-0.45,-0.45,99
-0.45,-0.3,99
-0.45,-0.15,99
-0.45,0.0,99
-0.45,0.15,99
-0.45,0.3,94
-0.45,0.45,94
-0.45,0.6,93
-0.45,0.75,92
-0.45,0.9,92
-0.45,1.05,91
-0.45,1.2,90
-0.45,1.35,89
-0.45,1.5,88
-0.3,-1.5,99
-0.3,-1.35,104
-0.3,-1.2,105
-0.3,-1.05,105
-0.3,-0.9,106
-0.3,-0.75,98
-0.3,-0.6,99
-0.3,-0.45,99
-0.3,-0.3,100
-0.3,-0.15,100
-0.3,0.0,100
-0.3,0.15,100
-0.3,0.3,95
-0.3,0.45,95
-0.3,0.6,94
-0.3,0.75,93
-0.3,0.9,92
-0.3,1.05,91
-0.3,1.2,90
-0.3,1.35,109
-0.3,1.5,108
-0.15,-1.5,103
-0.15,-1.35,104
-0.15,-1.2,104
-0.15,-1.05,105
-0.15,-0.9,106
-0.15,-0.75,98
-0.15,-0.6,99
-0.15,-0.45,100
-0.15,-0.3,101
-0.15,-0.15,101
-0.15,0.0,101
-0.15,0.15,101
-0.15,0.3,96
-0.15,0.45,95
-0.15,0.6,94
-0.15,0.75,93
-0.15,0.9,92
-0.15,1.05,91
-0.15,1.2,90
-0.15,1.35,108
-0.15,1.5,108
0.0,-1.5,103
0.0,-1.35,103
0.0,-1.2,104
0.0,-1.05,105
0.0,-0.9,106
0.0,-0.75,98
0.0,-0.6,100
0.0,-0.45,101
0.0,-0.3,102
0.0,-0.15,103
0.0,0.0,103
0.0,0.15,103
0.0,0.3,98
0.0,0.45,96
0.0,0.6,95
0.0,0.75,94
0.0,0.9,92
0.0,1.05,91
0.0,1.2,108
0.0,1.35,107
0.0,1.5,107
0.15,-1.5,102
0.15,-1.35,103
0.15,-1.2,103
0.15,-1.05,104
0.15,-0.9,105
0.15,-0.75,106
0.15,-0.6,100
0.15,-0.45,102
0.15,-0.3,104
0.15,-0.15,104
0.15,0.0,105
0.15,0.15,104
0.15,0.3,99
0.15,0.45,98
0.15,0.6,96
0.15,0.75,94
0.15,0.9,92
0.15,1.05,108
0.15,1.2,107
0.15,1.35,107
0.15,1.5,106
0.3,-1.5,101
0.3,-1.35,102
0.3,-1.2,102
0.3,-1.05,103
0.3,-0.9,105
0.3,-0.75,106
0.3,-0.6,101
0.3,-0.45,103
0.3,-0.3,106
0.3,-0.15,107
0.3,0.0,107
0.3,0.15,106
0.3,0.3,101
0.3,0.45,99
0.3,0.6,96
0.3,0.75,94
0.3,0.9,92
0.3,1.05,107
0.3,1.2,106
0.3,1.35,106
0.3,1.5,106
0.45,-1.5,100
0.45,-1.35,101
0.45,-1.2,101
0.45,-1.05,102
0.45,-0.9,103
0.45,-0.75,106
0.45,-0.6,101
0.45,-0.45,105
0.45,-0.3,108
0.45,-0.15,110
0.45,0.0,111
0.45,0.15,109
0.45,0.3,103
0.45,0.45,100
0.45,0.6,96
0.45,0.75,94
0.45,0.9,106
0.45,1.05,105
0.45,1.2,105
0.45,1.35,105
0.45,1.5,104
0.6,-1.5,99
0.6,-1.35,99
0.6,-1.2,100
0.6,-1.05,100
0.6,-0.9,102
0.6,-0.75,104
0.6,-0.6,107
0.6,-0.45,106
0.6,-0.3,111
0.6,-0.15,115
0.6,0.0,116
0.6,0.15,113
0.6,0.3,105
0.6,0.45,100
0.6,0.6,96
0.6,0.75,94
0.6,0.9,104
0.6,1.05,104
0.6,1.2,103
0.6,1.35,103
0.6,1.5,99
0.75,-1.5,98
0.75,-1.35,98
0.75,-1.2,98
0.75,-1.05,98
0.75,-0.9,99
0.75,-0.75,101
0.75,-0.6,106
0.75,-0.45,107
0.75,-0.3,116
0.75,-0.15,123
0.75,0.0,124
0.75,0.15,118
0.75,0.3,105
0.75,0.45,98
0.75,0.6,94
0.75,0.75,103
0.75,0.9,102
0.75,1.05,101
0.75,1.2,101
0.75,1.35,97
0.75,1.5,97
0.9,-1.5,97
0.9,-1.35,96
0.9,-1.2,95
0.9,-1.05,95
0.9,-0.9,95
0.9,-0.75,97
0.9,-0.6,102
0.9,-0.45,106
0.9,-0.3,120
0.9,-0.15,135
0.9,0.0,141
0.9,0.15,126
0.9,0.3,100
0.9,0.45,91
0.9,0.6,90
0.9,0.75,99
0.9,0.9,98
0.9,1.05,98
0.9,1.2,94
0.9,1.35,95
0.9,1.5,96
1.05,-1.5,96
1.05,-1.35,94
1.05,-1.2,92
1.05,-1.05,91
1.05,-0.9,89
1.05,-0.75,89
1.05,-0.6,93
1.05,-0.45,100
1.05,-0.3,122
1.05,-0.15,152
1.05,0.0,175
1.05,0.15,143
1.05,0.3,85
1.05,0.45,85
1.05,0.6,86
1.05,0.75,94
1.05,0.9,94
1.05,1.05,90
1.05,1.2,91
1.05,1.35,93
1.05,1.5,94
1.2,-1.5,94
1.2,-1.35,93
1.2,-1.2,90
1.2,-1.05,87
1.2,-0.9,82
1.2,-0.75,78
1.2,-0.6,77
1.2,-0.45,87
1.2,-0.3,111
1.2,-0.15,155
1.2,0.0,216
1.2,0.15,151
1.2,0.3,98
1.2,0.45,85
1.2,0.6,90
1.2,0.75,87
1.2,0.9,83
1.2,1.05,85
1.2,1.2,87
1.2,1.35,90
1.2,1.5,88
1.35,-1.5,94
1.35,-1.35,92
1.35,-1.2,88
1.35,-1.05,84
1.35,-0.9,77
1.35,-0.75,66
1.35,-0.6,52
1.35,-0.45,54
1.35,-0.3,86
1.35,-0.15,123
1.35,0.0,142
1.35,0.15,127
1.35,0.3,101
1.35,0.45,84
1.35,0.6,80
1.35,0.75,68
1.35,0.9,71
1.35,1.05,77
1.35,1.2,83
1.35,1.35,83
1.35,1.5,86
1.5,-1.5,94
1.5,-1.35,92
1.5,-1.2,88
1.5,-1.05,83
1.5,-0.9,75
1.5,-0.75,61
1.5,-0.6,39
1.5,-0.45,17
1.5,-0.3,69
1.5,-0.15,92
1.5,0.0,103
1.5,0.15,97
1.5,0.3,83
1.5,0.45,70
1.5,0.6,48
1.5,0.75,34
1.5,0.9,54
1.5,1.05,71
1.5,1.2,64
1.5,1.35,82
1.5,1.5,82
1.65,-1.5,81
1.65,-1.35,88
1.65,-1.2,90
1.65,-1.05,86
1.65,-0.9,82
1.65,-0.75,69
1.65,-0.6,60
1.65,-0.45,60
1.65,-0.3,72
1.65,-0.15,75
1.65,0.0,98
1.65,0.15,68
1.65,0.3,65
1.65,0.45,67
1.65,0.6,22
1.65,0.75,4
1.65,0.9,41
1.65,1.05,58
1.65,1.2,79
1.65,1.35,84
1.65,1.5,87
1.8,-1.5,72
1.8,-1.35,72
1.8,-1.2,72
1.8,-1.05,69
1.8,-0.9,79
1.8,-0.75,76
1.8,-0.6,71
1.8,-0.45,68
1.8,-0.3,72
1.8,-0.15,75
1.8,0.0,82
1.8,0.15,178
1.8,0.3,60
1.8,0.45,75
1.8,0.6,64
1.8,0.75,54
1.8,0.9,69
1.8,1.05,74
1.8,1.2,80
1.8,1.35,87
1.8,1.5,84
1.95,-1.5,95
1.95,-1.35,74
1.95,-1.2,76
1.95,-1.05,80
1.95,-0.9,87
1.95,-0.75,93
1.95,-0.6,89
1.95,-0.45,85
1.95,-0.3,78
1.95,-0.15,71
1.95,0.0,73
1.95,0.15,55
1.95,0.3,46
1.95,0.45,128
1.95,0.6,127
1.95,0.75,102
1.95,0.9,89
1.95,1.05,87
1.95,1.2,100
1.95,1.35,91
1.95,1.5,92
2.1,-1.5,99
2.1,-1.35,99
2.1,-1.2,100
2.1,-1.05,86
2.1,-0.9,99
2.1,-0.75,126
2.1,-0.6,137
2.1,-0.45,89
2.1,-0.3,63
2.1,-0.15,60
2.1,0.0,66
2.1,0.15,66
2.1,0.3,131
2.1,0.45,255
2.1,0.6,170
2.1,0.75,139
2.1,0.9,121
2.1,1.05,113
2.1,1.2,95
2.1,1.35,93
2.1,1.5,93
2.25,-1.5,99
2.25,-1.35,99
2.25,-1.2,101
2.25,-1.05,103
2.25,-0.9,95
2.25,-0.75,117
2.25,-0.6,122
2.25,-0.45,75
2.25,-0.3,45
2.25,-0.15,32
2.25,0.0,62
2.25,0.15,91
2.25,0.3,132
2.25,0.45,160
2.25,0.6,155
2.25,0.75,144
2.25,0.9,124
2.25,1.05,114
2.25,1.2,111
2.25,1.35,97
2.25,1.5,92
2.4,-1.5,108
2.4,-1.35,104
2.4,-1.2,113
2.4,-1.05,109
2.4,-0.9,104
2.4,-0.75,101
2.4,-0.6,76
2.4,-0.45,63
2.4,-0.3,37
2.4,-0.15,13
2.4,0.0,61
2.4,0.15,98
2.4,0.3,104
2.4,0.45,109
2.4,0.6,140
2.4,0.75,127
2.4,0.9,92
2.4,1.05,87
2.4,1.2,90
2.4,1.35,90
2.4,1.5,94
2.55,-1.5,143
2.55,-1.35,137
2.55,-1.2,136
2.55,-1.05,111
2.55,-0.9,108
2.55,-0.75,105
2.55,-0.6,67
2.55,-0.45,72
2.55,-0.3,48
2.55,-0.15,45
2.55,0.0,30
2.55,0.15,65
2.55,0.3,109
2.55,0.45,35
2.55,0.6,240
2.55,0.75,93
2.55,0.9,34
2.55,1.05,60
2.55,1.2,90
2.55,1.35,103
2.55,1.5,103
2.7,-1.5,146
2.7,-1.35,153
2.7,-1.2,148
2.7,-1.05,148
2.7,-0.9,146
2.7,-0.75,118
2.7,-0.6,100
2.7,-0.45,75
2.7,-0.3,133
2.7,-0.15,48
2.7,0.0,30
2.7,0.15,40
2.7,0.3,44
2.7,0.45,85
2.7,0.6,118
2.7,0.75,74
2.7,0.9,15
2.7,1.05,57
2.7,1.2,76
2.7,1.35,83
2.7,1.5,71
2.85,-1.5,152
2.85,-1.35,155
2.85,-1.2,159
2.85,-1.05,163
2.85,-0.9,167
2.85,-0.75,163
2.85,-0.6,160
2.85,-0.45,104
2.85,-0.3,47
2.85,-0.15,33
2.85,0.0,37
2.85,0.15,35
2.85,0.3,78
2.85,0.45,80
2.85,0.6,93
2.85,0.75,80
2.85,0.9,73
2.85,1.05,61
2.85,1.2,65
2.85,1.35,68
2.85,1.5,70
3.0,-1.5,152
3.0,-1.35,175
3.0,-1.2,175
3.0,-1.05,159
3.0,-0.9,173
3.0,-0.75,197
3.0,-0.6,255
3.0,-0.45,178
3.0,-0.3,89
3.0,-0.15,60
3.0,0.0,85
3.0,0.15,94
3.0,0.3,99
3.0,0.45,162
3.0,0.6,126
3.0,0.75,87
3.0,0.9,83
3.0,1.05,87
3.0,1.2,90
3.0,1.35,93
3.0,1.5,96
3.15,-1.5,177
3.15,-1.35,164
3.15,-1.2,169
3.15,-1.05,173
3.15,-0.9,189
3.15,-0.75,214
3.15,-0.6,255
3.15,-0.45,255
3.15,-0.3,81
3.15,-0.15,77
3.15,0.0,138
3.15,0.15,114
3.15,0.3,112
3.15,0.45,163
3.15,0.6,113
3.15,0.75,18
3.15,0.9,85
3.15,1.05,95
3.15,1.2,105
3.15,1.35,90
3.15,1.5,106
3.3,-1.5,187
3.3,-1.35,185
3.3,-1.2,169
3.3,-1.05,158
3.3,-0.9,166
3.3,-0.75,174
3.3,-0.6,194
3.3,-0.45,207
3.3,-0.3,107
3.3,-0.15,69
3.3,0.0,78
3.3,0.15,63
3.3,0.3,49
3.3,0.45,255
3.3,0.6,114
3.3,0.75,102
3.3,0.9,110
3.3,1.05,102
3.3,1.2,97
3.3,1.35,112
3.3,1.5,109
3.45,-1.5,127
3.45,-1.35,176
3.45,-1.2,170
3.45,-1.05,161
3.45,-0.9,136
3.45,-0.75,118
3.45,-0.6,122
3.45,-0.45,147
3.45,-0.3,42
3.45,-0.15,110
3.45,0.0,87
3.45,0.15,52
3.45,0.3,71
3.45,0.45,53
3.45,0.6,164
3.45,0.75,163
3.45,0.9,121
3.45,1.05,76
3.45,1.2,108
3.45,1.35,125
3.45,1.5,124
3.6,-1.5,118
3.6,-1.35,98
3.6,-1.2,94
3.6,-1.05,109
3.6,-0.9,90
3.6,-0.75,54
3.6,-0.6,44
3.6,-0.45,89
3.6,-0.3,89
3.6,-0.15,149
3.6,0.0,116
3.6,0.15,79
3.6,0.3,164
3.6,0.45,152
3.6,0.6,233
3.6,0.75,189
3.6,0.9,151
3.6,1.05,107
3.6,1.2,111
3.6,1.35,115
3.6,1.5,117
3.75,-1.5,123
3.75,-1.35,123
3.75,-1.2,121
3.75,-1.05,102
3.75,-0.9,90
3.75,-0.75,29
3.75,-0.6,39
3.75,-0.45,69
3.75,-0.3,136
3.75,-0.15,50
3.75,0.0,99
3.75,0.15,122
3.75,0.3,177
3.75,0.45,187
3.75,0.6,248
3.75,0.75,209
3.75,0.9,195
3.75,1.05,178
3.75,1.2,172
3.75,1.35,168
3.75,1.5,141
3.9,-1.5,176
3.9,-1.35,174
3.9,-1.2,171
3.9,-1.05,149
3.9,-0.9,140
3.9,-0.75,130
3.9,-0.6,93
3.9,-0.45,5
3.9,-0.3,35
3.9,-0.15,28
3.9,0.0,73
3.9,0.15,134
3.9,0.3,113
3.9,0.45,255
3.9,0.6,193
3.9,0.75,193
3.9,0.9,181
3.9,1.05,173
3.9,1.2,173
3.9,1.35,147
3.9,1.5,145
4.05,-1.5,177
4.05,-1.35,184
4.05,-1.2,187
4.05,-1.05,195
4.05,-0.9,219
4.05,-0.75,231
4.05,-0.6,83
4.05,-0.45,66
4.05,-0.3,19
4.05,-0.15,23
4.05,0.0,213
4.05,0.15,46
4.05,0.3,227
4.05,0.45,185
4.05,0.6,190
4.05,0.75,103
4.05,0.9,111
4.05,1.05,121
4.05,1.2,126
4.05,1.35,95
4.05,1.5,120
4.2,-1.5,183
4.2,-1.35,187
4.2,-1.2,194
4.2,-1.05,210
4.2,-0.9,231
4.2,-0.75,167
4.2,-0.6,248
4.2,-0.45,28
4.2,-0.3,67
4.2,-0.15,106
4.2,0.0,23
4.2,0.15,55
4.2,0.3,183
4.2,0.45,104
4.2,0.6,138
4.2,0.75,57
4.2,0.9,76
4.2,1.05,78
4.2,1.2,87
4.2,1.35,87
4.2,1.5,88
4.35,-1.5,185
4.35,-1.35,187
4.35,-1.2,190
4.35,-1.05,198
4.35,-0.9,198
4.35,-0.75,206
4.35,-0.6,255
4.35,-0.45,16
4.35,-0.3,73
4.35,-0.15,39
4.35,0.0,68
4.35,0.15,62
4.35,0.3,63
4.35,0.45,149
4.35,0.6,90
4.35,0.75,72
4.35,0.9,75
4.35,1.05,77
4.35,1.2,79
4.35,1.35,85
4.35,1.5,86
4.5,-1.5,154
4.5,-1.35,153
4.5,-1.2,159
4.5,-1.05,135
4.5,-0.9,139
4.5,-0.75,130
4.5,-0.6,92
4.5,-0.45,151
4.5,-0.3,71
4.5,-0.15,191
4.5,0.0,68
4.5,0.15,60
4.5,0.3,54
4.5,0.45,62
4.5,0.6,66
4.5,0.75,47
4.5,0.9,66
4.5,1.05,67
4.5,1.2,67
4.5,1.35,83
4.5,1.5,84
4.65,-1.5,116
4.65,-1.35,112
4.65,-1.2,120
4.65,-1.05,98
4.65,-0.9,76
4.65,-0.75,78
4.65,-0.6,59
4.65,-0.45,57
4.65,-0.3,255
4.65,-0.15,75
4.65,0.0,105
4.65,0.15,127
4.65,0.3,22
4.65,0.45,22
4.65,0.6,16
4.65,0.75,52
4.65,0.9,72
4.65,1.05,71
4.65,1.2,67
4.65,1.35,67
4.65,1.5,67
4.8,-1.5,44
4.8,-1.35,42
4.8,-1.2,38
4.8,-1.05,28
4.8,-0.9,0
4.8,-0.75,47
4.8,-0.6,116
4.8,-0.45,51
4.8,-0.3,2
4.8,-0.15,121
4.8,0.0,60
4.8,0.15,36
4.8,0.3,174
4.8,0.45,80
4.8,0.6,52
4.8,0.75,81
4.8,0.9,116
4.8,1.05,77
4.8,1.2,67
4.8,1.35,76
4.8,1.5,76
4.95,-1.5,38
4.95,-1.35,38
4.95,-1.2,45
4.95,-1.05,43
4.95,-0.9,47
4.95,-0.75,46
4.95,-0.6,43
4.95,-0.45,125
4.95,-0.3,148
4.95,-0.15,5
4.95,0.0,54
4.95,0.15,78
4.95,0.3,88
4.95,0.45,109
4.95,0.6,56
4.95,0.75,86
4.95,0.9,96
4.95,1.05,99
4.95,1.2,100
4.95,1.35,101
4.95,1.5,110
5.1,-1.5,50
5.1,-1.35,49
5.1,-1.2,38
5.1,-1.05,41
5.1,-0.9,53
5.1,-0.75,43
5.1,-0.6,23
5.1,-0.45,61
5.1,-0.3,60
5.1,-0.15,35
5.1,0.0,73
5.1,0.15,92
5.1,0.3,13
5.1,0.45,241
5.1,0.6,204
5.1,0.75,103
5.1,0.9,110
5.1,1.05,119
5.1,1.2,117
5.1,1.35,117
5.1,1.5,116
5.25,-1.5,69
5.25,-1.35,67
5.25,-1.2,57
5.25,-1.05,56
5.25,-0.9,51
5.25,-0.75,25
5.25,-0.6,55
5.25,-0.45,107
5.25,-0.3,216
5.25,-0.15,30
5.25,0.0,80
5.25,0.15,52
5.25,0.3,133
5.25,0.45,111
5.25,0.6,168
5.25,0.75,157
5.25,0.9,145
5.25,1.05,146
5.25,1.2,142
5.25,1.35,142
5.25,1.5,142
5.4,-1.5,75
5.4,-1.35,75
5.4,-1.2,75
5.4,-1.05,73
5.4,-0.9,66
5.4,-0.75,60
5.4,-0.6,61
5.4,-0.45,189
5.4,-0.3,62
5.4,-0.15,114
5.4,0.0,18
5.4,0.15,6
5.4,0.3,74
5.4,0.45,66
5.4,0.6,81
5.4,0.75,255
5.4,0.9,184
5.4,1.05,144
5.4,1.2,141
5.4,1.35,141
5.4,1.5,138
5.55,-1.5,89
5.55,-1.35,91
5.55,-1.2,94
5.55,-1.05,109
5.55,-0.9,121
5.55,-0.75,114
5.55,-0.6,93
5.55,-0.45,133
5.55,-0.3,155
5.55,-0.15,70
5.55,0.0,20
5.55,0.15,98
5.55,0.3,69
5.55,0.45,48
5.55,0.6,26
5.55,0.75,87
5.55,0.9,127
5.55,1.05,120
5.55,1.2,131
5.55,1.35,126
5.55,1.5,103
5.7,-1.5,114
5.7,-1.35,131
5.7,-1.2,133
5.7,-1.05,137
5.7,-0.9,152
5.7,-0.75,206
5.7,-0.6,173
5.7,-0.45,115
5.7,-0.3,146
5.7,-0.15,57
5.7,0.0,28
5.7,0.15,85
5.7,0.3,255
5.7,0.45,60
5.7,0.6,22
5.7,0.75,188
5.7,0.9,153
5.7,1.05,121
5.7,1.2,109
5.7,1.35,102
5.7,1.5,97
5.85,-1.5,130
5.85,-1.35,112
5.85,-1.2,127
5.85,-1.05,131
5.85,-0.9,124
5.85,-0.75,85
5.85,-0.6,102
5.85,-0.45,29
5.85,-0.3,181
5.85,-0.15,60
5.85,0.0,83
5.85,0.15,141
5.85,0.3,71
5.85,0.45,70
5.85,0.6,74
5.85,0.75,142
5.85,0.9,143
5.85,1.05,113
5.85,1.2,102
5.85,1.35,97
5.85,1.5,94
6.0,-1.5,114
6.0,-1.35,110
6.0,-1.2,110
6.0,-1.05,105
6.0,-0.9,103
6.0,-0.75,107
6.0,-0.6,83
6.0,-0.45,138
6.0,-0.3,67
6.0,-0.15,225
6.0,0.0,59
6.0,0.15,181
6.0,0.3,124
6.0,0.45,32
6.0,0.6,53
6.0,0.75,65
6.0,0.9,78
6.0,1.05,78
6.0,1.2,92
6.0,1.35,90
6.0,1.5,90
6.15,-1.5,114
6.15,-1.35,114
6.15,-1.2,94
6.15,-1.05,82
6.15,-0.9,70
6.15,-0.75,58
6.15,-0.6,15
6.15,-0.45,57
6.15,-0.3,68
6.15,-0.15,44
6.15,0.0,70
6.15,0.15,150
6.15,0.3,112
6.15,0.45,57
6.15,0.6,4
6.15,0.75,35
6.15,0.9,73
6.15,1.05,85
6.15,1.2,92
6.15,1.35,90
6.15,1.5,90
6.3,-1.5,109
6.3,-1.35,96
6.3,-1.2,94
6.3,-1.05,88
6.3,-0.9,66
6.3,-0.75,65
6.3,-0.6,47
6.3,-0.45,101
6.3,-0.3,112
6.3,-0.15,98
6.3,0.0,51
6.3,0.15,129
6.3,0.3,178
6.3,0.45,63
6.3,0.6,57
6.3,0.75,61
6.3,0.9,67
6.3,1.05,86
6.3,1.2,90
6.3,1.35,92
6.3,1.5,92
6.45,-1.5,120
6.45,-1.35,120
6.45,-1.2,120
6.45,-1.05,102
6.45,-0.9,92
6.45,-0.75,77
6.45,-0.6,73
6.45,-0.45,98
6.45,-0.3,23
6.45,-0.15,142
6.45,0.0,160
6.45,0.15,152
6.45,0.3,152
6.45,0.45,111
6.45,0.6,125
6.45,0.75,98
6.45,0.9,89
6.45,1.05,81
6.45,1.2,81
6.45,1.35,92
6.45,1.5,92
6.6,-1.5,142
6.6,-1.35,131
6.6,-1.2,136
6.6,-1.05,142
6.6,-0.9,137
6.6,-0.75,97
6.6,-0.6,69
6.6,-0.45,59
6.6,-0.3,97
6.6,-0.15,87
6.6,0.0,90
6.6,0.15,85
6.6,0.3,98
6.6,0.45,81
6.6,0.6,127
6.6,0.75,112
6.6,0.9,93
6.6,1.05,87
6.6,1.2,84
6.6,1.35,81
6.6,1.5,81
6.75,-1.5,138
6.75,-1.35,149
6.75,-1.2,164
6.75,-1.05,187
6.75,-0.9,246
6.75,-0.75,169
6.75,-0.6,152
6.75,-0.45,74
6.75,-0.3,33
6.75,-0.15,105
6.75,0.0,81
6.75,0.15,191
6.75,0.3,98
6.75,0.45,119
6.75,0.6,102
6.75,0.75,100
6.75,0.9,100
6.75,1.05,100
6.75,1.2,94
6.75,1.35,81
6.75,1.5,81
6.9,-1.5,138
6.9,-1.35,145
6.9,-1.2,156
6.9,-1.05,180
6.9,-0.9,229
6.9,-0.75,186
6.9,-0.6,175
6.9,-0.45,107
6.9,-0.3,72
6.9,-0.15,71
6.9,0.0,71
6.9,0.15,76
6.9,0.3,69
6.9,0.45,63
6.9,0.6,71
6.9,0.75,86
6.9,0.9,87
6.9,1.05,90
6.9,1.2,100
6.9,1.35,100
6.9,1.5,100
7.05,-1.5,138
7.05,-1.35,141
7.05,-1.2,147
7.05,-1.05,154
7.05,-0.9,159
7.05,-0.75,137
7.05,-0.6,130
7.05,-0.45,118
7.05,-0.3,83
7.05,-0.15,143
7.05,0.0,107
7.05,0.15,66
7.05,0.3,46
7.05,0.45,66
7.05,0.6,65
7.05,0.75,81
7.05,0.9,96
7.05,1.05,100
7.05,1.2,93
7.05,1.35,95
7.05,1.5,96
7.2,-1.5,138
7.2,-1.35,139
7.2,-1.2,141
7.2,-1.05,148
7.2,-0.9,150
7.2,-0.75,189
7.2,-0.6,95
7.2,-0.45,116
7.2,-0.3,158
7.2,-0.15,100
7.2,0.0,3
7.2,0.15,66
7.2,0.3,85
7.2,0.45,126
7.2,0.6,97
7.2,0.75,95
7.2,0.9,94
7.2,1.05,100
7.2,1.2,103
7.2,1.35,103
7.2,1.5,103
7.35,-1.5,138
7.35,-1.35,138
7.35,-1.2,133
7.35,-1.05,139
7.35,-0.9,136
7.35,-0.75,108
7.35,-0.6,26
7.35,-0.45,92
7.35,-0.3,72
7.35,-0.15,148
7.35,0.0,66
7.35,0.15,83
7.35,0.3,255
7.35,0.45,149
7.35,0.6,116
7.35,0.75,103
7.35,0.9,102
7.35,1.05,100
7.35,1.2,103
7.35,1.35,103
7.35,1.5,103
7.5,-1.5,137
7.5,-1.35,135
7.5,-1.2,129
7.5,-1.05,118
7.5,-0.9,105
7.5,-0.75,91
7.5,-0.6,108
7.5,-0.45,101
7.5,-0.3,85
7.5,-0.15,124
7.5,0.0,121
7.5,0.15,112
7.5,0.3,130
7.5,0.45,96
7.5,0.6,118
7.5,0.75,112
7.5,0.9,102
7.5,1.05,103
7.5,1.2,101
7.5,1.35,101
7.5,1.5,103
7.65,-1.5,128
7.65,-1.35,127
7.65,-1.2,124
7.65,-1.05,107
7.65,-0.9,107
7.65,-0.75,103
7.65,-0.6,115
7.65,-0.45,105
7.65,-0.3,57
7.65,-0.15,77
7.65,0.0,99
7.65,0.15,78
7.65,0.3,120
7.65,0.45,136
7.65,0.6,138
7.65,0.75,115
7.65,0.9,113
7.65,1.05,105
7.65,1.2,103
7.65,1.35,102
7.65,1.5,101
7.8,-1.5,126
7.8,-1.35,106
7.8,-1.2,106
7.8,-1.05,103
7.8,-0.9,103
7.8,-0.75,103
7.8,-0.6,115
7.8,-0.45,110
7.8,-0.3,124
7.8,-0.15,128
7.8,0.0,126
7.8,0.15,134
7.8,0.3,141
7.8,0.45,146
7.8,0.6,151
7.8,0.75,150
7.8,0.9,141
7.8,1.05,139
7.8,1.2,137
7.8,1.35,135
7.8,1.5,129
7.95,-1.5,110
7.95,-1.35,105
7.95,-1.2,103
7.95,-1.05,103
7.95,-0.9,103
7.95,-0.75,106
7.95,-0.6,112
7.95,-0.45,138
7.95,-0.3,124
7.95,-0.15,255
7.95,0.0,211
7.95,0.15,255
7.95,0.3,181
7.95,0.45,140
7.95,0.6,151
7.95,0.75,151
7.95,0.9,151
7.95,1.05,147
7.95,1.2,140
7.95,1.35,139
7.95,1.5,137
8.1,-1.5,119
8.1,-1.35,104
8.1,-1.2,103
8.1,-1.05,103
8.1,-0.9,103
8.1,-0.75,103
8.1,-0.6,81
8.1,-0.45,131
8.1,-0.3,123
8.1,-0.15,95
8.1,0.0,93
8.1,0.15,181
8.1,0.3,170
8.1,0.45,142
8.1,0.6,134
8.1,0.75,130
8.1,0.9,150
8.1,1.05,151
8.1,1.2,157
8.1,1.35,157
8.1,1.5,145
8.25,-1.5,104
8.25,-1.35,103
8.25,-1.2,107
8.25,-1.05,109
8.25,-0.9,105
8.25,-0.75,105
8.25,-0.6,101
8.25,-0.45,104
8.25,-0.3,85
8.25,-0.15,104
8.25,0.0,88
8.25,0.15,124
8.25,0.3,142
8.25,0.45,146
8.25,0.6,127
8.25,0.75,127
8.25,0.9,127
8.25,1.05,149
8.25,1.2,149
8.25,1.35,156
8.25,1.5,156
8.4,-1.5,92
8.4,-1.35,113
8.4,-1.2,111
8.4,-1.05,110
8.4,-0.9,103
8.4,-0.75,105
8.4,-0.6,94
8.4,-0.45,92
8.4,-0.3,89
8.4,-0.15,79
8.4,0.0,104
8.4,0.15,110
8.4,0.3,121
8.4,0.45,126
8.4,0.6,128
8.4,0.75,128
8.4,0.9,128
8.4,1.05,127
8.4,1.2,126
8.4,1.35,148
8.4,1.5,149
8.55,-1.5,113
8.55,-1.35,102
8.55,-1.2,102
8.55,-1.05,98
8.55,-0.9,101
8.55,-0.75,97
8.55,-0.6,99
8.55,-0.45,102
8.55,-0.3,109
8.55,-0.15,117
8.55,0.0,114
8.55,0.15,115
8.55,0.3,120
8.55,0.45,123
8.55,0.6,126
8.55,0.75,127
8.55,0.9,127
8.55,1.05,127
8.55,1.2,126
8.55,1.35,126
8.55,1.5,125
8.7,-1.5,103
8.7,-1.35,97
8.7,-1.2,98
8.7,-1.05,102
8.7,-0.9,102
8.7,-0.75,99
8.7,-0.6,101
8.7,-0.45,106
8.7,-0.3,120
8.7,-0.15,144
8.7,0.0,128
8.7,0.15,121
8.7,0.3,121
8.7,0.45,122
8.7,0.6,124
8.7,0.75,125
8.7,0.9,126
8.7,1.05,126
8.7,1.2,126
8.7,1.35,126
8.7,1.5,125
8.85,-1.5,97
8.85,-1.35,97
8.85,-1.2,102
8.85,-1.05,98
8.85,-0.9,99
8.85,-0.75,100
8.85,-0.6,101
8.85,-0.45,101
8.85,-0.3,97
8.85,-0.15,130
8.85,0.0,136
8.85,0.15,125
8.85,0.3,122
8.85,0.45,122
8.85,0.6,123
8.85,0.75,124
8.85,0.9,125
8.85,1.05,125
8.85,1.2,125
8.85,1.35,125
8.85,1.5,125
9.0,-1.5,97
9.0,-1.35,97
9.0,-1.2,97
9.0,-1.05,98
9.0,-0.9,98
9.0,-0.75,99
9.0,-0.6,99
9.0,-0.45,95
9.0,-0.3,80
9.0,-0.15,108
9.0,0.0,126
9.0,0.15,125
9.0,0.3,122
9.0,0.45,122
9.0,0.6,122
9.0,0.75,123
9.0,0.9,124
9.0,1.05,124
9.0,1.2,125
9.0,1.35,125
9.0,1.5,125
9.15,-1.5,96
9.15,-1.35,96
9.15,-1.2,96
9.15,-1.05,96
9.15,-0.9,97
9.15,-0.75,97
9.15,-0.6,98
9.15,-0.45,97
9.15,-0.3,95
9.15,-0.15,103
9.15,0.0,111
9.15,0.15,121
9.15,0.3,121
9.15,0.45,121
9.15,0.6,122
9.15,0.75,122
9.15,0.9,123
9.15,1.05,124
9.15,1.2,124
9.15,1.35,124
9.15,1.5,125
9.3,-1.5,95
9.3,-1.35,95
9.3,-1.2,95
9.3,-1.05,94
9.3,-0.9,94
9.3,-0.75,94
9.3,-0.6,95
9.3,-0.45,97
9.3,-0.3,97
9.3,-0.15,101
9.3,0.0,104
9.3,0.15,117
9.3,0.3,119
9.3,0.45,120
9.3,0.6,121
9.3,0.75,121
9.3,0.9,122
9.3,1.05,123
9.3,1.2,123
9.3,1.35,124
9.3,1.5,124
9.45,-1.5,94
9.45,-1.35,94
9.45,-1.2,93
9.45,-1.05,91
9.45,-0.9,89
9.45,-0.75,88
9.45,-0.6,88
9.45,-0.45,92
9.45,-0.3,94
9.45,-0.15,98
9.45,0.0,100
9.45,0.15,115
9.45,0.3,117
9.45,0.45,118
9.45,0.6,119
9.45,0.75,120
9.45,0.9,121
9.45,1.05,122
9.45,1.2,123
9.45,1.35,123
9.45,1.5,124
9.6,-1.5,94
9.6,-1.35,92
9.6,-1.2,91
9.6,-1.05,88
9.6,-0.9,84
9.6,-0.75,80
9.6,-0.6,79
9.6,-0.45,83
9.6,-0.3,88
9.6,-0.15,93
9.6,0.0,96
9.6,0.15,113
9.6,0.3,115
9.6,0.45,117
9.6,0.6,118
9.6,0.75,119
9.6,0.9,120
9.6,1.05,121
9.6,1.2,122
9.6,1.35,122
9.6,1.5,123
9.75,-1.5,93
9.75,-1.35,91
9.75,-1.2,89
9.75,-1.05,86
9.75,-0.9,81
9.75,-0.75,75
9.75,-0.6,73
9.75,-0.45,78
9.75,-0.3,84
9.75,-0.15,90
9.75,0.0,94
9.75,0.15,111
9.75,0.3,113
9.75,0.45,115
9.75,0.6,117
9.75,0.75,118
9.75,0.9,119
9.75,1.05,120
9.75,1.2,121
9.75,1.35,122
9.75,1.5,122
9.9,-1.5,92
9.9,-1.35,91
9.9,-1.2,88
9.9,-1.05,85
9.9,-0.9,81
9.9,-0.75,76
9.9,-0.6,74
9.9,-0.45,78
9.9,-0.3,83
9.9,-0.15,88
9.9,0.0,92
9.9,0.15,94
9.9,0.3,112
9.9,0.45,114
9.9,0.6,116
9.9,0.75,117
9.9,0.9,119
9.9,1.05,119
9.9,1.2,120
9.9,1.35,121
9.9,1.5,122
10.05,-1.5,92
10.05,-1.35,91
10.05,-1.2,89
10.05,-1.05,86
10.05,-0.9,83
10.05,-0.75,80
10.05,-0.6,79
10.05,-0.45,82
10.05,-0.3,84
10.05,-0.15,88
10.05,0.0,91
10.05,0.15,93
10.05,0.3,111
10.05,0.45,114
10.05,0.6,115
10.05,0.75,117
10.05,0.9,118
10.05,1.05,119
10.05,1.2,120
10.05,1.35,120
10.05,1.5,121
10.2,-1.5,92
10.2,-1.35,91
10.2,-1.2,89
10.2,-1.05,87
10.2,-0.9,85
10.2,-0.75,84
10.2,-0.6,84
10.2,-0.45,85
10.2,-0.3,86
10.2,-0.15,88
10.2,0.0,90
10.2,0.15,92
10.2,0.3,111
10.2,0.45,113
10.2,0.6,115
10.2,0.75,116
10.2,0.9,117
10.2,1.05,118
10.2,1.2,119
10.2,1.35,120
10.2,1.5,120
10.35,-1.5,89
10.35,-1.35,91
10.35,-1.2,90
10.35,-1.05,89
10.35,-0.9,88
10.35,-0.75,87
10.35,-0.6,87
10.35,-0.45,88
10.35,-0.3,87
10.35,-0.15,89
10.35,0.0,90
10.35,0.15,92
10.35,0.3,111
10.35,0.45,113
10.35,0.6,114
10.35,0.75,116
10.35,0.9,117
10.35,1.05,118
10.35,1.2,114
10.35,1.35,114
10.35,1.5,114
10.5,-1.5,88
10.5,-1.35,88
10.5,-1.2,87
10.5,-1.05,87
10.5,-0.9,87
10.5,-0.75,88
10.5,-0.6,88
10.5,-0.45,88
10.5,-0.3,88
10.5,-0.15,89
10.5,0.0,91
10.5,0.15,92
10.5,0.3,111
10.5,0.45,113
10.5,0.6,114
10.5,0.75,111
10.5,0.9,112
10.5,1.05,112
10.5,1.2,112
10.5,1.35,112
10.5,1.5,112
10.65,-1.5,87
10.65,-1.35,87
10.65,-1.2,87
10.65,-1.05,87
10.65,-0.9,87
10.65,-0.75,87
10.65,-0.6,84
10.65,-0.45,85
10.65,-0.3,86
10.65,-0.15,90
10.65,0.0,91
10.65,0.15,92
10.65,0.3,88
10.65,0.45,108
10.65,0.6,109
10.65,0.75,109
10.65,0.9,110
10.65,1.05,110
10.65,1.2,110
10.65,1.35,109
10.65,1.5,109
10.8,-1.5,85
10.8,-1.35,85
10.8,-1.2,86
10.8,-1.05,86
10.8,-0.9,86
10.8,-0.75,87
10.8,-0.6,84
10.8,-0.45,85
10.8,-0.3,85
10.8,-0.15,86
10.8,0.0,83
10.8,0.15,83
10.8,0.3,87
10.8,0.45,107
10.8,0.6,107
10.8,0.75,107
10.8,0.9,107
10.8,1.05,107
10.8,1.2,107
10.8,1.35,106
10.8,1.5,106
10.95,-1.5,83
10.95,-1.35,84
10.95,-1.2,84
10.95,-1.05,84
10.95,-0.9,85
10.95,-0.75,86
10.95,-0.6,83
10.95,-0.45,80
10.95,-0.3,80
10.95,-0.15,80
10.95,0.0,81
10.95,0.15,81
10.95,0.3,81
10.95,0.45,80
10.95,0.6,80
10.95,0.75,79
10.95,0.9,104
10.95,1.05,104
10.95,1.2,104
10.95,1.35,103
10.95,1.5,102
11.1,-1.5,80
11.1,-1.35,81
11.1,-1.2,82
11.1,-1.05,82
11.1,-0.9,76
11.1,-0.75,76
11.1,-0.6,77
11.1,-0.45,77
11.1,-0.3,78
11.1,-0.15,78
11.1,0.0,78
11.1,0.15,78
11.1,0.3,78
11.1,0.45,77
11.1,0.6,77
11.1,0.75,76
11.1,0.9,75
11.1,1.05,74
11.1,1.2,95
11.1,1.35,99
11.1,1.5,98
11.25,-1.5,77
11.25,-1.35,70
11.25,-1.2,71
11.25,-1.05,71
11.25,-0.9,72
11.25,-0.75,73
11.25,-0.6,74
11.25,-0.45,74
11.25,-0.3,75
11.25,-0.15,75
11.25,0.0,75
11.25,0.15,75
11.25,0.3,74
11.25,0.45,74
11.25,0.6,73
11.25,0.75,72
11.25,0.9,71
11.25,1.05,70
11.25,1.2,69
11.25,1.35,89
11.25,1.5,88
11.4,-1.5,68
11.4,-1.35,65
11.4,-1.2,66
11.4,-1.05,67
11.4,-0.9,68
11.4,-0.75,69
11.4,-0.6,70
11.4,-0.45,71
11.4,-0.3,71
11.4,-0.15,71
11.4,0.0,71
11.4,0.15,71
11.4,0.3,71
11.4,0.45,70
11.4,0.6,69
11.4,0.75,68
11.4,0.9,67
11.4,1.05,66
11.4,1.2,64
11.4,1.35,83
11.4,1.5,82
11.55,-1.5,59
11.55,-1.35,60
11.55,-1.2,61
11.55,-1.05,62
11.55,-0.9,63
11.55,-0.75,65
11.55,-0.6,66
11.55,-0.45,66
11.55,-0.3,67
11.55,-0.15,67
11.55,0.0,68
11.55,0.15,67
11.55,0.3,67
11.55,0.45,66
11.55,0.6,65
11.55,0.75,63
11.55,0.9,62
11.55,1.05,60
11.55,1.2,59
11.55,1.35,58
11.55,1.5,75
11.7,-1.5,53
11.7,-1.35,54
11.7,-1.2,55
11.7,-1.05,56
11.7,-0.9,58
11.7,-0.75,59
11.7,-0.6,61
11.7,-0.45,62
11.7,-0.3,63
11.7,-0.15,63
11.7,0.0,63
11.7,0.15,63
11.7,0.3,62
11.7,0.45,61
11.7,0.6,60
11.7,0.75,58
11.7,0.9,56
11.7,1.05,54
11.7,1.2,52
11.7,1.35,51
11.7,1.5,66
11.85,-1.5,45
11.85,-1.35,46
11.85,-1.2,48
11.85,-1.05,50
11.85,-0.9,52
11.85,-0.75,54
11.85,-0.6,56
11.85,-0.45,57
11.85,-0.3,58
11.85,-0.15,59
11.85,0.0,59
11.85,0.15,59
11.85,0.3,58
11.85,0.45,56
11.85,0.6,54
11.85,0.75,52
11.85,0.9,50
11.85,1.05,48
11.85,1.2,45
11.85,1.35,44
11.85,1.5,57
12.0,-1.5,37
12.0,-1.35,38
12.0,-1.2,40
12.0,-1.05,42
12.0,-0.9,45
12.0,-0.75,48
12.0,-0.6,50
12.0,-0.45,52
12.0,-0.3,54
12.0,-0.15,55
12.0,0.0,55
12.0,0.15,54
12.0,0.3,53
12.0,0.45,51
12.0,0.6,49
12.0,0.75,46
12.0,0.9,43
12.0,1.05,40
12.0,1.2,38
12.0,1.35,36
12.0,1.5,35
12.15,-1.5,29
12.15,-1.35,30
12.15,-1.2,32
12.15,-1.05,35
12.15,-0.9,38
12.15,-0.75,41
12.15,-0.6,45
12.15,-0.45,47
12.15,-0.3,49
12.15,-0.15,50
12.15,0.0,50
12.15,0.15,50
12.15,0.3,48
12.15,0.45,46
12.15,0.6,43
12.15,0.75,40
12.15,0.9,36
12.15,1.05,33
12.15,1.2,30
12.15,1.35,28
12.15,1.5,26
12.3,-1.5,20
12.3,-1.35,21
12.3,-1.2,23
12.3,-1.05,27
12.3,-0.9,31
12.3,-0.75,35
12.3,-0.6,39
12.3,-0.45,42
12.3,-0.3,45
12.3,-0.15,46
12.3,0.0,46
12.3,0.15,46
12.3,0.3,44
12.3,0.45,41
12.3,0.6,38
12.3,0.75,34
12.3,0.9,30
12.3,1.05,25
12.3,1.2,22
12.3,1.35,19
12.3,1.5,18
12.45,-1.5,11
12.45,-1.35,13
12.45,-1.2,15
12.45,-1.05,20
12.45,-0.9,25
12.45,-0.75,29
12.45,-0.6,34
12.45,-0.45,38
12.45,-0.3,40
12.45,-0.15,42
12.45,0.0,43
12.45,0.15,42
12.45,0.3,40
12.45,0.45,37
12.45,0.6,33
12.45,0.75,28
12.45,0.9,23
12.45,1.05,18
12.45,1.2,14
12.45,1.35,11
12.45,1.5,10
12.6,-1.5,4
12.6,-1.35,5
12.6,-1.2,9
12.6,-1.05,13
12.6,-0.9,19
12.6,-0.75,24
12.6,-0.6,29
12.6,-0.45,34
12.6,-0.3,37
12.6,-0.15,39
12.6,0.0,39
12.6,0.15,38
12.6,0.3,36
12.6,0.45,33
12.6,0.6,29
12.6,0.75,23
12.6,0.9,18
12.6,1.05,12
12.6,1.2,8
12.6,1.35,5
12.6,1.5,4
12.75,-1.5,0
12.75,-1.35,0
12.75,-1.2,4
12.75,-1.05,9
12.75,-0.9,14
12.75,-0.75,20
12.75,-0.6,26
12.75,-0.45,30
12.75,-0.3,34
12.75,-0.15,36
12.75,0.0,36
12.75,0.15,36
12.75,0.3,33
12.75,0.45,30
12.75,0.6,25
12.75,0.75,20
12.75,0.9,14
12.75,1.05,8
12.75,1.2,3
12.75,1.35,0
12.75,1.5,0
12.9,-1.5,0
12.9,-1.35,0
12.9,-1.2,1
12.9,-1.05,6
12.9,-0.9,12
12.9,-0.75,18
12.9,-0.6,23
12.9,-0.45,28
12.9,-0.3,31
12.9,-0.15,33
12.9,0.0,34
12.9,0.15,33
12.9,0.3,31
12.9,0.45,27
12.9,0.6,23
12.9,0.75,17
12.9,0.9,11
12.9,1.05,5
12.9,1.2,1
12.9,1.35,0
12.9,1.5,0
13.05,-1.5,0
13.05,-1.35,0
13.05,-1.2,0
13.05,-1.05,5
13.05,-0.9,11
13.05,-0.75,16
13.05,-0.6,22
13.05,-0.45,26
13.05,-0.3,30
13.05,-0.15,32
13.05,0.0,32
13.05,0.15,32
13.05,0.3,29
13.05,0.45,26
13.05,0.6,21
13.05,0.75,16
13.05,0.9,10
13.05,1.05,4
13.05,1.2,0
13.05,1.35,0
13.05,1.5,0
