-3.0,-1.5,0
-3.0,-1.35,12
-3.0,-1.2,51
-3.0,-1.05,88
-3.0,-0.9,112
-3.0,-0.75,122
-3.0,-0.6,121
-3.0,-0.45,108
-3.0,-0.3,81
-3.0,-0.15,82
-3.0,0.0,134
-3.0,0.15,155
-3.0,0.3,153
-3.0,0.45,146
-3.0,0.6,138
-3.0,0.75,129
-3.0,0.9,113
-3.0,1.05,86
-3.0,1.2,48
-3.0,1.35,11
-3.0,1.5,0
-2.85,-1.5,11
-2.85,-1.35,27
-2.85,-1.2,64
-2.85,-1.05,98
-2.85,-0.9,119
-2.85,-0.75,128
-2.85,-0.6,128
-2.85,-0.45,116
-2.85,-0.3,89
-2.85,-0.15,101
-2.85,0.0,180
-2.85,0.15,186
-2.85,0.3,159
-2.85,0.45,145
-2.85,0.6,139
-2.85,0.75,132
-2.85,0.9,118
-2.85,1.05,95
-2.85,1.2,60
-2.85,1.35,25
-2.85,1.5,10
-2.7,-1.5,46
-2.7,-1.35,60
-2.7,-1.2,86
-2.7,-1.05,113
-2.7,-0.9,129
-2.7,-0.75,137
-2.7,-0.6,138
-2.7,-0.45,135
-2.7,-0.3,135
-2.7,-0.15,166
-2.7,0.0,255
-2.7,0.15,213
-2.7,0.3,145
-2.7,0.45,136
-2.7,0.6,137
-2.7,0.75,134
-2.7,0.9,125
-2.7,1.05,108
-2.7,1.2,82
-2.7,1.35,56
-2.7,1.5,42
-2.55,-1.5,80
-2.55,-1.35,92
-2.55,-1.2,108
-2.55,-1.05,128
-2.55,-0.9,139
-2.55,-0.75,146
-2.55,-0.6,149
-2.55,-0.45,149
-2.55,-0.3,149
-2.55,-0.15,154
-2.55,0.0,168
-2.55,0.15,113
-2.55,0.3,95
-2.55,0.45,124
-2.55,0.6,135
-2.55,0.75,136
-2.55,0.9,131
-2.55,1.05,120
-2.55,1.2,104
-2.55,1.35,86
-2.55,1.5,74
-2.4,-1.5,102
-2.4,-1.35,117
-2.4,-1.2,129
-2.4,-1.05,140
-2.4,-0.9,148
-2.4,-0.75,154
-2.4,-0.6,158
-2.4,-0.45,171
-2.4,-0.3,153
-2.4,-0.15,131
-2.4,0.0,86
-2.4,0.15,91
-2.4,0.3,101
-2.4,0.45,126
-2.4,0.6,137
-2.4,0.75,140
-2.4,0.9,138
-2.4,1.05,130
-2.4,1.2,120
-2.4,1.35,108
-2.4,1.5,99
-2.25,-1.5,114
-2.25,-1.35,124
-2.25,-1.2,133
-2.25,-1.05,147
-2.25,-0.9,154
-2.25,-0.75,159
-2.25,-0.6,178
-2.25,-0.45,185
-2.25,-0.3,172
-2.25,-0.15,158
-2.25,0.0,125
-2.25,0.15,105
-2.25,0.3,132
-2.25,0.45,142
-2.25,0.6,147
-2.25,0.75,146
-2.25,0.9,144
-2.25,1.05,139
-2.25,1.2,131
-2.25,1.35,123
-2.25,1.5,111
-2.1,-1.5,114
-2.1,-1.35,118
-2.1,-1.2,125
-2.1,-1.05,132
-2.1,-0.9,144
-2.1,-0.75,170
-2.1,-0.6,172
-2.1,-0.45,201
-2.1,-0.3,213
-2.1,-0.15,218
-2.1,0.0,255
-2.1,0.15,164
-2.1,0.3,160
-2.1,0.45,158
-2.1,0.6,158
-2.1,0.75,155
-2.1,0.9,152
-2.1,1.05,148
-2.1,1.2,143
-2.1,1.35,127
-2.1,1.5,121
-1.95,-1.5,114
-1.95,-1.35,120
-1.95,-1.2,127
-1.95,-1.05,148
-1.95,-0.9,154
-1.95,-0.75,148
-1.95,-0.6,135
-1.95,-0.45,183
-1.95,-0.3,238
-1.95,-0.15,219
-1.95,0.0,255
-1.95,0.15,225
-1.95,0.3,178
-1.95,0.45,168
-1.95,0.6,160
-1.95,0.75,158
-1.95,0.9,156
-1.95,1.05,152
-1.95,1.2,138
-1.95,1.35,133
-1.95,1.5,128
-1.8,-1.5,111
-1.8,-1.35,117
-1.8,-1.2,125
-1.8,-1.05,149
-1.8,-0.9,151
-1.8,-0.75,136
-1.8,-0.6,107
-1.8,-0.45,101
-1.8,-0.3,172
-1.8,-0.15,186
-1.8,0.0,189
-1.8,0.15,169
-1.8,0.3,159
-1.8,0.45,155
-1.8,0.6,159
-1.8,0.75,158
-1.8,0.9,157
-1.8,1.05,144
-1.8,1.2,140
-1.8,1.35,136
-1.8,1.5,132
-1.65,-1.5,100
-1.65,-1.35,104
-1.65,-1.2,132
-1.65,-1.05,147
-1.65,-0.9,161
-1.65,-0.75,152
-1.65,-0.6,32
-1.65,-0.45,100
-1.65,-0.3,150
-1.65,-0.15,171
-1.65,0.0,182
-1.65,0.15,94
-1.65,0.3,131
-1.65,0.45,146
-1.65,0.6,145
-1.65,0.75,134
-1.65,0.9,131
-1.65,1.05,128
-1.65,1.2,125
-1.65,1.35,121
-1.65,1.5,121
-1.5,-1.5,89
-1.5,-1.35,98
-1.5,-1.2,113
-1.5,-1.05,138
-1.5,-0.9,166
-1.5,-0.75,234
-1.5,-0.6,255
-1.5,-0.45,184
-1.5,-0.3,139
-1.5,-0.15,149
-1.5,0.0,128
-1.5,0.15,129
-1.5,0.3,129
-1.5,0.45,137
-1.5,0.6,131
-1.5,0.75,129
-1.5,0.9,127
-1.5,1.05,125
-1.5,1.2,123
-1.5,1.35,121
-1.5,1.5,121
-1.35,-1.5,80
-1.35,-1.35,72
-1.35,-1.2,89
-1.35,-1.05,118
-1.35,-0.9,147
-1.35,-0.75,194
-1.35,-0.6,228
-1.35,-0.45,147
-1.35,-0.3,69
-1.35,-0.15,75
-1.35,0.0,130
-1.35,0.15,144
-1.35,0.3,134
-1.35,0.45,127
-1.35,0.6,126
-1.35,0.75,125
-1.35,0.9,124
-1.35,1.05,123
-1.35,1.2,122
-1.35,1.35,122
-1.35,1.5,121
-1.2,-1.5,77
-1.2,-1.35,68
-1.2,-1.2,85
-1.2,-1.05,106
-1.2,-0.9,116
-1.2,-0.75,108
-1.2,-0.6,78
-1.2,-0.45,70
-1.2,-0.3,43
-1.2,-0.15,44
-1.2,0.0,112
-1.2,0.15,112
-1.2,0.3,111
-1.2,0.45,108
-1.2,0.6,105
-1.2,0.75,106
-1.2,0.9,105
-1.2,1.05,104
-1.2,1.2,116
-1.2,1.35,117
-1.2,1.5,118
-1.05,-1.5,84
-1.05,-1.35,83
-1.05,-1.2,90
-1.05,-1.05,98
-1.05,-0.9,97
-1.05,-0.75,76
-1.05,-0.6,19
-1.05,-0.45,30
-1.05,-0.3,65
-1.05,-0.15,72
-1.05,0.0,112
-1.05,0.15,100
-1.05,0.3,99
-1.05,0.45,100
-1.05,0.6,99
-1.05,0.75,97
-1.05,0.9,97
-1.05,1.05,97
-1.05,1.2,108
-1.05,1.35,110
-1.05,1.5,119
-0.9,-1.5,95
-0.9,-1.35,96
-0.9,-1.2,98
-0.9,-1.05,101
-0.9,-0.9,98
-0.9,-0.75,81
-0.9,-0.6,67
-0.9,-0.45,70
-0.9,-0.3,79
-0.9,-0.15,58
-0.9,0.0,19
-0.9,0.15,79
-0.9,0.3,93
-0.9,0.45,97
-0.9,0.6,97
-0.9,0.75,103
-0.9,0.9,104
-0.9,1.05,106
-0.9,1.2,109
-0.9,1.35,132
-0.9,1.5,135
-0.75,-1.5,106
-0.75,-1.35,108
-0.75,-1.2,112
-0.75,-1.05,116
-0.75,-0.9,115
-0.75,-0.75,104
-0.75,-0.6,77
-0.75,-0.45,91
-0.75,-0.3,104
-0.75,-0.15,112
-0.75,0.0,91
-0.75,0.15,90
-0.75,0.3,103
-0.75,0.45,105
-0.75,0.6,106
-0.75,0.75,97
-0.75,0.9,95
-0.75,1.05,117
-0.75,1.2,124
-0.75,1.35,130
-0.75,1.5,127
-0.6,-1.5,126
-0.6,-1.35,129
-0.6,-1.2,139
-0.6,-1.05,145
-0.6,-0.9,155
-0.6,-0.75,169
-0.6,-0.6,195
-0.6,-0.45,154
-0.6,-0.3,126
-0.6,-0.15,168
-0.6,0.0,118
-0.6,0.15,111
-0.6,0.3,125
-0.6,0.45,120
-0.6,0.6,89
-0.6,0.75,74
-0.6,0.9,93
-0.6,1.05,110
-0.6,1.2,117
-0.6,1.35,127
-0.6,1.5,130
-0.45,-1.5,150
-0.45,-1.35,152
-0.45,-1.2,141
-0.45,-1.05,154
-0.45,-0.9,178
-0.45,-0.75,221
-0.45,-0.6,255
-0.45,-0.45,189
-0.45,-0.3,153
-0.45,-0.15,136
-0.45,0.0,153
-0.45,0.15,156
-0.45,0.3,144
-0.45,0.45,129
-0.45,0.6,92
-0.45,0.75,75
-0.45,0.9,89
-0.45,1.05,101
-0.45,1.2,123
-0.45,1.35,129
-0.45,1.5,130
-0.3,-1.5,148
-0.3,-1.35,152
-0.3,-1.2,146
-0.3,-1.05,154
-0.3,-0.9,180
-0.3,-0.75,195
-0.3,-0.6,196
-0.3,-0.45,186
-0.3,-0.3,201
-0.3,-0.15,214
-0.3,0.0,197
-0.3,0.15,151
-0.3,0.3,157
-0.3,0.45,140
-0.3,0.6,117
-0.3,0.75,110
-0.3,0.9,114
-0.3,1.05,118
-0.3,1.2,124
-0.3,1.35,127
-0.3,1.5,130
-0.15,-1.5,148
-0.15,-1.35,148
-0.15,-1.2,156
-0.15,-1.05,165
-0.15,-0.9,181
-0.15,-0.75,171
-0.15,-0.6,136
-0.15,-0.45,107
-0.15,-0.3,219
-0.15,-0.15,255
-0.15,0.0,255
-0.15,0.15,224
-0.15,0.3,183
-0.15,0.45,150
-0.15,0.6,137
-0.15,0.75,129
-0.15,0.9,129
-0.15,1.05,129
-0.15,1.2,128
-0.15,1.35,111
-0.15,1.5,105
0.0,-1.5,171
0.0,-1.35,171
0.0,-1.2,171
0.0,-1.05,171
0.0,-0.9,162
0.0,-0.75,166
0.0,-0.6,142
0.0,-0.45,130
0.0,-0.3,251
0.0,-0.15,251
0.0,0.0,255
0.0,0.15,166
0.0,0.3,149
0.0,0.45,143
0.0,0.6,141
0.0,0.75,138
0.0,0.9,114
0.0,1.05,113
0.0,1.2,105
0.0,1.35,105
0.0,1.5,105
0.15,-1.5,170
0.15,-1.35,170
0.15,-1.2,168
0.15,-1.05,166
0.15,-0.9,163
0.15,-0.75,154
0.15,-0.6,159
0.15,-0.45,165
0.15,-0.3,150
0.15,-0.15,155
0.15,0.0,91
0.15,0.15,72
0.15,0.3,108
0.15,0.45,125
0.15,0.6,118
0.15,0.75,122
0.15,0.9,120
0.15,1.05,120
0.15,1.2,105
0.15,1.35,105
0.15,1.5,105
0.3,-1.5,160
0.3,-1.35,181
0.3,-1.2,158
0.3,-1.05,163
0.3,-0.9,160
0.3,-0.75,159
0.3,-0.6,177
0.3,-0.45,198
0.3,-0.3,156
0.3,-0.15,145
0.3,0.0,174
0.3,0.15,78
0.3,0.3,125
0.3,0.45,119
0.3,0.6,113
0.3,0.75,99
0.3,0.9,97
0.3,1.05,95
0.3,1.2,93
0.3,1.35,92
0.3,1.5,91
0.45,-1.5,160
0.45,-1.35,147
0.45,-1.2,147
0.45,-1.05,147
0.45,-0.9,145
0.45,-0.75,139
0.45,-0.6,113
0.45,-0.45,233
0.45,-0.3,194
0.45,-0.15,109
0.45,0.0,86
0.45,0.15,104
0.45,0.3,180
0.45,0.45,127
0.45,0.6,115
0.45,0.75,100
0.45,0.9,97
0.45,1.05,95
0.45,1.2,94
0.45,1.35,93
0.45,1.5,91
0.6,-1.5,147
0.6,-1.35,148
0.6,-1.2,150
0.6,-1.05,151
0.6,-0.9,150
0.6,-0.75,142
0.6,-0.6,116
0.6,-0.45,80
0.6,-0.3,85
0.6,-0.15,114
0.6,0.0,96
0.6,0.15,112
0.6,0.3,120
0.6,0.45,113
0.6,0.6,112
0.6,0.75,111
0.6,0.9,110
0.6,1.05,94
0.6,1.2,93
0.6,1.35,92
0.6,1.5,91
0.75,-1.5,125
0.75,-1.35,128
0.75,-1.2,133
0.75,-1.05,153
0.75,-0.9,157
0.75,-0.75,169
0.75,-0.6,203
0.75,-0.45,155
0.75,-0.3,30
0.75,-0.15,62
0.75,0.0,167
0.75,0.15,111
0.75,0.3,102
0.75,0.45,79
0.75,0.6,106
0.75,0.75,106
0.75,0.9,95
0.75,1.05,94
0.75,1.2,93
0.75,1.35,93
0.75,1.5,89
0.9,-1.5,121
0.9,-1.35,124
0.9,-1.2,128
0.9,-1.05,135
0.9,-0.9,146
0.9,-0.75,172
0.9,-0.6,253
0.9,-0.45,242
0.9,-0.3,205
0.9,-0.15,92
0.9,0.0,95
0.9,0.15,89
0.9,0.3,96
0.9,0.45,106
0.9,0.6,99
0.9,0.75,86
0.9,0.9,84
0.9,1.05,85
0.9,1.2,85
0.9,1.35,86
0.9,1.5,82
1.05,-1.5,115
1.05,-1.35,116
1.05,-1.2,107
1.05,-1.05,113
1.05,-0.9,119
1.05,-0.75,131
1.05,-0.6,136
1.05,-0.45,84
1.05,-0.3,113
1.05,-0.15,124
1.05,0.0,81
1.05,0.15,128
1.05,0.3,86
1.05,0.45,80
1.05,0.6,67
1.05,0.75,64
1.05,0.9,65
1.05,1.05,63
1.05,1.2,62
1.05,1.35,62
1.05,1.5,61
1.2,-1.5,95
1.2,-1.35,95
1.2,-1.2,95
1.2,-1.05,97
1.2,-0.9,100
1.2,-0.75,111
1.2,-0.6,102
1.2,-0.45,71
1.2,-0.3,82
1.2,-0.15,95
1.2,0.0,65
1.2,0.15,64
1.2,0.3,49
1.2,0.45,50
1.2,0.6,60
1.2,0.75,65
1.2,0.9,61
1.2,1.05,60
1.2,1.2,60
1.2,1.35,60
1.2,1.5,60
1.35,-1.5,88
1.35,-1.35,85
1.35,-1.2,82
1.35,-1.05,78
1.35,-0.9,73
1.35,-0.75,81
1.35,-0.6,82
1.35,-0.45,59
1.35,-0.3,58
1.35,-0.15,123
1.35,0.0,71
1.35,0.15,16
1.35,0.3,28
1.35,0.45,7
1.35,0.6,35
1.35,0.75,51
1.35,0.9,53
1.35,1.05,53
1.35,1.2,53
1.35,1.35,54
1.35,1.5,54
1.5,-1.5,72
1.5,-1.35,66
1.5,-1.2,63
1.5,-1.05,57
1.5,-0.9,39
1.5,-0.75,17
1.5,-0.6,42
1.5,-0.45,49
1.5,-0.3,48
1.5,-0.15,90
1.5,0.0,77
1.5,0.15,62
1.5,0.3,49
1.5,0.45,30
1.5,0.6,38
1.5,0.75,45
1.5,0.9,49
1.5,1.05,51
1.5,1.2,54
1.5,1.35,52
1.5,1.5,52
1.65,-1.5,48
1.65,-1.35,51
1.65,-1.2,58
1.65,-1.05,58
1.65,-0.9,30
1.65,-0.75,0
1.65,-0.6,30
1.65,-0.45,48
1.65,-0.3,65
1.65,-0.15,68
1.65,0.0,71
1.65,0.15,68
1.65,0.3,47
1.65,0.45,37
1.65,0.6,45
1.65,0.75,51
1.65,0.9,51
1.65,1.05,46
1.65,1.2,47
1.65,1.35,47
1.65,1.5,47
1.8,-1.5,48
1.8,-1.35,54
1.8,-1.2,58
1.8,-1.05,58
1.8,-0.9,43
1.8,-0.75,33
1.8,-0.6,44
1.8,-0.45,53
1.8,-0.3,65
1.8,-0.15,62
1.8,0.0,70
1.8,0.15,88
1.8,0.3,67
1.8,0.45,51
1.8,0.6,51
1.8,0.75,51
1.8,0.9,47
1.8,1.05,46
1.8,1.2,37
1.8,1.35,37
1.8,1.5,37
1.95,-1.5,47
1.95,-1.35,49
1.95,-1.2,52
1.95,-1.05,52
1.95,-0.9,47
1.95,-0.75,47
1.95,-0.6,52
1.95,-0.45,58
1.95,-0.3,38
1.95,-0.15,62
1.95,0.0,60
1.95,0.15,59
1.95,0.3,62
1.95,0.45,62
1.95,0.6,50
1.95,0.75,45
1.95,0.9,42
1.95,1.05,45
1.95,1.2,45
1.95,1.35,45
1.95,1.5,45
2.1,-1.5,47
2.1,-1.35,47
2.1,-1.2,47
2.1,-1.05,47
2.1,-0.9,47
2.1,-0.75,47
2.1,-0.6,61
2.1,-0.45,68
2.1,-0.3,130
2.1,-0.15,61
2.1,0.0,69
2.1,0.15,43
2.1,0.3,58
2.1,0.45,60
2.1,0.6,47
2.1,0.75,39
2.1,0.9,38
2.1,1.05,38
2.1,1.2,38
2.1,1.35,34
2.1,1.5,35
2.25,-1.5,56
2.25,-1.35,55
2.25,-1.2,54
2.25,-1.05,52
2.25,-0.9,50
2.25,-0.75,47
2.25,-0.6,55
2.25,-0.45,66
2.25,-0.3,86
2.25,-0.15,121
2.25,0.0,77
2.25,0.15,77
2.25,0.3,58
2.25,0.45,51
2.25,0.6,27
2.25,0.75,26
2.25,0.9,31
2.25,1.05,34
2.25,1.2,36
2.25,1.35,37
2.25,1.5,34
2.4,-1.5,71
2.4,-1.35,77
2.4,-1.2,75
2.4,-1.05,77
2.4,-0.9,56
2.4,-0.75,38
2.4,-0.6,42
2.4,-0.45,47
2.4,-0.3,110
2.4,-0.15,137
2.4,0.0,121
2.4,0.15,69
2.4,0.3,20
2.4,0.45,11
2.4,0.6,0
2.4,0.75,15
2.4,0.9,26
2.4,1.05,25
2.4,1.2,27
2.4,1.35,32
2.4,1.5,33
2.55,-1.5,88
2.55,-1.35,88
2.55,-1.2,85
2.55,-1.05,81
2.55,-0.9,74
2.55,-0.75,55
2.55,-0.6,50
2.55,-0.45,48
2.55,-0.3,57
2.55,-0.15,108
2.55,0.0,92
2.55,0.15,58
2.55,0.3,30
2.55,0.45,20
2.55,0.6,16
2.55,0.75,21
2.55,0.9,25
2.55,1.05,25
2.55,1.2,27
2.55,1.35,28
2.55,1.5,27
2.7,-1.5,111
2.7,-1.35,110
2.7,-1.2,98
2.7,-1.05,97
2.7,-0.9,96
2.7,-0.75,98
2.7,-0.6,120
2.7,-0.45,214
2.7,-0.3,101
2.7,-0.15,72
2.7,0.0,66
2.7,0.15,61
2.7,0.3,61
2.7,0.45,39
2.7,0.6,28
2.7,0.75,26
2.7,0.9,27
2.7,1.05,27
2.7,1.2,26
2.7,1.35,27
2.7,1.5,28
2.85,-1.5,134
2.85,-1.35,121
2.85,-1.2,122
2.85,-1.05,125
2.85,-0.9,120
2.85,-0.75,136
2.85,-0.6,159
2.85,-0.45,181
2.85,-0.3,106
2.85,-0.15,65
2.85,0.0,39
2.85,0.15,54
2.85,0.3,43
2.85,0.45,36
2.85,0.6,28
2.85,0.75,26
2.85,0.9,26
2.85,1.05,26
2.85,1.2,26
2.85,1.35,27
2.85,1.5,27
3.0,-1.5,152
3.0,-1.35,155
3.0,-1.2,164
3.0,-1.05,178
3.0,-0.9,170
3.0,-0.75,191
3.0,-0.6,235
3.0,-0.45,181
3.0,-0.3,91
3.0,-0.15,64
3.0,0.0,49
3.0,0.15,38
3.0,0.3,12
3.0,0.45,24
3.0,0.6,30
3.0,0.75,31
3.0,0.9,27
3.0,1.05,27
3.0,1.2,32
3.0,1.35,32
3.0,1.5,49
3.15,-1.5,160
3.15,-1.35,164
3.15,-1.2,174
3.15,-1.05,181
3.15,-0.9,197
3.15,-0.75,206
3.15,-0.6,221
3.15,-0.45,163
3.15,-0.3,105
3.15,-0.15,64
3.15,0.0,29
3.15,0.15,37
3.15,0.3,18
3.15,0.45,24
3.15,0.6,37
3.15,0.75,41
3.15,0.9,39
3.15,1.05,39
3.15,1.2,56
3.15,1.35,52
3.15,1.5,79
3.3,-1.5,124
3.3,-1.35,145
3.3,-1.2,150
3.3,-1.05,157
3.3,-0.9,171
3.3,-0.75,181
3.3,-0.6,187
3.3,-0.45,156
3.3,-0.3,142
3.3,-0.15,20
3.3,0.0,43
3.3,0.15,47
3.3,0.3,46
3.3,0.45,37
3.3,0.6,34
3.3,0.75,35
3.3,0.9,55
3.3,1.05,84
3.3,1.2,109
3.3,1.35,111
3.3,1.5,107
3.45,-1.5,124
3.45,-1.35,124
3.45,-1.2,127
3.45,-1.05,132
3.45,-0.9,142
3.45,-0.75,170
3.45,-0.6,200
3.45,-0.45,239
3.45,-0.3,81
3.45,-0.15,30
3.45,0.0,51
3.45,0.15,61
3.45,0.3,54
3.45,0.45,19
3.45,0.6,65
3.45,0.75,98
3.45,0.9,108
3.45,1.05,113
3.45,1.2,115
3.45,1.35,116
3.45,1.5,117
3.6,-1.5,127
3.6,-1.35,127
3.6,-1.2,116
3.6,-1.05,116
3.6,-0.9,122
3.6,-0.75,137
3.6,-0.6,188
3.6,-0.45,202
3.6,-0.3,81
3.6,-0.15,87
3.6,0.0,128
3.6,0.15,43
3.6,0.3,127
3.6,0.45,69
3.6,0.6,99
3.6,0.75,114
3.6,0.9,120
3.6,1.05,121
3.6,1.2,122
3.6,1.35,122
3.6,1.5,121
3.75,-1.5,126
3.75,-1.35,111
3.75,-1.2,107
3.75,-1.05,100
3.75,-0.9,90
3.75,-0.75,92
3.75,-0.6,148
3.75,-0.45,81
3.75,-0.3,75
3.75,-0.15,153
3.75,0.0,117
3.75,0.15,85
3.75,0.3,14
3.75,0.45,117
3.75,0.6,131
3.75,0.75,133
3.75,0.9,132
3.75,1.05,130
3.75,1.2,128
3.75,1.35,126
3.75,1.5,124
3.9,-1.5,111
3.9,-1.35,107
3.9,-1.2,102
3.9,-1.05,90
3.9,-0.9,61
3.9,-0.75,0
3.9,-0.6,31
3.9,-0.45,65
3.9,-0.3,85
3.9,-0.15,97
3.9,0.0,55
3.9,0.15,73
3.9,0.3,124
3.9,0.45,110
3.9,0.6,140
3.9,0.75,147
3.9,0.9,141
3.9,1.05,134
3.9,1.2,129
3.9,1.35,129
3.9,1.5,126
4.05,-1.5,122
4.05,-1.35,118
4.05,-1.2,112
4.05,-1.05,102
4.05,-0.9,87
4.05,-0.75,75
4.05,-0.6,101
4.05,-0.45,73
4.05,-0.3,148
4.05,-0.15,84
4.05,0.0,16
4.05,0.15,40
4.05,0.3,110
4.05,0.45,170
4.05,0.6,206
4.05,0.75,168
4.05,0.9,149
4.05,1.05,140
4.05,1.2,134
4.05,1.35,126
4.05,1.5,126
4.2,-1.5,110
4.2,-1.35,108
4.2,-1.2,106
4.2,-1.05,123
4.2,-0.9,124
4.2,-0.75,144
4.2,-0.6,209
4.2,-0.45,215
4.2,-0.3,150
4.2,-0.15,113
4.2,0.0,30
4.2,0.15,39
4.2,0.3,53
4.2,0.45,130
4.2,0.6,158
4.2,0.75,163
4.2,0.9,157
4.2,1.05,150
4.2,1.2,132
4.2,1.35,128
4.2,1.5,126
4.35,-1.5,142
4.35,-1.35,142
4.35,-1.2,142
4.35,-1.05,143
4.35,-0.9,157
4.35,-0.75,166
4.35,-0.6,194
4.35,-0.45,206
4.35,-0.3,225
4.35,-0.15,99
4.35,0.0,33
4.35,0.15,50
4.35,0.3,25
4.35,0.45,101
4.35,0.6,143
4.35,0.75,149
4.35,0.9,153
4.35,1.05,152
4.35,1.2,151
4.35,1.35,150
4.35,1.5,150
4.5,-1.5,137
4.5,-1.35,137
4.5,-1.2,138
4.5,-1.05,143
4.5,-0.9,150
4.5,-0.75,187
4.5,-0.6,183
4.5,-0.45,172
4.5,-0.3,140
4.5,-0.15,48
4.5,0.0,18
4.5,0.15,25
4.5,0.3,150
4.5,0.45,112
4.5,0.6,100
4.5,0.75,100
4.5,0.9,124
4.5,1.05,144
4.5,1.2,140
4.5,1.35,131
4.5,1.5,132
4.65,-1.5,137
4.65,-1.35,137
4.65,-1.2,137
4.65,-1.05,126
4.65,-0.9,145
4.65,-0.75,147
4.65,-0.6,146
4.65,-0.45,142
4.65,-0.3,248
4.65,-0.15,129
4.65,0.0,108
4.65,0.15,160
4.65,0.3,123
4.65,0.45,130
4.65,0.6,122
4.65,0.75,88
4.65,0.9,109
4.65,1.05,113
4.65,1.2,105
4.65,1.35,106
4.65,1.5,84
4.8,-1.5,153
4.8,-1.35,154
4.8,-1.2,154
4.8,-1.05,140
4.8,-0.9,142
4.8,-0.75,147
4.8,-0.6,155
4.8,-0.45,79
4.8,-0.3,89
4.8,-0.15,116
4.8,0.0,200
4.8,0.15,240
4.8,0.3,146
4.8,0.45,66
4.8,0.6,88
4.8,0.75,110
4.8,0.9,105
4.8,1.05,102
4.8,1.2,110
4.8,1.35,84
4.8,1.5,104
4.95,-1.5,133
4.95,-1.35,138
4.95,-1.2,143
4.95,-1.05,143
4.95,-0.9,142
4.95,-0.75,138
4.95,-0.6,153
4.95,-0.45,179
4.95,-0.3,63
4.95,-0.15,98
4.95,0.0,122
4.95,0.15,249
4.95,0.3,0
4.95,0.45,41
4.95,0.6,68
4.95,0.75,87
4.95,0.9,81
4.95,1.05,83
4.95,1.2,59
4.95,1.35,68
4.95,1.5,74
5.1,-1.5,142
5.1,-1.35,142
5.1,-1.2,141
5.1,-1.05,141
5.1,-0.9,142
5.1,-0.75,129
5.1,-0.6,83
5.1,-0.45,175
5.1,-0.3,164
5.1,-0.15,91
5.1,0.0,83
5.1,0.15,128
5.1,0.3,52
5.1,0.45,53
5.1,0.6,82
5.1,0.75,60
5.1,0.9,53
5.1,1.05,49
5.1,1.2,56
5.1,1.35,74
5.1,1.5,74
5.25,-1.5,133
5.25,-1.35,133
5.25,-1.2,134
5.25,-1.05,130
5.25,-0.9,134
5.25,-0.75,136
5.25,-0.6,153
5.25,-0.45,165
5.25,-0.3,98
5.25,-0.15,164
5.25,0.0,93
5.25,0.15,30
5.25,0.3,27
5.25,0.45,238
5.25,0.6,111
5.25,0.75,63
5.25,0.9,56
5.25,1.05,70
5.25,1.2,69
5.25,1.35,73
5.25,1.5,73
5.4,-1.5,102
5.4,-1.35,92
5.4,-1.2,111
5.4,-1.05,112
5.4,-0.9,116
5.4,-0.75,123
5.4,-0.6,131
5.4,-0.45,150
5.4,-0.3,147
5.4,-0.15,47
5.4,0.0,64
5.4,0.15,8
5.4,0.3,3
5.4,0.45,46
5.4,0.6,70
5.4,0.75,80
5.4,0.9,97
5.4,1.05,100
5.4,1.2,99
5.4,1.35,98
5.4,1.5,97
5.55,-1.5,62
5.55,-1.35,70
5.55,-1.2,70
5.55,-1.05,71
5.55,-0.9,97
5.55,-0.75,104
5.55,-0.6,91
5.55,-0.45,61
5.55,-0.3,126
5.55,-0.15,27
5.55,0.0,66
5.55,0.15,16
5.55,0.3,0
5.55,0.45,44
5.55,0.6,88
5.55,0.75,99
5.55,0.9,104
5.55,1.05,103
5.55,1.2,106
5.55,1.35,105
5.55,1.5,99
5.7,-1.5,62
5.7,-1.35,62
5.7,-1.2,62
5.7,-1.05,62
5.7,-0.9,65
5.7,-0.75,65
5.7,-0.6,71
5.7,-0.45,79
5.7,-0.3,100
5.7,-0.15,29
5.7,0.0,100
5.7,0.15,44
5.7,0.3,50
5.7,0.45,116
5.7,0.6,114
5.7,0.75,112
5.7,0.9,110
5.7,1.05,107
5.7,1.2,106
5.7,1.35,104
5.7,1.5,103
5.85,-1.5,62
5.85,-1.35,62
5.85,-1.2,62
5.85,-1.05,80
5.85,-0.9,80
5.85,-0.75,95
5.85,-0.6,94
5.85,-0.45,83
5.85,-0.3,182
5.85,-0.15,88
5.85,0.0,58
5.85,0.15,87
5.85,0.3,93
5.85,0.45,98
5.85,0.6,160
5.85,0.75,126
5.85,0.9,99
5.85,1.05,91
5.85,1.2,104
5.85,1.35,106
5.85,1.5,105
6.0,-1.5,62
6.0,-1.35,62
6.0,-1.2,63
6.0,-1.05,62
6.0,-0.9,55
6.0,-0.75,36
6.0,-0.6,148
6.0,-0.45,63
6.0,-0.3,65
6.0,-0.15,29
6.0,0.0,62
6.0,0.15,66
6.0,0.3,42
6.0,0.45,68
6.0,0.6,137
6.0,0.75,120
6.0,0.9,109
6.0,1.05,108
6.0,1.2,105
6.0,1.35,128
6.0,1.5,129
6.15,-1.5,71
6.15,-1.35,71
6.15,-1.2,71
6.15,-1.05,70
6.15,-0.9,64
6.15,-0.75,62
6.15,-0.6,104
6.15,-0.45,41
6.15,-0.3,62
6.15,-0.15,88
6.15,0.0,180
6.15,0.15,186
6.15,0.3,6
6.15,0.45,82
6.15,0.6,84
6.15,0.75,103
6.15,0.9,108
6.15,1.05,109
6.15,1.2,109
6.15,1.35,109
6.15,1.5,114
6.3,-1.5,71
6.3,-1.35,72
6.3,-1.2,73
6.3,-1.05,74
6.3,-0.9,77
6.3,-0.75,109
6.3,-0.6,136
6.3,-0.45,38
6.3,-0.3,53
6.3,-0.15,83
6.3,0.0,81
6.3,0.15,79
6.3,0.3,78
6.3,0.45,77
6.3,0.6,66
6.3,0.75,103
6.3,0.9,101
6.3,1.05,104
6.3,1.2,105
6.3,1.35,113
6.3,1.5,95
6.45,-1.5,85
6.45,-1.35,85
6.45,-1.2,71
6.45,-1.05,82
6.45,-0.9,82
6.45,-0.75,87
6.45,-0.6,80
6.45,-0.45,38
6.45,-0.3,38
6.45,-0.15,30
6.45,0.0,26
6.45,0.15,56
6.45,0.3,48
6.45,0.45,22
6.45,0.6,32
6.45,0.75,85
6.45,0.9,99
6.45,1.05,84
6.45,1.2,82
6.45,1.35,81
6.45,1.5,79
6.6,-1.5,83
6.6,-1.35,69
6.6,-1.2,69
6.6,-1.05,71
6.6,-0.9,87
6.6,-0.75,86
6.6,-0.6,80
6.6,-0.45,68
6.6,-0.3,148
6.6,-0.15,101
6.6,0.0,44
6.6,0.15,0
6.6,0.3,0
6.6,0.45,3
6.6,0.6,208
6.6,0.75,108
6.6,0.9,80
6.6,1.05,78
6.6,1.2,73
6.6,1.35,70
6.6,1.5,68
6.75,-1.5,73
6.75,-1.35,73
6.75,-1.2,71
6.75,-1.05,40
6.75,-0.9,55
6.75,-0.75,52
6.75,-0.6,57
6.75,-0.45,56
6.75,-0.3,79
6.75,-0.15,248
6.75,0.0,59
6.75,0.15,97
6.75,0.3,55
6.75,0.45,67
6.75,0.6,189
6.75,0.75,73
6.75,0.9,76
6.75,1.05,74
6.75,1.2,70
6.75,1.35,67
6.75,1.5,66
6.9,-1.5,62
6.9,-1.35,62
6.9,-1.2,62
6.9,-1.05,52
6.9,-0.9,55
6.9,-0.75,43
6.9,-0.6,57
6.9,-0.45,47
6.9,-0.3,87
6.9,-0.15,0
6.9,0.0,11
6.9,0.15,98
6.9,0.3,195
6.9,0.45,41
6.9,0.6,64
6.9,0.75,61
6.9,0.9,66
6.9,1.05,65
6.9,1.2,60
6.9,1.35,59
6.9,1.5,63
7.05,-1.5,68
7.05,-1.35,69
7.05,-1.2,74
7.05,-1.05,65
7.05,-0.9,64
7.05,-0.75,58
7.05,-0.6,30
7.05,-0.45,69
7.05,-0.3,0
7.05,-0.15,0
7.05,0.0,34
7.05,0.15,51
7.05,0.3,12
7.05,0.45,4
7.05,0.6,21
7.05,0.75,40
7.05,0.9,59
7.05,1.05,65
7.05,1.2,56
7.05,1.35,76
7.05,1.5,78
7.2,-1.5,91
7.2,-1.35,91
7.2,-1.2,91
7.2,-1.05,91
7.2,-0.9,84
7.2,-0.75,109
7.2,-0.6,120
7.2,-0.45,64
7.2,-0.3,195
7.2,-0.15,2
7.2,0.0,166
7.2,0.15,73
7.2,0.3,52
7.2,0.45,23
7.2,0.6,7
7.2,0.75,20
7.2,0.9,40
7.2,1.05,45
7.2,1.2,47
7.2,1.35,47
7.2,1.5,48
7.35,-1.5,94
7.35,-1.35,91
7.35,-1.2,91
7.35,-1.05,89
7.35,-0.9,95
7.35,-0.75,111
7.35,-0.6,126
7.35,-0.45,102
7.35,-0.3,97
7.35,-0.15,113
7.35,0.0,21
7.35,0.15,56
7.35,0.3,71
7.35,0.45,73
7.35,0.6,103
7.35,0.75,39
7.35,0.9,43
7.35,1.05,45
7.35,1.2,51
7.35,1.35,51
7.35,1.5,66
7.5,-1.5,140
7.5,-1.35,119
7.5,-1.2,100
7.5,-1.05,101
7.5,-0.9,101
7.5,-0.75,96
7.5,-0.6,88
7.5,-0.45,64
7.5,-0.3,62
7.5,-0.15,66
7.5,0.0,33
7.5,0.15,11
7.5,0.3,37
7.5,0.45,44
7.5,0.6,20
7.5,0.75,67
7.5,0.9,75
7.5,1.05,80
7.5,1.2,83
7.5,1.35,84
7.5,1.5,82
7.65,-1.5,111
7.65,-1.35,109
7.65,-1.2,106
7.65,-1.05,78
7.65,-0.9,83
7.65,-0.75,88
7.65,-0.6,149
7.65,-0.45,13
7.65,-0.3,59
7.65,-0.15,78
7.65,0.0,30
7.65,0.15,114
7.65,0.3,76
7.65,0.45,157
7.65,0.6,41
7.65,0.75,67
7.65,0.9,80
7.65,1.05,79
7.65,1.2,79
7.65,1.35,84
7.65,1.5,79
7.8,-1.5,110
7.8,-1.35,110
7.8,-1.2,103
7.8,-1.05,97
7.8,-0.9,76
7.8,-0.75,73
7.8,-0.6,67
7.8,-0.45,9
7.8,-0.3,37
7.8,-0.15,22
7.8,0.0,12
7.8,0.15,82
7.8,0.3,149
7.8,0.45,111
7.8,0.6,250
7.8,0.75,106
7.8,0.9,92
7.8,1.05,88
7.8,1.2,86
7.8,1.35,80
7.8,1.5,75
7.95,-1.5,116
7.95,-1.35,118
7.95,-1.2,119
7.95,-1.05,114
7.95,-0.9,93
7.95,-0.75,48
7.95,-0.6,10
7.95,-0.45,9
7.95,-0.3,58
7.95,-0.15,87
7.95,0.0,211
7.95,0.15,25
7.95,0.3,126
7.95,0.45,135
7.95,0.6,23
7.95,0.75,75
7.95,0.9,88
7.95,1.05,88
7.95,1.2,84
7.95,1.35,79
7.95,1.5,75
8.1,-1.5,101
8.1,-1.35,110
8.1,-1.2,124
8.1,-1.05,145
8.1,-0.9,146
8.1,-0.75,25
8.1,-0.6,13
8.1,-0.45,42
8.1,-0.3,69
8.1,-0.15,120
8.1,0.0,7
8.1,0.15,39
8.1,0.3,38
8.1,0.45,104
8.1,0.6,32
8.1,0.75,45
8.1,0.9,57
8.1,1.05,63
8.1,1.2,65
8.1,1.35,66
8.1,1.5,67
8.25,-1.5,98
8.25,-1.35,109
8.25,-1.2,127
8.25,-1.05,175
8.25,-0.9,255
8.25,-0.75,105
8.25,-0.6,64
8.25,-0.45,207
8.25,-0.3,137
8.25,-0.15,100
8.25,0.0,18
8.25,0.15,32
8.25,0.3,49
8.25,0.45,46
8.25,0.6,25
8.25,0.75,15
8.25,0.9,27
8.25,1.05,48
8.25,1.2,52
8.25,1.35,49
8.25,1.5,50
8.4,-1.5,89
8.4,-1.35,96
8.4,-1.2,110
8.4,-1.05,142
8.4,-0.9,160
8.4,-0.75,110
8.4,-0.6,74
8.4,-0.45,66
8.4,-0.3,29
8.4,-0.15,111
8.4,0.0,14
8.4,0.15,9
8.4,0.3,43
8.4,0.45,73
8.4,0.6,72
8.4,0.75,43
8.4,0.9,37
8.4,1.05,37
8.4,1.2,38
8.4,1.35,39
8.4,1.5,39
8.55,-1.5,77
8.55,-1.35,90
8.55,-1.2,88
8.55,-1.05,75
8.55,-0.9,64
8.55,-0.75,33
8.55,-0.6,67
8.55,-0.45,51
8.55,-0.3,86
8.55,-0.15,111
8.55,0.0,56
8.55,0.15,65
8.55,0.3,98
8.55,0.45,53
8.55,0.6,61
8.55,0.75,41
8.55,0.9,55
8.55,1.05,60
8.55,1.2,58
8.55,1.35,60
8.55,1.5,75
8.7,-1.5,82
8.7,-1.35,76
8.7,-1.2,62
8.7,-1.05,22
8.7,-0.9,13
8.7,-0.75,32
8.7,-0.6,80
8.7,-0.45,149
8.7,-0.3,107
8.7,-0.15,135
8.7,0.0,51
8.7,0.15,42
8.7,0.3,35
8.7,0.45,40
8.7,0.6,65
8.7,0.75,67
8.7,0.9,90
8.7,1.05,77
8.7,1.2,80
8.7,1.35,82
8.7,1.5,83
8.85,-1.5,79
8.85,-1.35,71
8.85,-1.2,54
8.85,-1.05,35
8.85,-0.9,34
8.85,-0.75,51
8.85,-0.6,71
8.85,-0.45,145
8.85,-0.3,101
8.85,-0.15,111
8.85,0.0,42
8.85,0.15,66
8.85,0.3,66
8.85,0.45,109
8.85,0.6,129
8.85,0.75,107
8.85,0.9,90
8.85,1.05,95
8.85,1.2,99
8.85,1.35,101
8.85,1.5,102
9.0,-1.5,78
9.0,-1.35,72
9.0,-1.2,61
9.0,-1.05,52
9.0,-0.9,56
9.0,-0.75,55
9.0,-0.6,22
9.0,-0.45,25
9.0,-0.3,25
9.0,-0.15,47
9.0,0.0,57
9.0,0.15,53
9.0,0.3,54
9.0,0.45,108
9.0,0.6,160
9.0,0.75,108
9.0,0.9,90
9.0,1.05,108
9.0,1.2,115
9.0,1.35,118
9.0,1.5,119
9.15,-1.5,64
9.15,-1.35,47
9.15,-1.2,43
9.15,-1.05,60
9.15,-0.9,63
9.15,-0.75,64
9.15,-0.6,8
9.15,-0.45,29
9.15,-0.3,68
9.15,-0.15,57
9.15,0.0,16
9.15,0.15,37
9.15,0.3,50
9.15,0.45,53
9.15,0.6,141
9.15,0.75,122
9.15,0.9,105
9.15,1.05,121
9.15,1.2,128
9.15,1.35,128
9.15,1.5,123
9.3,-1.5,60
9.3,-1.35,51
9.3,-1.2,68
9.3,-1.05,69
9.3,-0.9,71
9.3,-0.75,78
9.3,-0.6,130
9.3,-0.45,208
9.3,-0.3,110
9.3,-0.15,95
9.3,0.0,73
9.3,0.15,2
9.3,0.3,83
9.3,0.45,158
9.3,0.6,255
9.3,0.75,165
9.3,0.9,135
9.3,1.05,128
9.3,1.2,123
9.3,1.35,112
9.3,1.5,110
9.45,-1.5,77
9.45,-1.35,77
9.45,-1.2,76
9.45,-1.05,88
9.45,-0.9,75
9.45,-0.75,37
9.45,-0.6,75
9.45,-0.45,135
9.45,-0.3,76
9.45,-0.15,169
9.45,0.0,145
9.45,0.15,116
9.45,0.3,131
9.45,0.45,105
9.45,0.6,163
9.45,0.75,154
9.45,0.9,131
9.45,1.05,118
9.45,1.2,113
9.45,1.35,110
9.45,1.5,109
9.6,-1.5,84
9.6,-1.35,110
9.6,-1.2,106
9.6,-1.05,106
9.6,-0.9,95
9.6,-0.75,48
9.6,-0.6,64
9.6,-0.45,46
9.6,-0.3,71
9.6,-0.15,112
9.6,0.0,141
9.6,0.15,80
9.6,0.3,68
9.6,0.45,47
9.6,0.6,89
9.6,0.75,102
9.6,0.9,111
9.6,1.05,107
9.6,1.2,100
9.6,1.35,99
9.6,1.5,104
9.75,-1.5,97
9.75,-1.35,96
9.75,-1.2,95
9.75,-1.05,94
9.75,-0.9,92
9.75,-0.75,87
9.75,-0.6,122
9.75,-0.45,127
9.75,-0.3,81
9.75,-0.15,73
9.75,0.0,86
9.75,0.15,93
9.75,0.3,85
9.75,0.45,94
9.75,0.6,85
9.75,0.75,78
9.75,0.9,75
9.75,1.05,76
9.75,1.2,75
9.75,1.35,77
9.75,1.5,77
9.9,-1.5,123
9.9,-1.35,123
9.9,-1.2,121
9.9,-1.05,119
9.9,-0.9,103
9.9,-0.75,104
9.9,-0.6,155
9.9,-0.45,68
9.9,-0.3,99
9.9,-0.15,66
9.9,0.0,21
9.9,0.15,182
9.9,0.3,195
9.9,0.45,159
9.9,0.6,82
9.9,0.75,47
9.9,0.9,48
9.9,1.05,58
9.9,1.2,75
9.9,1.35,82
9.9,1.5,86
10.05,-1.5,119
10.05,-1.35,120
10.05,-1.2,125
10.05,-1.05,129
10.05,-0.9,129
10.05,-0.75,135
10.05,-0.6,123
10.05,-0.45,148
10.05,-0.3,102
10.05,-0.15,87
10.05,0.0,69
10.05,0.15,111
10.05,0.3,208
10.05,0.45,88
10.05,0.6,60
10.05,0.75,14
10.05,0.9,26
10.05,1.05,54
10.05,1.2,64
10.05,1.35,70
10.05,1.5,56
10.2,-1.5,79
10.2,-1.35,104
10.2,-1.2,105
10.2,-1.05,107
10.2,-0.9,108
10.2,-0.75,99
10.2,-0.6,126
10.2,-0.45,126
10.2,-0.3,86
10.2,-0.15,93
10.2,0.0,71
10.2,0.15,197
10.2,0.3,222
10.2,0.45,94
10.2,0.6,64
10.2,0.75,58
10.2,0.9,61
10.2,1.05,80
10.2,1.2,80
10.2,1.35,71
10.2,1.5,73
10.35,-1.5,72
10.35,-1.35,72
10.35,-1.2,73
10.35,-1.05,75
10.35,-0.9,87
10.35,-0.75,108
10.35,-0.6,255
10.35,-0.45,124
10.35,-0.3,89
10.35,-0.15,84
10.35,0.0,99
10.35,0.15,109
10.35,0.3,167
10.35,0.45,109
10.35,0.6,86
10.35,0.75,87
10.35,0.9,58
10.35,1.05,58
10.35,1.2,78
10.35,1.35,80
10.35,1.5,83
10.5,-1.5,64
10.5,-1.35,64
10.5,-1.2,60
10.5,-1.05,59
10.5,-0.9,65
10.5,-0.75,70
10.5,-0.6,51
10.5,-0.45,95
10.5,-0.3,84
10.5,-0.15,83
10.5,0.0,86
10.5,0.15,68
10.5,0.3,91
10.5,0.45,152
10.5,0.6,128
10.5,0.75,99
10.5,0.9,89
10.5,1.05,84
10.5,1.2,83
10.5,1.35,84
10.5,1.5,85
10.65,-1.5,62
10.65,-1.35,61
10.65,-1.2,59
10.65,-1.05,55
10.65,-0.9,50
10.65,-0.75,20
10.65,-0.6,18
10.65,-0.45,51
10.65,-0.3,79
10.65,-0.15,127
10.65,0.0,107
10.65,0.15,89
10.65,0.3,109
10.65,0.45,158
10.65,0.6,127
10.65,0.75,100
10.65,0.9,93
10.65,1.05,92
10.65,1.2,92
10.65,1.35,93
10.65,1.5,94
10.8,-1.5,61
10.8,-1.35,59
10.8,-1.2,57
10.8,-1.05,60
10.8,-0.9,44
10.8,-0.75,43
10.8,-0.6,59
10.8,-0.45,156
10.8,-0.3,144
10.8,-0.15,150
10.8,0.0,128
10.8,0.15,121
10.8,0.3,104
10.8,0.45,239
10.8,0.6,93
10.8,0.75,71
10.8,0.9,81
10.8,1.05,89
10.8,1.2,93
10.8,1.35,104
10.8,1.5,106
10.95,-1.5,61
10.95,-1.35,61
10.95,-1.2,52
10.95,-1.05,54
10.95,-0.9,60
10.95,-0.75,63
10.95,-0.6,68
10.95,-0.45,85
10.95,-0.3,156
10.95,-0.15,255
10.95,0.0,157
10.95,0.15,236
10.95,0.3,95
10.95,0.45,255
10.95,0.6,23
10.95,0.75,18
10.95,0.9,69
10.95,1.05,95
10.95,1.2,104
10.95,1.35,96
10.95,1.5,97
11.1,-1.5,52
11.1,-1.35,52
11.1,-1.2,52
11.1,-1.05,52
11.1,-0.9,62
11.1,-0.75,64
11.1,-0.6,72
11.1,-0.45,78
11.1,-0.3,134
11.1,-0.15,169
11.1,0.0,115
11.1,0.15,138
11.1,0.3,127
11.1,0.45,144
11.1,0.6,100
11.1,0.75,72
11.1,0.9,79
11.1,1.05,87
11.1,1.2,89
11.1,1.35,92
11.1,1.5,94
11.25,-1.5,52
11.25,-1.35,52
11.25,-1.2,52
11.25,-1.05,52
11.25,-0.9,53
11.25,-0.75,63
11.25,-0.6,73
11.25,-0.45,78
11.25,-0.3,105
11.25,-0.15,83
11.25,0.0,15
11.25,0.15,43
11.25,0.3,44
11.25,0.45,67
11.25,0.6,84
11.25,0.75,75
11.25,0.9,73
11.25,1.05,88
11.25,1.2,90
11.25,1.35,92
11.25,1.5,93
11.4,-1.5,52
11.4,-1.35,52
11.4,-1.2,52
11.4,-1.05,52
11.4,-0.9,52
11.4,-0.75,51
11.4,-0.6,52
11.4,-0.45,52
11.4,-0.3,62
11.4,-0.15,69
11.4,0.0,61
11.4,0.15,62
11.4,0.3,68
11.4,0.45,117
11.4,0.6,90
11.4,0.75,84
11.4,0.9,81
11.4,1.05,79
11.4,1.2,84
11.4,1.35,84
11.4,1.5,85
11.55,-1.5,54
11.55,-1.35,54
11.55,-1.2,54
11.55,-1.05,54
11.55,-0.9,55
11.55,-0.75,54
11.55,-0.6,38
11.55,-0.45,28
11.55,-0.3,43
11.55,-0.15,55
11.55,0.0,69
11.55,0.15,73
11.55,0.3,55
11.55,0.45,70
11.55,0.6,78
11.55,0.75,80
11.55,0.9,71
11.55,1.05,79
11.55,1.2,79
11.55,1.35,79
11.55,1.5,79
11.7,-1.5,57
11.7,-1.35,54
11.7,-1.2,54
11.7,-1.05,54
11.7,-0.9,57
11.7,-0.75,60
11.7,-0.6,51
11.7,-0.45,37
11.7,-0.3,40
11.7,-0.15,52
11.7,0.0,83
11.7,0.15,121
11.7,0.3,43
11.7,0.45,70
11.7,0.6,93
11.7,0.75,99
11.7,0.9,103
11.7,1.05,105
11.7,1.2,100
11.7,1.35,94
11.7,1.5,93
11.85,-1.5,54
11.85,-1.35,57
11.85,-1.2,56
11.85,-1.05,55
11.85,-0.9,55
11.85,-0.75,60
11.85,-0.6,60
11.85,-0.45,35
11.85,-0.3,13
11.85,-0.15,50
11.85,0.0,71
11.85,0.15,99
11.85,0.3,135
11.85,0.45,115
11.85,0.6,124
11.85,0.75,125
11.85,0.9,122
11.85,1.05,123
11.85,1.2,123
11.85,1.35,108
11.85,1.5,101
12.0,-1.5,57
12.0,-1.35,57
12.0,-1.2,56
12.0,-1.05,53
12.0,-0.9,42
12.0,-0.75,32
12.0,-0.6,65
12.0,-0.45,59
12.0,-0.3,39
12.0,-0.15,64
12.0,0.0,50
12.0,0.15,56
12.0,0.3,102
12.0,0.45,140
12.0,0.6,164
12.0,0.75,139
12.0,0.9,123
12.0,1.05,123
12.0,1.2,119
12.0,1.35,114
12.0,1.5,109
12.15,-1.5,57
12.15,-1.35,58
12.15,-1.2,57
12.15,-1.05,54
12.15,-0.9,43
12.15,-0.75,33
12.15,-0.6,116
12.15,-0.45,92
12.15,-0.3,78
12.15,-0.15,80
12.15,0.0,55
12.15,0.15,52
12.15,0.3,128
12.15,0.45,182
12.15,0.6,207
12.15,0.75,152
12.15,0.9,140
12.15,1.05,133
12.15,1.2,123
12.15,1.35,122
12.15,1.5,120
12.3,-1.5,69
12.3,-1.35,71
12.3,-1.2,71
12.3,-1.05,70
12.3,-0.9,66
12.3,-0.75,71
12.3,-0.6,80
12.3,-0.45,117
12.3,-0.3,99
12.3,-0.15,101
12.3,0.0,101
12.3,0.15,84
12.3,0.3,83
12.3,0.45,116
12.3,0.6,123
12.3,0.75,130
12.3,0.9,128
12.3,1.05,125
12.3,1.2,118
12.3,1.35,114
12.3,1.5,107
12.45,-1.5,62
12.45,-1.35,66
12.45,-1.2,70
12.45,-1.05,73
12.45,-0.9,72
12.45,-0.75,67
12.45,-0.6,92
12.45,-0.45,117
12.45,-0.3,106
12.45,-0.15,147
12.45,0.0,169
12.45,0.15,127
12.45,0.3,108
12.45,0.45,112
12.45,0.6,95
12.45,0.75,117
12.45,0.9,121
12.45,1.05,115
12.45,1.2,107
12.45,1.35,98
12.45,1.5,89
12.6,-1.5,52
12.6,-1.35,61
12.6,-1.2,70
12.6,-1.05,77
12.6,-0.9,78
12.6,-0.75,81
12.6,-0.6,93
12.6,-0.45,103
12.6,-0.3,125
12.6,-0.15,148
12.6,0.0,255
12.6,0.15,160
12.6,0.3,91
12.6,0.45,127
12.6,0.6,105
12.6,0.75,105
12.6,0.9,104
12.6,1.05,100
12.6,1.2,94
12.6,1.35,80
12.6,1.5,69
12.75,-1.5,32
12.75,-1.35,45
12.75,-1.2,66
12.75,-1.05,83
12.75,-0.9,102
12.75,-0.75,111
12.75,-0.6,103
12.75,-0.45,69
12.75,-0.3,106
12.75,-0.15,141
12.75,0.0,152
12.75,0.15,116
12.75,0.3,74
12.75,0.45,79
12.75,0.6,90
12.75,0.75,96
12.75,0.9,85
12.75,1.05,80
12.75,1.2,66
12.75,1.35,45
12.75,1.5,33
12.9,-1.5,4
12.9,-1.35,23
12.9,-1.2,59
12.9,-1.05,97
12.9,-0.9,125
12.9,-0.75,167
12.9,-0.6,193
12.9,-0.45,7
12.9,-0.3,89
12.9,-0.15,122
12.9,0.0,114
12.9,0.15,82
12.9,0.3,75
12.9,0.45,68
12.9,0.6,73
12.9,0.75,81
12.9,0.9,80
12.9,1.05,73
12.9,1.2,53
12.9,1.35,21
12.9,1.5,4
13.05,-1.5,0
13.05,-1.35,17
13.05,-1.2,62
13.05,-1.05,100
13.05,-0.9,136
13.05,-0.75,187
13.05,-0.6,236
13.05,-0.45,133
13.05,-0.3,110
13.05,-0.15,116
13.05,0.0,103
13.05,0.15,83
13.05,0.3,78
13.05,0.45,77
13.05,0.6,79
13.05,0.75,80
13.05,0.9,80
13.05,1.05,68
13.05,1.2,48
13.05,1.35,15
13.05,1.5,0
